3067 3067 3067 3069 3069 3070 3078 3078 3078 3082 3082 3083 3085 3092 3103 3106 3109 3111 3111 3114 3120 3120 3122 3125 3126 3133 3138 3140 3142 3147 3148 3149 3149 3149 3157 3161 3161 3161 3163 3163 3167 3170 3176 3183 3191 3194 3202 3203 3203 3204 3208 3214 3219 3221 3228 3234 3240 3240 3244 3248 3253 3263 3270 3271 3273 3275 3281 3287 3289 3289 3289 3291 3292 3292 3293 3297 3304 3307 3315 3322 3328 3337 3341 3341 3341 3342 3348 3360 3371 3377 3383 3384 3387 3389 3393 3398 3403 3405 3408 3408 3410 3411 3414 3419 3423 3426 3429 3429 3430 3433 3440 3446 3452 3458 3462 3466 3470 3473 3477 3480 3482 3485 3490 3498 3504 3507 3510 3514 3517 3521 3525 3527 3530 3535 3541 3548 3552 3554 3558 3565 3565 3565 3566 3571 3576 3578 3579 3580 3582 3586 3592 3597 3599 3603 3608 3613 3613 3614 3616 3619 3623 3626 3628 3628 3631 3634 3634 3635 3637 3637 3639 3643 3649 3651 3652 3652 3652 3657 3664 3668 3672 3673 3673 3673 3671 3671 3671 3671 3671 3671 3671 3671 3671 3675 3682 3685 3688 3694 3698 3702 3706 3710 3714 3714 3714 3714 3714 3719 3725 3731 3733 3733 3734 3734 3735 3735 3735 3735 3735 3733 3729 3729 3728 3728 3727 3727 3728 3728 3729 3736 3739 3739 3739 3737 3737 3737 3738 3741 3741 3741 3738 3738 3738 3739 3740 3740 3740 3737 3732 3729 3729 3729 3724 3718 3718 3711 3706 3703 3702 3696 3696 3696 3695 3695 3695 3690 3689 3686 3686 3684 3682 3679 3675 3669 3664 3661 3659 3656 3655 3651 3648 3645 3642 3642 3642 3643 3647 3651 3651 3651 3636 3625 3622 3617 3607 3595 3584 3579 3570 3570 3570 3572 3578 3578 3578 3572 3502 3425 3333 3222 2717 0 0 2331 2306 2301 2287 2274 2271 2269 2269 2265 2263 2256 2251 2237 2229 2222 2215 2209 2202 2197 2189 2184 2182 2181 2179 2179 2177 2175 2174 2173 2171 2170 2167 2164 2161 2158 2157 2154 2152 2149 2145 2142 2139 2136 2132 2128 2122 2117 2114 2112 2110 2108 2104 2100 2096 2091 2089 2085 2084 2081 2079 2075 2072 2068 2065 2062 2060 2055 2048 2042 2038 2036 2032 2028 2016 1998 1983 1979 0 0 0 0 0 0 0 0 0 0 1189 1183 1181 1178 1176 1175 1175 1175 1174 1172 1171 1170 1169 1168 1167 1167 1166 1165 1164 1164 1164 1163 1163 1163 1162 1162 1161 1161 1161 1161 1161 1160 1160 1160 1160 1159 1159 1159 1159 1159 1159 1158 1158 1158 1157 1156 1156 1155 1155 1155 1155 1154 1154 1154 1153 1153 1153 1152 1152 1151 1151 1150 1150 1150 1149 1149 1149 1148 1148 1148 1147 1147 1147 1146 1146 1145 1145 1144 1144 1143 1143 1143 1142 1142 1142 1141 1141 1140 1139 1139 1138 1138 1137 1136 1136 1135 1135 1135 1134 1134 1134 1134 1134 1134 1135 1136 1136 1137 1139 1143 1149 1170 0 0 0 0 0 1915 1935 1962 1969 1971 1973 1974 1974 1977 1985 1988 1992 1994 1997 1998 2001 2002 2003 2003 2005 2007 2007 2007 2006 2006 2006 2009 2010 2010 2010 2008 2008 2008 2009 2009 2009 2009 2009 2008 2008 2005 2002 1999 1999 1999 2001 2007 2008 2008 2011 2011 2010 2010 1995 0 0 0 0 0 0 0 0 0 0 0 0 0 0 0 0 0 0 0 0 0 0 0 0 0 0 0 0 0 0 0 0 0 0 0 0 0 0 0 0 0 0 0 0 0 0 0 0 0 0 0 0 0 0 0 0 0 0 0 0 0 0 0 0 0 0 0 0 0
3083 3083 3074 3083 3083 3082 3082 3082 3081 3081 3081 3084 3089 3097 3103 3106 3111 3111 3114 3114 3120 3120 3122 3126 3131 3133 3137 3140 3143 3148 3149 3149 3150 3154 3159 3161 3161 3162 3163 3166 3169 3171 3177 3183 3191 3197 3203 3203 3204 3208 3214 3219 3221 3223 3228 3235 3241 3248 3252 3260 3264 3270 3273 3273 3274 3276 3283 3287 3289 3289 3290 3295 3295 3297 3299 3302 3304 3311 3318 3324 3329 3337 3341 3341 3342 3342 3348 3363 3372 3382 3387 3388 3389 3391 3394 3400 3404 3405 3409 3410 3410 3412 3414 3417 3423 3427 3432 3433 3436 3437 3442 3447 3453 3459 3464 3468 3472 3474 3477 3480 3483 3485 3494 3500 3504 3507 3511 3514 3517 3521 3526 3530 3532 3536 3542 3550 3555 3560 3564 3568 3570 3570 3572 3576 3580 3583 3586 3587 3587 3590 3593 3597 3601 3605 3611 3616 3617 3618 3619 3621 3625 3628 3629 3630 3632 3636 3637 3639 3640 3641 3643 3646 3650 3654 3655 3656 3658 3663 3668 3670 3674 3677 3677 3677 3677 3676 3676 3676 3675 3675 3675 3675 3675 3677 3682 3685 3688 3694 3698 3706 3710 3714 3717 3717 3718 3718 3718 3721 3729 3733 3734 3734 3735 3736 3736 3737 3737 3737 3737 3735 3734 3732 3732 3731 3731 3731 3731 3731 3732 3739 3742 3742 3743 3742 3742 3742 3743 3746 3746 3746 3744 3744 3743 3743 3743 3743 3742 3740 3736 3735 3734 3733 3733 3726 3718 3712 3710 3710 3709 3707 3703 3703 3703 3703 3703 3696 3690 3686 3686 3685 3682 3680 3678 3672 3669 3665 3661 3660 3659 3656 3652 3647 3646 3646 3646 3650 3654 3654 3654 3654 3652 3637 3624 3617 3607 3600 3590 3579 3570 3570 3570 3572 3581 3581 3581 3543 3461 3338 3208 2864 2574 0 2340 2322 2303 2293 2286 2274 2271 2269 2269 2265 2263 2259 2252 2242 2233 2223 2214 2208 2200 2195 2189 2184 2181 2180 2177 2176 2175 2174 2172 2171 2171 2168 2167 2162 2160 2157 2155 2153 2148 2144 2142 2138 2135 2132 2129 2124 2118 2115 2111 2108 2107 2104 2100 2096 2092 2088 2085 2084 2081 2078 2074 2069 2067 2065 2063 2062 2058 2051 2041 2036 2031 2028 2022 2011 1994 1984 1963 0 0 0 0 0 0 0 0 0 1186 1182 1182 1181 1180 1177 1176 1175 1175 1175 1174 1173 1171 1170 1169 1168 1168 1168 1166 1166 1165 1165 1165 1164 1164 1163 1163 1162 1162 1161 1161 1161 1161 1160 1160 1160 1160 1160 1160 1159 1159 1159 1159 1158 1158 1158 1158 1157 1156 1156 1156 1155 1155 1154 1154 1154 1153 1153 1153 1153 1152 1152 1152 1151 1151 1151 1150 1149 1149 1149 1148 1148 1148 1148 1147 1147 1146 1146 1145 1145 1144 1144 1144 1143 1143 1142 1142 1141 1141 1141 1140 1140 1139 1139 1139 1137 1137 1137 1136 1135 1135 1134 1134 1134 1134 1134 1135 1135 1136 1136 1136 1141 1147 1148 0 0 0 0 0 1900 1902 1946 1968 1971 1973 1974 1975 1977 1981 1987 1989 1993 1995 1998 2000 2001 2002 2003 2005 2005 2005 2005 2006 2006 2006 2008 2009 2009 2009 2008 2008 2008 2009 2009 2009 2008 2008 2008 2006 2005 2002 2002 2002 2004 2005 2008 2008 2010 2011 2011 2010 2010 2000 1996 1996 0 0 0 0 0 0 0 0 0 0 0 0 0 0 0 0 0 0 0 0 0 0 0 0 0 0 0 0 0 0 0 0 0 0 0 0 0 0 0 0 0 0 0 0 0 0 0 0 0 0 0 0 0 0 0 0 0 0 0 0 0 0 0 0 0 0 0
3085 3085 3077 3085 3085 3085 3085 3085 3081 3081 3081 3085 3090 3097 3103 3106 3111 3114 3117 3120 3120 3121 3122 3126 3131 3133 3137 3140 3143 3147 3149 3150 3150 3154 3159 3162 3163 3165 3166 3168 3170 3173 3180 3184 3191 3200 3205 3206 3207 3211 3217 3221 3224 3225 3228 3237 3246 3253 3256 3264 3268 3273 3277 3278 3279 3280 3283 3288 3289 3290 3294 3297 3301 3303 3305 3308 3311 3316 3320 3324 3330 3337 3341 3342 3342 3344 3349 3363 3373 3383 3391 3391 3392 3392 3394 3400 3404 3407 3410 3411 3412 3412 3414 3417 3423 3427 3432 3436 3438 3441 3445 3451 3456 3462 3466 3470 3473 3475 3477 3480 3483 3489 3495 3502 3504 3509 3512 3515 3517 3521 3526 3530 3536 3540 3546 3551 3558 3564 3566 3569 3571 3573 3574 3577 3582 3587 3591 3592 3593 3593 3594 3597 3601 3606 3611 3616 3618 3618 3621 3623 3627 3630 3630 3632 3635 3639 3641 3643 3643 3645 3646 3649 3654 3658 3660 3663 3667 3669 3672 3675 3679 3683 3684 3684 3684 3683 3682 3681 3679 3679 3679 3679 3681 3682 3682 3685 3688 3694 3702 3711 3715 3717 3719 3720 3720 3720 3721 3725 3731 3734 3735 3735 3736 3738 3739 3740 3740 3739 3739 3739 3738 3738 3737 3734 3733 3732 3732 3732 3736 3742 3748 3748 3748 3748 3748 3748 3748 3750 3750 3750 3747 3744 3744 3744 3745 3745 3745 3742 3736 3736 3736 3735 3735 3731 3725 3723 3720 3719 3718 3714 3707 3706 3705 3703 3703 3702 3698 3692 3689 3686 3685 3683 3680 3677 3672 3667 3664 3662 3662 3661 3660 3654 3652 3652 3652 3658 3659 3659 3659 3656 3652 3642 3630 3617 3611 3605 3594 3579 3575 3575 3575 3578 3582 3582 3582 3507 3398 3305 3068 2660 2501 0 2334 2317 2303 2293 2286 2274 2273 2272 2271 2271 2266 2259 2252 2242 2233 2223 2213 2206 2196 2189 2186 2183 2180 2178 2176 2174 2173 2172 2171 2169 2168 2167 2164 2161 2159 2155 2153 2149 2146 2141 2138 2135 2132 2129 2125 2120 2117 2112 2109 2105 2104 2101 2097 2092 2088 2086 2084 2082 2079 2075 2070 2067 2065 2064 2063 2062 2058 2049 2039 2031 2024 2016 2004 1981 1974 1963 0 0 0 0 0 0 0 0 0 1187 1186 1182 1181 1181 1179 1177 1176 1175 1175 1175 1174 1173 1172 1170 1169 1169 1169 1168 1168 1167 1166 1165 1165 1165 1164 1164 1163 1163 1162 1161 1161 1161 1161 1160 1160 1160 1160 1159 1160 1160 1159 1159 1159 1159 1159 1159 1158 1157 1157 1157 1156 1156 1156 1155 1155 1155 1154 1154 1154 1153 1153 1153 1152 1151 1151 1151 1150 1150 1150 1149 1149 1149 1149 1148 1148 1147 1147 1147 1146 1146 1145 1145 1144 1144 1143 1143 1143 1142 1142 1141 1141 1141 1141 1140 1139 1139 1138 1137 1137 1137 1136 1136 1136 1136 1136 1136 1136 1135 1136 1136 1136 1140 1144 1145 0 0 0 0 0 0 1902 1946 1956 1970 1973 1975 1975 1977 1981 1985 1989 1991 1994 1997 1999 2001 2002 2003 2004 2004 2005 2005 2005 2006 2006 2007 2009 2009 2009 2008 2008 2008 2009 2009 2009 2008 2008 2008 2008 2008 2008 2008 2007 2007 2007 2010 2010 2011 2011 2011 2010 2010 2003 2001 2000 1999 1999 1999 0 0 0 0 0 0 0 0 0 0 0 0 0 0 0 0 0 0 0 0 0 0 0 0 0 0 0 0 0 0 0 0 0 0 0 0 0 0 0 0 0 0 0 0 0 0 0 0 0 0 0 0 0 0 0 0 0 0 0 0 0 0 0 0
3087 3087 3077 3087 3087 3087 3087 3087 3085 3085 3085 3085 3092 3099 3106 3108 3111 3117 3119 3120 3121 3121 3127 3130 3132 3134 3137 3141 3145 3148 3150 3150 3152 3155 3159 3163 3166 3166 3167 3169 3172 3179 3181 3187 3191 3200 3209 3212 3214 3215 3219 3223 3226 3228 3232 3240 3248 3254 3259 3264 3269 3273 3278 3283 3287 3289 3290 3292 3296 3296 3298 3300 3305 3308 3309 3313 3316 3319 3322 3326 3330 3335 3339 3342 3342 3345 3352 3363 3373 3383 3391 3391 3392 3392 3395 3400 3404 3408 3410 3413 3413 3414 3414 3417 3423 3430 3434 3438 3439 3443 3447 3453 3458 3463 3468 3471 3473 3475 3477 3480 3485 3490 3495 3502 3505 3512 3516 3517 3518 3521 3526 3530 3536 3540 3546 3551 3558 3564 3570 3571 3571 3574 3576 3578 3585 3588 3591 3593 3594 3594 3596 3600 3604 3607 3611 3616 3619 3623 3624 3627 3629 3631 3633 3635 3638 3640 3644 3645 3645 3647 3648 3652 3657 3661 3665 3669 3674 3676 3678 3681 3685 3689 3689 3689 3689 3689 3688 3686 3682 3682 3682 3682 3686 3687 3689 3689 3692 3700 3710 3714 3715 3719 3721 3721 3722 3722 3724 3729 3731 3736 3737 3737 3738 3743 3743 3743 3743 3743 3742 3742 3742 3742 3740 3736 3734 3734 3734 3736 3742 3749 3753 3753 3753 3752 3752 3752 3753 3754 3754 3754 3750 3747 3747 3747 3748 3748 3748 3744 3738 3738 3738 3738 3738 3738 3733 3729 3727 3725 3725 3720 3714 3709 3709 3708 3706 3703 3702 3697 3696 3694 3688 3685 3681 3679 3674 3668 3668 3668 3669 3669 3669 3664 3662 3662 3662 3667 3667 3667 3661 3659 3652 3642 3630 3617 3611 3606 3594 3576 3576 3576 3576 3580 3580 3580 3571 3454 3342 3248 2900 2582 0 0 2331 2314 2302 2293 2286 2279 2279 2279 2277 2275 2268 2259 2252 2242 2233 2223 2213 2205 2193 2185 2183 2181 2179 2177 2175 2174 2172 2171 2170 2168 2167 2164 2162 2159 2156 2153 2150 2147 2143 2140 2136 2133 2130 2126 2121 2118 2115 2111 2107 2104 2101 2098 2094 2089 2087 2084 2082 2077 2073 2069 2066 2063 2063 2063 2062 2062 2056 2045 2038 2028 2014 1997 1973 1963 0 0 0 0 0 0 0 0 0 1192 1186 1186 1185 1182 1181 1180 1179 1177 1176 1176 1175 1175 1174 1173 1172 1171 1170 1169 1169 1168 1168 1167 1167 1166 1166 1165 1164 1164 1163 1163 1162 1161 1161 1161 1161 1160 1160 1159 1159 1159 1160 1160 1160 1160 1159 1159 1159 1159 1159 1158 1158 1157 1157 1156 1156 1156 1156 1155 1155 1155 1154 1154 1154 1153 1153 1153 1152 1152 1151 1151 1151 1151 1150 1150 1149 1149 1148 1148 1147 1147 1147 1146 1146 1145 1144 1144 1144 1144 1143 1143 1142 1142 1142 1141 1141 1141 1140 1140 1139 1139 1139 1138 1138 1137 1137 1136 1136 1136 1136 1136 1136 1136 1136 1140 1144 1144 0 0 0 0 0 0 0 1921 1956 1966 1975 1976 1977 1977 1981 1985 1988 1990 1992 1996 1999 2001 2001 2002 2003 2004 2004 2005 2005 2006 2006 2007 2008 2009 2009 2010 2010 2009 2009 2009 2009 2008 2008 2008 2009 2009 2009 2009 2009 2009 2009 2010 2011 2012 2013 2013 2013 2010 2004 2004 2004 2007 2007 2007 2004 0 0 0 0 0 0 0 0 0 0 0 0 0 0 0 0 0 0 0 0 0 0 0 0 0 0 0 0 0 0 0 0 0 0 0 0 0 0 0 0 0 0 0 0 0 0 0 0 0 0 0 0 0 0 0 0 0 0 0 0 0 0 0
3088 3088 3077 3084 3084 3084 3085 3085 3086 3087 3087 3089 3092 3101 3106 3108 3111 3117 3121 3121 3122 3126 3127 3136 3136 3138 3140 3143 3145 3149 3150 3151 3154 3158 3159 3163 3166 3166 3173 3175 3177 3180 3184 3189 3191 3203 3211 3219 3219 3221 3224 3229 3231 3233 3237 3243 3250 3255 3261 3265 3270 3275 3282 3289 3292 3293 3293 3294 3297 3298 3299 3304 3308 3311 3314 3316 3318 3321 3323 3327 3330 3334 3337 3339 3342 3346 3353 3357 3372 3383 3391 3391 3392 3393 3396 3400 3404 3408 3412 3414 3416 3418 3420 3424 3429 3434 3439 3442 3443 3448 3451 3456 3461 3465 3469 3473 3475 3475 3477 3480 3487 3490 3498 3503 3507 3514 3517 3518 3518 3521 3526 3530 3536 3540 3546 3551 3558 3564 3571 3573 3575 3576 3579 3582 3586 3589 3591 3595 3595 3596 3598 3602 3604 3610 3612 3616 3621 3624 3627 3629 3632 3633 3634 3638 3640 3642 3647 3648 3649 3649 3651 3657 3660 3664 3670 3675 3679 3684 3685 3689 3692 3693 3694 3694 3694 3691 3690 3688 3686 3686 3686 3689 3692 3693 3693 3698 3702 3705 3711 3715 3716 3719 3723 3724 3724 3725 3728 3731 3734 3737 3740 3742 3745 3747 3747 3747 3747 3747 3747 3746 3746 3746 3743 3740 3739 3739 3739 3743 3752 3758 3758 3758 3755 3755 3755 3756 3758 3758 3758 3756 3755 3751 3751 3751 3751 3751 3751 3747 3742 3742 3742 3743 3743 3743 3738 3736 3733 3732 3729 3728 3721 3711 3710 3709 3708 3706 3702 3702 3702 3699 3693 3688 3683 3682 3678 3669 3669 3669 3675 3675 3675 3673 3671 3671 3671 3671 3671 3669 3666 3659 3652 3642 3630 3617 3611 3606 3594 3579 3579 3579 3580 3584 3584 3584 3545 3437 3320 3124 2752 2517 0 2345 2321 2310 2302 2295 2291 2286 2284 2283 2280 2276 2268 2260 2249 2239 2230 2224 2213 2205 2192 2185 2181 2180 2178 2177 2175 2174 2171 2169 2168 2166 2165 2163 2160 2157 2154 2151 2148 2145 2140 2137 2134 2131 2127 2122 2120 2116 2113 2108 2104 2101 2098 2094 2091 2086 2084 2081 2079 2076 2071 2067 2063 2062 2062 2061 2059 2058 2049 2039 2030 2018 1995 1966 0 0 0 0 0 0 0 0 0 0 1191 1186 1184 1184 1184 1182 1181 1180 1179 1177 1176 1176 1175 1175 1175 1174 1173 1172 1171 1170 1169 1169 1168 1168 1167 1166 1166 1165 1165 1164 1163 1163 1162 1161 1161 1161 1160 1160 1160 1159 1159 1159 1160 1160 1160 1160 1160 1160 1159 1159 1159 1159 1159 1158 1157 1157 1156 1156 1156 1156 1155 1155 1155 1154 1154 1154 1154 1153 1153 1152 1152 1152 1151 1151 1150 1150 1150 1149 1149 1148 1148 1148 1147 1147 1146 1146 1145 1145 1145 1144 1144 1143 1143 1143 1142 1142 1141 1141 1141 1140 1140 1140 1139 1139 1138 1138 1137 1137 1137 1137 1137 1136 1136 1136 1137 1140 1142 1143 0 0 0 0 0 0 0 1896 1950 1956 1970 1976 1977 1978 1982 1985 1986 1989 1992 1994 1998 1999 2001 2002 2003 2003 2004 2005 2005 2006 2006 2007 2008 2009 2010 2010 2010 2010 2010 2010 2010 2009 2009 2009 2011 2011 2011 2011 2010 2010 2010 2010 2011 2018 2021 2021 2021 2018 2007 2007 2007 2010 2010 2010 2008 2002 1992 0 0 0 0 0 0 0 0 0 0 0 0 0 0 0 0 0 0 0 0 0 0 0 0 0 0 0 0 0 0 0 0 0 0 0 0 0 0 0 0 0 0 0 0 0 0 0 0 0 0 0 0 0 0 0 0 0 0 0 0 0
3089 3089 3077 3077 3076 3076 3076 3083 3085 3087 3087 3095 3098 3102 3106 3108 3113 3118 3124 3124 3126 3128 3132 3136 3142 3143 3148 3150 3153 3153 3154 3154 3156 3159 3161 3165 3167 3171 3178 3178 3180 3183 3184 3189 3192 3204 3213 3219 3224 3226 3228 3231 3235 3237 3242 3247 3251 3256 3262 3268 3272 3281 3291 3294 3296 3297 3297 3297 3297 3298 3301 3307 3313 3317 3319 3320 3321 3321 3326 3327 3330 3333 3337 3339 3342 3346 3353 3357 3370 3381 3386 3391 3392 3394 3397 3401 3404 3408 3413 3416 3420 3423 3428 3432 3437 3442 3447 3448 3450 3453 3456 3460 3465 3468 3473 3476 3478 3480 3482 3484 3489 3495 3500 3504 3509 3514 3517 3518 3519 3521 3526 3530 3537 3542 3547 3551 3558 3565 3573 3576 3577 3578 3582 3586 3588 3592 3593 3596 3597 3598 3601 3604 3608 3612 3614 3619 3622 3625 3628 3630 3632 3635 3638 3640 3643 3645 3647 3649 3650 3653 3658 3660 3663 3667 3671 3677 3682 3688 3691 3692 3694 3695 3695 3695 3694 3693 3692 3692 3692 3693 3696 3696 3697 3697 3701 3705 3711 3712 3714 3716 3718 3721 3724 3727 3728 3729 3730 3734 3737 3740 3744 3747 3750 3751 3751 3751 3751 3751 3751 3751 3751 3751 3748 3744 3744 3744 3746 3755 3761 3761 3761 3760 3757 3757 3757 3758 3761 3761 3761 3760 3760 3759 3759 3756 3755 3754 3754 3751 3748 3748 3748 3748 3748 3745 3743 3742 3742 3738 3736 3736 3732 3722 3715 3713 3709 3708 3705 3705 3704 3703 3699 3692 3686 3685 3680 3674 3674 3674 3678 3681 3682 3682 3682 3682 3682 3680 3676 3670 3667 3660 3652 3642 3630 3615 3610 3606 3594 3583 3583 3583 3583 3598 3598 3598 3516 3420 3268 2844 2555 0 0 2341 2320 2310 2302 2297 2294 2292 2288 2283 2280 2276 2269 2260 2249 2238 2230 2224 2213 2205 2192 2185 2181 2180 2178 2177 2174 2172 2171 2168 2167 2165 2163 2160 2158 2156 2151 2148 2145 2142 2138 2134 2131 2128 2124 2120 2117 2114 2111 2106 2101 2096 2094 2091 2086 2082 2080 2080 2079 2075 2071 2066 2063 2059 2057 2054 2050 2042 2041 2029 2009 1984 1975 1958 0 0 0 0 0 0 0 0 0 1193 1188 1185 1184 1184 1184 1182 1181 1181 1179 1178 1177 1177 1175 1175 1175 1174 1174 1172 1171 1170 1170 1169 1168 1168 1168 1167 1166 1166 1165 1165 1163 1163 1162 1161 1161 1160 1160 1160 1159 1159 1159 1159 1160 1160 1160 1160 1160 1160 1160 1160 1159 1159 1159 1159 1158 1157 1157 1157 1156 1156 1156 1156 1155 1155 1155 1155 1154 1154 1154 1153 1152 1152 1152 1151 1151 1151 1151 1150 1149 1149 1148 1148 1148 1147 1146 1146 1146 1145 1145 1145 1144 1144 1143 1143 1143 1143 1142 1142 1142 1141 1141 1140 1140 1140 1139 1139 1138 1138 1137 1137 1137 1137 1137 1137 1137 1138 1139 1139 1143 0 0 0 0 0 0 0 1950 1955 1970 1975 1977 1978 1982 1985 1986 1989 1991 1994 1995 1998 2000 2000 2002 2003 2003 2005 2005 2006 2007 2007 2008 2008 2009 2010 2011 2011 2011 2011 2011 2013 2014 2014 2014 2014 2014 2013 2013 2013 2013 2013 2015 2018 2021 2024 2024 2024 2018 2013 2013 2013 2013 2013 2008 2005 2004 2003 2001 2001 0 0 0 0 0 0 0 0 0 0 0 0 0 0 0 0 0 0 0 0 0 0 0 0 0 0 0 0 0 0 0 0 0 0 0 0 0 0 0 0 0 0 0 0 0 0 0 0 0 0 0 0 0 0 0 0 0 0
3089 3089 3077 3077 3074 3074 3074 3082 3085 3087 3090 3097 3100 3104 3109 3112 3118 3120 3122 3126 3127 3135 3137 3139 3142 3145 3148 3153 3154 3154 3155 3156 3158 3160 3165 3167 3173 3177 3179 3180 3182 3187 3187 3195 3197 3204 3213 3219 3224 3226 3229 3231 3235 3237 3243 3249 3253 3258 3262 3268 3277 3283 3291 3294 3296 3297 3297 3297 3298 3299 3302 3307 3314 3317 3320 3321 3322 3325 3327 3327 3330 3333 3335 3336 3342 3347 3354 3357 3370 3381 3386 3390 3392 3395 3398 3401 3405 3411 3416 3422 3428 3432 3437 3440 3443 3447 3454 3458 3461 3461 3464 3466 3468 3471 3475 3482 3489 3489 3490 3490 3495 3500 3503 3505 3510 3514 3518 3519 3521 3523 3526 3530 3537 3542 3547 3551 3558 3566 3573 3581 3583 3584 3587 3590 3592 3594 3596 3598 3598 3602 3605 3608 3610 3612 3617 3621 3623 3627 3630 3633 3636 3638 3641 3643 3646 3647 3650 3652 3653 3657 3661 3662 3663 3668 3674 3683 3687 3689 3691 3695 3696 3697 3697 3697 3697 3696 3696 3696 3698 3701 3701 3701 3701 3701 3706 3714 3720 3721 3722 3722 3725 3728 3729 3730 3731 3732 3736 3738 3740 3744 3746 3750 3752 3754 3754 3754 3754 3755 3755 3755 3755 3755 3754 3751 3751 3751 3756 3761 3766 3766 3766 3763 3759 3759 3759 3762 3763 3764 3764 3764 3765 3765 3765 3763 3761 3760 3759 3756 3755 3755 3755 3754 3750 3747 3747 3747 3746 3746 3741 3737 3735 3735 3730 3721 3718 3713 3707 3707 3704 3703 3700 3695 3688 3686 3682 3681 3681 3681 3682 3685 3686 3686 3690 3690 3690 3687 3680 3674 3667 3660 3652 3642 3630 3615 3610 3606 3594 3590 3590 3590 3594 3594 3594 3583 3478 3387 3211 2674 0 0 2364 2341 2319 2307 2302 2297 2295 2292 2288 2283 2280 2276 2270 2261 2249 2238 2230 2224 2215 2207 2192 2184 2181 2179 2177 2175 2173 2170 2168 2166 2165 2162 2160 2158 2156 2153 2150 2147 2144 2141 2137 2132 2128 2126 2123 2119 2114 2110 2105 2101 2097 2093 2090 2088 2083 2079 2077 2076 2075 2073 2069 2065 2060 2056 2051 2045 2038 2030 2010 2007 1976 1962 1960 1929 0 0 0 0 0 0 0 0 1196 1190 1188 1185 1184 1184 1183 1182 1181 1181 1179 1179 1178 1177 1176 1175 1175 1174 1174 1173 1172 1171 1171 1170 1170 1169 1168 1167 1167 1166 1166 1165 1163 1163 1162 1162 1161 1160 1160 1159 1159 1159 1159 1159 1160 1160 1160 1160 1160 1160 1160 1160 1160 1159 1159 1159 1158 1158 1158 1158 1157 1157 1157 1157 1156 1156 1156 1155 1155 1154 1154 1154 1154 1153 1153 1153 1152 1152 1151 1151 1150 1150 1149 1148 1148 1148 1148 1147 1147 1146 1146 1145 1145 1144 1144 1144 1143 1143 1143 1142 1142 1141 1141 1141 1140 1140 1140 1139 1139 1138 1138 1138 1137 1137 1137 1138 1138 1139 1139 1139 1143 1154 0 0 0 0 0 0 0 1950 1955 1974 1976 1978 1982 1985 1986 1988 1990 1991 1994 1996 1997 1999 2000 2001 2002 2004 2006 2007 2007 2007 2008 2008 2009 2011 2012 2012 2013 2014 2014 2015 2017 2017 2018 2018 2018 2017 2017 2017 2016 2016 2016 2021 2022 2025 2025 2025 2018 2018 2018 2022 2022 2022 2016 2009 2007 2006 2006 2001 1988 1974 0 0 0 0 0 0 0 0 0 0 0 0 0 0 0 0 0 0 0 0 0 0 0 0 0 0 0 0 0 0 0 0 0 0 0 0 0 0 0 0 0 0 0 0 0 0 0 0 0 0 0 0 0 0 0 0
3089 3089 3072 3072 3072 3072 3074 3082 3087 3088 3100 3102 3104 3106 3109 3112 3118 3121 3122 3128 3130 3137 3138 3140 3143 3148 3151 3154 3155 3157 3157 3159 3161 3164 3166 3173 3178 3180 3180 3182 3186 3188 3191 3196 3200 3208 3213 3218 3224 3226 3229 3232 3235 3238 3243 3253 3258 3264 3267 3272 3278 3283 3291 3294 3296 3298 3299 3299 3302 3303 3306 3309 3314 3317 3320 3322 3322 3325 3328 3329 3332 3333 3333 3336 3342 3348 3354 3361 3370 3381 3386 3390 3392 3395 3399 3402 3408 3413 3421 3430 3435 3435 3437 3443 3446 3451 3457 3463 3466 3469 3471 3472 3473 3475 3480 3487 3494 3496 3497 3501 3501 3502 3506 3508 3511 3515 3518 3520 3523 3526 3528 3531 3537 3543 3550 3556 3561 3569 3577 3584 3588 3589 3592 3594 3596 3599 3599 3601 3602 3606 3611 3615 3617 3617 3619 3625 3629 3630 3633 3635 3639 3643 3644 3646 3649 3650 3653 3656 3657 3660 3663 3666 3667 3669 3678 3683 3687 3691 3694 3696 3698 3698 3698 3698 3699 3700 3702 3705 3710 3710 3710 3706 3706 3706 3709 3719 3725 3726 3726 3727 3730 3733 3735 3735 3736 3736 3740 3743 3745 3746 3748 3750 3752 3754 3755 3755 3755 3757 3760 3760 3762 3762 3762 3758 3758 3758 3759 3766 3767 3767 3767 3763 3763 3763 3764 3766 3767 3767 3767 3767 3771 3771 3771 3770 3769 3766 3763 3760 3759 3759 3759 3757 3753 3753 3753 3752 3752 3751 3743 3738 3736 3735 3735 3732 3727 3718 3707 3707 3704 3703 3700 3695 3692 3689 3685 3685 3685 3687 3687 3687 3688 3688 3691 3691 3691 3689 3684 3677 3670 3660 3652 3643 3630 3615 3610 3606 3597 3593 3593 3593 3602 3602 3602 3546 3471 3345 2908 2567 0 2380 2354 2334 2318 2306 2300 2297 2295 2292 2288 2282 2279 2276 2271 2263 2250 2238 2231 2226 2217 2207 2193 2184 2180 2178 2176 2172 2169 2168 2166 2164 2164 2162 2159 2157 2155 2152 2149 2146 2144 2140 2136 2132 2128 2124 2121 2116 2112 2106 2100 2097 2093 2089 2086 2084 2080 2076 2072 2071 2069 2067 2062 2057 2053 2049 2041 2029 2013 1989 1979 1954 0 0 0 0 0 0 0 0 0 0 1195 1193 1192 1190 1187 1184 1184 1183 1182 1182 1181 1180 1180 1179 1179 1177 1176 1176 1175 1175 1174 1173 1172 1172 1171 1170 1170 1169 1169 1168 1167 1166 1166 1165 1164 1163 1162 1162 1161 1160 1160 1159 1159 1159 1159 1159 1160 1160 1161 1161 1161 1161 1161 1160 1160 1160 1160 1159 1159 1158 1158 1158 1158 1158 1157 1157 1157 1157 1157 1156 1156 1156 1155 1155 1155 1155 1154 1153 1153 1153 1152 1151 1150 1150 1150 1149 1149 1148 1148 1148 1147 1147 1146 1145 1145 1145 1144 1144 1144 1143 1143 1143 1143 1142 1142 1141 1141 1141 1140 1139 1139 1139 1138 1138 1137 1137 1137 1139 1139 1139 1139 1139 1140 1145 1146 0 0 0 0 0 0 0 1953 1953 1974 1978 1981 1985 1985 1989 1990 1991 1994 1996 1997 1999 2000 2001 2002 2004 2006 2007 2007 2008 2008 2009 2010 2011 2012 2013 2014 2015 2015 2016 2017 2019 2019 2019 2019 2019 2018 2018 2018 2018 2018 2021 2022 2026 2026 2026 2024 2022 2022 2022 2022 2022 2020 2016 2012 2010 2006 2005 1998 1978 1964 1964 0 0 0 0 0 0 0 0 0 0 0 0 0 0 0 0 0 0 0 0 0 0 0 0 0 0 0 0 0 0 0 0 0 0 0 0 0 0 0 0 0 0 0 0 0 0 0 0 0 0 0 0 0 0
3089 3089 3081 3081 3074 3074 3074 3082 3087 3093 3100 3116 3116 3116 3118 3118 3118 3122 3127 3131 3138 3138 3141 3142 3144 3149 3151 3155 3155 3158 3160 3161 3167 3171 3171 3176 3180 3181 3183 3183 3186 3191 3194 3197 3203 3209 3213 3218 3224 3226 3229 3232 3235 3240 3248 3255 3260 3264 3267 3272 3278 3283 3290 3293 3296 3299 3300 3302 3305 3307 3307 3310 3314 3316 3320 3322 3322 3325 3329 3330 3332 3333 3333 3336 3344 3356 3359 3368 3377 3384 3387 3390 3393 3399 3402 3405 3410 3417 3425 3432 3436 3437 3440 3444 3449 3453 3459 3466 3470 3475 3475 3477 3478 3479 3482 3487 3495 3503 3506 3507 3507 3507 3509 3511 3512 3515 3518 3522 3525 3531 3532 3536 3542 3549 3557 3563 3570 3576 3583 3589 3591 3594 3597 3599 3600 3601 3602 3605 3605 3610 3616 3621 3622 3623 3624 3625 3630 3634 3636 3639 3643 3645 3647 3649 3652 3654 3658 3661 3663 3666 3668 3670 3670 3672 3678 3685 3689 3692 3696 3699 3700 3701 3702 3702 3705 3708 3710 3712 3713 3713 3713 3710 3710 3710 3714 3722 3727 3728 3728 3729 3730 3735 3738 3739 3739 3740 3742 3745 3747 3749 3751 3754 3755 3755 3756 3756 3757 3760 3763 3765 3767 3767 3767 3766 3766 3766 3766 3769 3769 3769 3767 3766 3766 3766 3769 3771 3772 3772 3773 3774 3775 3776 3776 3775 3774 3770 3764 3762 3762 3762 3762 3759 3759 3759 3759 3759 3758 3754 3745 3739 3736 3735 3735 3733 3727 3719 3709 3703 3701 3700 3700 3695 3693 3691 3691 3691 3691 3695 3695 3695 3692 3692 3692 3691 3691 3690 3685 3678 3672 3660 3652 3643 3630 3617 3610 3607 3599 3598 3598 3598 3598 3598 3591 3512 3446 3218 2664 0 0 2366 2340 2318 2312 2305 2300 2297 2295 2290 2284 2280 2278 2276 2271 2265 2254 2242 2235 2229 2217 2207 2193 2184 2180 2176 2173 2170 2167 2165 2163 2162 2161 2159 2158 2155 2153 2150 2148 2146 2143 2139 2134 2129 2126 2121 2117 2114 2109 2103 2100 2097 2092 2086 2082 2081 2077 2072 2068 2063 2062 2059 2054 2048 2045 2040 2028 2005 1980 1970 1942 0 0 0 0 0 0 0 0 0 0 1194 1192 1192 1191 1189 1186 1184 1184 1183 1182 1182 1181 1181 1180 1179 1179 1178 1177 1176 1176 1176 1175 1174 1173 1173 1172 1171 1171 1170 1169 1168 1167 1166 1166 1165 1164 1163 1162 1162 1161 1160 1160 1159 1159 1159 1159 1159 1160 1161 1161 1161 1161 1161 1161 1161 1161 1160 1160 1160 1159 1159 1159 1159 1158 1158 1158 1158 1158 1158 1157 1157 1157 1156 1156 1156 1156 1155 1154 1154 1153 1153 1153 1151 1151 1151 1150 1150 1149 1149 1148 1148 1147 1147 1146 1146 1145 1145 1145 1144 1144 1144 1144 1143 1143 1143 1142 1142 1142 1141 1140 1140 1139 1139 1139 1138 1138 1138 1138 1140 1140 1140 1140 1140 1140 1141 1143 1146 0 0 0 0 0 0 0 1938 1964 1977 1979 1981 1985 1989 1990 1991 1994 1995 1997 1999 2000 2001 2002 2004 2006 2007 2008 2009 2009 2009 2010 2011 2012 2013 2014 2015 2016 2016 2018 2019 2020 2021 2022 2024 2024 2024 2024 2024 2023 2023 2024 2026 2026 2026 2024 2024 2024 2024 2025 2025 2025 2018 2014 2013 2010 2006 2005 1987 1986 1986 1986 1986 0 0 0 0 0 0 0 0 0 0 0 0 0 0 0 0 0 0 0 0 0 0 0 0 0 0 0 0 0 0 0 0 0 0 0 0 0 0 0 0 0 0 0 0 0 0 0 0 0 0 0 0
3085 3085 3081 3081 3081 3081 3082 3091 3093 3094 3100 3121 3121 3123 3123 3123 3123 3125 3133 3141 3144 3144 3144 3144 3144 3149 3151 3155 3155 3158 3162 3167 3172 3174 3175 3178 3181 3184 3185 3188 3192 3197 3199 3201 3204 3210 3214 3218 3224 3226 3229 3232 3236 3241 3248 3255 3260 3264 3267 3272 3278 3283 3288 3293 3296 3299 3303 3306 3308 3308 3309 3310 3314 3316 3319 3321 3322 3326 3329 3332 3333 3333 3333 3338 3347 3359 3366 3373 3380 3388 3389 3392 3398 3404 3407 3411 3414 3420 3428 3433 3436 3440 3442 3444 3451 3455 3462 3469 3475 3481 3483 3484 3484 3486 3487 3493 3500 3508 3511 3511 3511 3513 3513 3515 3517 3519 3521 3524 3529 3535 3538 3542 3548 3554 3562 3570 3577 3583 3587 3591 3593 3594 3600 3602 3604 3605 3606 3608 3609 3616 3622 3626 3628 3628 3630 3630 3630 3634 3638 3640 3645 3647 3649 3651 3654 3657 3661 3665 3668 3671 3672 3674 3674 3676 3680 3686 3691 3695 3698 3700 3702 3703 3705 3708 3710 3713 3714 3715 3715 3715 3714 3714 3714 3718 3721 3726 3729 3730 3730 3730 3731 3735 3738 3740 3740 3741 3743 3745 3748 3750 3753 3754 3755 3756 3756 3756 3758 3761 3765 3769 3771 3771 3771 3770 3770 3770 3772 3772 3772 3772 3768 3768 3768 3768 3770 3772 3775 3776 3777 3777 3777 3778 3777 3777 3776 3771 3766 3764 3764 3764 3763 3762 3762 3761 3761 3760 3760 3757 3746 3739 3736 3735 3735 3733 3727 3719 3709 3703 3701 3698 3696 3695 3695 3695 3695 3695 3697 3699 3699 3699 3696 3693 3692 3692 3691 3690 3688 3681 3673 3660 3652 3643 3630 3617 3610 3607 3599 3599 3599 3603 3603 3603 3576 3480 3366 3061 2638 0 2393 2363 2337 2318 2309 2304 2299 2296 2293 2290 2284 2280 2278 2275 2271 2267 2255 2245 2240 2230 2218 2207 2193 2183 2178 2175 2172 2168 2166 2163 2162 2161 2160 2157 2155 2152 2151 2148 2145 2142 2140 2137 2132 2128 2123 2119 2115 2111 2106 2102 2098 2095 2089 2083 2080 2076 2072 2069 2063 2057 2054 2051 2044 2040 2037 2028 2006 1984 1972 0 0 0 0 0 0 0 0 0 0 1201 1194 1194 1192 1192 1190 1188 1185 1185 1184 1183 1182 1182 1181 1181 1181 1180 1179 1179 1178 1177 1177 1176 1175 1175 1174 1173 1172 1171 1171 1170 1169 1168 1167 1167 1166 1165 1164 1163 1162 1162 1161 1160 1160 1160 1159 1159 1159 1159 1161 1161 1161 1161 1161 1161 1161 1161 1161 1161 1160 1160 1160 1160 1159 1159 1159 1159 1158 1158 1158 1158 1158 1158 1158 1157 1157 1156 1156 1156 1155 1154 1154 1153 1153 1152 1152 1151 1151 1150 1149 1149 1148 1148 1147 1147 1146 1146 1146 1146 1146 1145 1145 1144 1144 1144 1143 1143 1143 1142 1142 1142 1141 1141 1140 1140 1140 1138 1138 1138 1138 1140 1140 1140 1140 1140 1140 1141 1141 1142 1146 0 0 0 0 0 0 1923 1958 1971 1975 1979 1984 1987 1992 1993 1994 1995 1996 1999 2001 2001 2003 2004 2007 2008 2009 2009 2009 2010 2010 2012 2012 2014 2015 2016 2016 2018 2018 2020 2021 2022 2023 2025 2027 2027 2028 2028 2028 2027 2027 2027 2027 2027 2027 2027 2027 2028 2028 2029 2029 2028 2023 2018 2013 2006 2005 1996 1996 1996 2004 2004 2004 1994 0 0 0 0 0 0 0 0 0 0 0 0 0 0 0 0 0 0 0 0 0 0 0 0 0 0 0 0 0 0 0 0 0 0 0 0 0 0 0 0 0 0 0 0 0 0 0 0 0 0
3080 3081 3080 3080 3080 3081 3093 3095 3096 3100 3100 3121 3126 3131 3132 3133 3134 3139 3144 3146 3146 3146 3146 3146 3150 3153 3155 3155 3155 3160 3164 3170 3174 3176 3176 3180 3184 3186 3186 3190 3196 3200 3203 3205 3207 3214 3216 3219 3224 3227 3230 3232 3236 3241 3248 3255 3260 3264 3264 3268 3278 3283 3287 3290 3295 3299 3303 3307 3309 3310 3310 3310 3314 3316 3319 3321 3322 3326 3330 3336 3337 3338 3340 3340 3349 3360 3368 3376 3384 3388 3391 3396 3401 3405 3410 3415 3419 3423 3428 3433 3438 3442 3442 3448 3455 3459 3466 3471 3476 3482 3487 3490 3491 3491 3492 3495 3502 3508 3511 3514 3515 3516 3518 3520 3521 3522 3524 3527 3533 3537 3540 3546 3551 3558 3566 3574 3581 3586 3588 3592 3595 3597 3602 3604 3607 3608 3609 3609 3614 3624 3627 3631 3631 3631 3631 3631 3631 3635 3639 3646 3650 3651 3654 3657 3659 3660 3665 3667 3673 3675 3678 3678 3679 3680 3684 3689 3694 3697 3700 3702 3703 3704 3707 3710 3714 3716 3717 3717 3717 3717 3717 3717 3719 3723 3728 3730 3730 3731 3731 3731 3733 3737 3740 3743 3743 3743 3743 3746 3749 3752 3754 3755 3756 3756 3756 3757 3760 3764 3769 3773 3773 3773 3773 3773 3773 3775 3777 3777 3777 3774 3771 3770 3770 3770 3770 3772 3776 3777 3778 3779 3779 3780 3780 3780 3778 3774 3769 3768 3767 3766 3766 3765 3763 3762 3762 3761 3760 3759 3750 3742 3735 3735 3734 3732 3727 3721 3714 3707 3701 3698 3694 3694 3694 3694 3696 3698 3699 3701 3701 3701 3696 3692 3691 3690 3690 3688 3688 3683 3674 3660 3649 3639 3627 3617 3610 3607 3600 3600 3600 3604 3604 3604 3520 3464 3194 2817 2563 0 2388 2357 2329 2316 2309 2304 2299 2295 2291 2289 2284 2280 2277 2274 2271 2267 2255 2246 2240 2231 2219 2205 2191 2183 2178 2173 2170 2167 2165 2163 2161 2160 2158 2156 2154 2151 2149 2145 2142 2139 2136 2133 2130 2126 2122 2118 2114 2109 2103 2101 2098 2093 2087 2081 2077 2076 2071 2065 2059 2053 2049 2042 2037 2030 2021 2004 1982 1970 0 0 0 0 0 0 0 0 1274 1227 1206 1196 1194 1192 1191 1190 1190 1188 1185 1185 1184 1184 1184 1183 1182 1181 1181 1181 1180 1179 1178 1178 1177 1176 1176 1176 1174 1174 1174 1172 1171 1171 1170 1169 1167 1167 1166 1165 1164 1164 1163 1162 1161 1161 1160 1160 1160 1160 1160 1160 1161 1161 1161 1162 1162 1162 1162 1162 1162 1161 1161 1161 1160 1160 1160 1160 1160 1160 1159 1159 1159 1159 1158 1158 1158 1158 1158 1157 1157 1156 1156 1155 1155 1154 1153 1153 1152 1151 1151 1150 1149 1149 1148 1148 1147 1147 1147 1147 1146 1146 1146 1146 1145 1145 1144 1144 1144 1144 1143 1143 1143 1143 1142 1141 1141 1140 1140 1139 1139 1139 1139 1139 1139 1139 1139 1140 1140 1141 1141 1142 1146 0 0 0 0 0 0 0 1919 1957 1970 1976 1982 1987 1992 1993 1994 1995 1996 1999 2001 2002 2004 2004 2007 2008 2009 2009 2010 2010 2010 2012 2012 2014 2015 2016 2017 2018 2019 2020 2021 2022 2023 2025 2027 2028 2028 2028 2029 2029 2029 2029 2030 2030 2030 2030 2029 2029 2030 2030 2030 2030 2030 2026 2018 2011 2010 2008 2008 2008 2009 2009 2009 1994 1989 1983 0 0 0 0 0 0 0 0 0 0 0 0 0 0 0 0 0 0 0 0 0 0 0 0 0 0 0 0 0 0 0 0 0 0 0 0 0 0 0 0 0 0 0 0 0 0 0 0
3085 3087 3087 3098 3099 3100 3099 3099 3100 3100 3100 3121 3131 3136 3137 3139 3146 3150 3150 3150 3149 3147 3147 3147 3155 3157 3159 3163 3163 3163 3165 3170 3175 3176 3179 3182 3185 3187 3187 3191 3197 3202 3204 3206 3212 3219 3220 3222 3226 3228 3230 3232 3236 3241 3248 3252 3258 3263 3264 3265 3272 3281 3284 3286 3289 3295 3303 3308 3309 3310 3310 3311 3314 3316 3319 3321 3326 3329 3334 3341 3341 3342 3342 3344 3355 3360 3369 3377 3384 3389 3393 3396 3401 3406 3410 3417 3421 3426 3428 3433 3438 3442 3447 3452 3458 3462 3468 3473 3477 3482 3487 3490 3491 3493 3496 3498 3503 3511 3514 3516 3518 3519 3520 3523 3523 3525 3526 3531 3535 3540 3545 3549 3553 3560 3568 3576 3583 3586 3588 3593 3595 3597 3603 3607 3608 3612 3613 3614 3617 3626 3634 3634 3634 3634 3632 3632 3632 3636 3641 3646 3650 3651 3654 3657 3661 3662 3666 3671 3673 3677 3678 3680 3682 3684 3687 3691 3696 3699 3703 3705 3706 3706 3707 3712 3715 3718 3718 3718 3718 3718 3718 3720 3723 3726 3730 3732 3732 3732 3734 3735 3739 3741 3744 3746 3746 3747 3747 3747 3751 3753 3754 3756 3756 3757 3757 3759 3761 3765 3770 3774 3774 3774 3774 3774 3774 3777 3778 3778 3778 3777 3773 3772 3770 3770 3770 3774 3776 3778 3780 3780 3780 3781 3781 3781 3778 3775 3772 3770 3770 3770 3769 3767 3765 3762 3762 3762 3761 3761 3758 3747 3737 3733 3732 3732 3725 3721 3714 3709 3703 3698 3694 3694 3694 3695 3698 3699 3699 3701 3701 3701 3696 3692 3690 3689 3688 3688 3688 3683 3674 3660 3649 3638 3626 3616 3610 3607 3607 3607 3611 3611 3611 3576 3485 3367 3081 2715 2503 0 2365 2346 2327 2313 2309 2303 2297 2294 2291 2289 2286 2281 2277 2274 2270 2267 2255 2247 2241 2232 2219 2204 2189 2183 2177 2173 2170 2167 2164 2162 2160 2158 2157 2155 2153 2150 2147 2144 2139 2134 2130 2128 2127 2124 2120 2117 2113 2108 2103 2099 2096 2091 2083 2079 2077 2074 2070 2062 2056 2049 2042 2035 2025 2012 1998 1987 1965 0 0 0 0 0 0 0 0 0 1201 1198 1198 1194 1193 1191 1190 1190 1190 1187 1185 1185 1185 1185 1184 1184 1183 1182 1182 1181 1181 1180 1179 1179 1178 1178 1177 1176 1176 1175 1174 1173 1172 1171 1170 1169 1168 1167 1166 1165 1164 1164 1162 1162 1161 1161 1160 1160 1160 1160 1160 1160 1161 1162 1162 1162 1162 1162 1162 1162 1162 1162 1161 1161 1161 1161 1161 1160 1160 1160 1160 1160 1160 1159 1159 1159 1159 1158 1158 1158 1157 1157 1156 1155 1155 1154 1153 1153 1152 1152 1151 1150 1149 1148 1148 1148 1147 1147 1147 1147 1146 1146 1146 1146 1146 1145 1145 1145 1145 1144 1144 1144 1143 1143 1143 1142 1142 1141 1140 1140 1140 1140 1139 1138 1138 1138 1139 1140 1140 1141 1141 1142 1144 1149 0 0 0 0 0 0 1916 1917 1957 1972 1981 1987 1992 1993 1993 1993 1994 1998 2001 2002 2004 2004 2007 2008 2009 2010 2010 2010 2010 2012 2012 2014 2015 2016 2017 2018 2019 2020 2021 2022 2023 2025 2027 2028 2028 2028 2030 2031 2031 2031 2031 2031 2032 2032 2033 2033 2033 2033 2032 2032 2032 2032 2030 2026 2014 2012 2012 2012 2012 2012 2012 2000 1991 1989 1977 0 0 0 0 0 0 0 0 0 0 0 0 0 0 0 0 0 0 0 0 0 0 0 0 0 0 0 0 0 0 0 0 0 0 0 0 0 0 0 0 0 0 0 0 0 0 0
3087 3087 3091 3100 3113 3113 3113 3108 3105 3105 3105 3117 3131 3136 3137 3139 3146 3150 3150 3150 3149 3149 3149 3153 3156 3163 3166 3166 3169 3170 3171 3173 3176 3179 3180 3183 3188 3190 3192 3195 3199 3202 3206 3211 3217 3222 3225 3226 3228 3229 3230 3233 3236 3241 3246 3251 3258 3263 3264 3265 3268 3274 3280 3283 3289 3295 3301 3308 3310 3310 3310 3312 3314 3318 3320 3325 3332 3335 3336 3341 3345 3347 3349 3353 3358 3362 3369 3378 3385 3389 3394 3396 3402 3406 3410 3417 3422 3427 3431 3434 3439 3445 3451 3454 3459 3465 3469 3473 3477 3482 3487 3490 3492 3494 3497 3501 3503 3514 3518 3518 3519 3519 3521 3524 3527 3527 3530 3533 3538 3542 3548 3551 3555 3560 3569 3578 3583 3587 3590 3593 3596 3598 3605 3607 3609 3614 3616 3620 3623 3627 3634 3640 3640 3640 3639 3639 3639 3641 3645 3647 3650 3652 3654 3657 3661 3665 3668 3671 3675 3677 3680 3682 3684 3687 3690 3694 3697 3702 3704 3707 3708 3709 3710 3713 3717 3719 3720 3720 3720 3720 3722 3724 3728 3729 3732 3734 3735 3735 3736 3740 3744 3745 3747 3748 3749 3750 3751 3752 3754 3755 3756 3757 3757 3758 3760 3761 3763 3766 3771 3775 3775 3775 3775 3776 3777 3777 3779 3780 3780 3780 3777 3777 3775 3775 3775 3775 3777 3778 3780 3781 3781 3782 3782 3782 3781 3777 3775 3775 3774 3773 3772 3770 3766 3763 3763 3762 3761 3761 3759 3750 3737 3729 3727 3727 3725 3719 3714 3711 3703 3698 3694 3694 3694 3695 3698 3699 3699 3699 3699 3698 3692 3692 3688 3687 3687 3686 3686 3683 3674 3658 3646 3635 3626 3616 3609 3609 3609 3611 3611 3611 3605 3544 3426 3339 3004 2659 0 0 2359 2346 2325 2313 2308 2303 2297 2294 2291 2289 2286 2281 2277 2273 2268 2263 2255 2247 2242 2232 2219 2204 2189 2182 2176 2173 2168 2165 2162 2160 2159 2156 2156 2153 2151 2149 2145 2141 2137 2133 2128 2124 2123 2121 2118 2115 2112 2108 2102 2098 2092 2085 2079 2077 2073 2072 2067 2061 2053 2046 2035 2020 1992 1978 1962 1938 0 0 0 0 0 0 0 0 0 1203 1198 1195 1195 1193 1192 1190 1190 1190 1189 1187 1186 1186 1185 1185 1184 1184 1183 1182 1182 1182 1181 1180 1180 1180 1179 1178 1178 1177 1176 1176 1175 1173 1173 1171 1171 1170 1168 1167 1167 1166 1164 1163 1162 1162 1161 1161 1161 1161 1161 1161 1161 1161 1162 1162 1163 1163 1163 1163 1163 1162 1162 1162 1162 1162 1161 1161 1161 1161 1161 1161 1161 1161 1160 1160 1160 1160 1159 1159 1159 1158 1157 1157 1156 1155 1155 1154 1154 1153 1152 1152 1151 1150 1150 1148 1148 1148 1148 1147 1147 1147 1146 1146 1146 1146 1146 1146 1146 1145 1145 1145 1145 1144 1144 1144 1143 1143 1143 1142 1141 1141 1140 1140 1140 1138 1138 1138 1139 1139 1140 1141 1141 1142 1143 1148 1157 0 0 0 0 0 0 1916 1941 1964 1978 1984 1988 1988 1988 1989 1992 1998 2001 2002 2004 2004 2006 2008 2009 2009 2010 2010 2010 2012 2012 2014 2014 2016 2017 2018 2019 2020 2022 2023 2023 2025 2027 2028 2029 2031 2031 2033 2033 2033 2032 2032 2032 2032 2033 2033 2033 2033 2032 2032 2032 2032 2030 2029 2027 2021 2019 2015 2014 2012 2012 2000 2000 1996 1995 1990 1976 0 0 0 0 0 0 0 0 0 0 0 0 0 0 0 0 0 0 0 0 0 0 0 0 0 0 0 0 0 0 0 0 0 0 0 0 0 0 0 0 0 0 0 0 0
3087 3087 3091 3100 3113 3113 3113 3110 3105 3105 3105 3117 3131 3136 3137 3139 3148 3153 3153 3153 3150 3150 3150 3153 3156 3163 3167 3167 3169 3170 3175 3177 3177 3179 3183 3185 3188 3190 3194 3198 3204 3209 3212 3217 3222 3226 3229 3230 3231 3231 3232 3236 3236 3241 3245 3251 3257 3263 3264 3265 3268 3273 3277 3282 3289 3295 3301 3308 3310 3311 3312 3315 3316 3320 3323 3331 3338 3338 3342 3344 3348 3352 3358 3360 3360 3365 3372 3380 3386 3392 3396 3398 3402 3407 3411 3417 3424 3429 3431 3435 3441 3446 3452 3457 3460 3465 3469 3473 3476 3482 3487 3491 3492 3494 3499 3503 3506 3514 3518 3521 3522 3524 3524 3527 3532 3533 3534 3535 3539 3544 3549 3551 3555 3562 3573 3579 3584 3587 3590 3594 3596 3601 3606 3609 3612 3617 3620 3623 3626 3630 3635 3642 3646 3648 3648 3648 3646 3646 3646 3647 3650 3652 3654 3657 3661 3666 3672 3675 3678 3680 3683 3686 3687 3691 3695 3697 3699 3703 3706 3708 3710 3712 3713 3717 3717 3720 3722 3722 3723 3723 3724 3726 3729 3732 3734 3735 3736 3738 3740 3745 3749 3749 3749 3750 3750 3752 3755 3757 3757 3757 3758 3759 3759 3760 3763 3765 3766 3769 3772 3775 3775 3776 3777 3778 3778 3778 3780 3780 3780 3781 3780 3780 3780 3778 3778 3778 3780 3781 3783 3783 3783 3784 3784 3784 3781 3779 3777 3775 3775 3774 3772 3770 3767 3764 3763 3763 3763 3762 3760 3751 3737 3723 3720 3720 3719 3716 3714 3713 3707 3704 3699 3696 3696 3696 3699 3699 3699 3697 3696 3695 3692 3692 3688 3686 3686 3682 3680 3675 3667 3658 3645 3634 3623 3612 3606 3606 3606 3602 3602 3602 3575 3499 3414 3307 2911 2559 0 2382 2355 2338 2323 2315 2308 2303 2297 2294 2291 2289 2286 2281 2277 2273 2268 2263 2255 2247 2241 2232 2219 2203 2188 2182 2176 2171 2166 2164 2162 2160 2157 2156 2153 2152 2150 2147 2144 2139 2135 2130 2124 2121 2119 2117 2115 2111 2107 2103 2099 2095 2088 2081 2073 2072 2070 2068 2067 2059 2047 2038 2020 1996 1983 1964 1961 0 0 0 0 0 0 0 0 1202 1202 1199 1196 1195 1195 1192 1192 1190 1190 1190 1189 1187 1186 1186 1186 1185 1185 1184 1183 1183 1183 1182 1182 1181 1181 1181 1179 1179 1178 1177 1176 1176 1175 1174 1173 1172 1171 1170 1169 1167 1167 1166 1165 1163 1163 1162 1162 1161 1161 1161 1161 1161 1162 1162 1162 1163 1163 1163 1163 1163 1163 1163 1162 1162 1162 1162 1162 1162 1162 1162 1162 1162 1162 1161 1161 1161 1161 1160 1160 1160 1159 1159 1158 1157 1157 1156 1156 1154 1154 1153 1153 1151 1151 1150 1150 1149 1148 1148 1148 1147 1147 1147 1146 1146 1146 1146 1146 1146 1146 1146 1145 1145 1145 1145 1144 1144 1144 1143 1143 1142 1142 1141 1141 1140 1140 1139 1139 1139 1139 1139 1140 1141 1141 1142 1142 1147 1155 0 0 0 0 0 0 1907 1907 1953 1969 1978 1983 1984 1985 1988 1992 1996 1999 2000 2001 2002 2004 2007 2009 2009 2009 2010 2010 2012 2012 2013 2014 2016 2016 2018 2019 2020 2023 2024 2026 2026 2027 2028 2030 2031 2033 2033 2033 2033 2032 2032 2032 2032 2033 2033 2033 2033 2032 2032 2032 2032 2030 2029 2027 2021 2019 2016 2015 2012 2012 2000 2000 2000 2006 2006 2006 1985 0 0 0 0 0 0 0 0 0 0 0 0 0 0 0 0 0 0 0 0 0 0 0 0 0 0 0 0 0 0 0 0 0 0 0 0 0 0 0 0 0 0 0 0
3104 3104 3104 3113 3113 3113 3113 3113 3113 3113 3113 3117 3129 3130 3134 3137 3149 3154 3154 3154 3151 3151 3151 3154 3158 3165 3170 3170 3171 3171 3178 3179 3179 3182 3187 3191 3193 3196 3200 3201 3206 3213 3217 3221 3226 3229 3233 3234 3234 3235 3235 3236 3238 3241 3245 3251 3257 3263 3264 3264 3267 3270 3275 3282 3289 3295 3301 3308 3311 3313 3316 3318 3321 3321 3327 3333 3340 3346 3346 3347 3353 3359 3362 3364 3364 3369 3376 3383 3390 3394 3396 3400 3405 3410 3416 3422 3426 3430 3435 3439 3444 3448 3453 3457 3460 3466 3470 3473 3477 3483 3487 3491 3492 3496 3503 3508 3511 3514 3518 3521 3524 3527 3530 3534 3537 3537 3537 3540 3542 3546 3550 3555 3558 3566 3574 3581 3586 3587 3590 3594 3600 3605 3609 3614 3617 3620 3625 3629 3630 3632 3637 3643 3647 3650 3651 3651 3650 3648 3648 3648 3650 3652 3654 3657 3661 3667 3674 3679 3681 3685 3689 3692 3694 3696 3698 3700 3702 3704 3708 3712 3714 3714 3716 3718 3719 3721 3723 3725 3726 3726 3726 3730 3731 3732 3735 3737 3737 3740 3742 3748 3752 3752 3753 3753 3753 3754 3756 3758 3758 3759 3759 3760 3761 3763 3766 3767 3768 3770 3772 3775 3775 3777 3779 3781 3781 3781 3781 3781 3781 3781 3782 3781 3782 3782 3782 3782 3782 3783 3785 3785 3785 3785 3784 3784 3781 3779 3777 3776 3775 3774 3772 3770 3767 3765 3764 3764 3763 3762 3761 3752 3736 3717 3714 3712 3712 3712 3713 3712 3711 3710 3707 3704 3699 3699 3699 3699 3699 3697 3696 3695 3692 3692 3690 3687 3686 3682 3680 3675 3662 3651 3640 3627 3614 3612 3606 3606 3606 3601 3601 3597 3538 3456 3369 3159 2671 0 0 2382 2347 2321 2321 2315 2308 2303 2299 2295 2291 2289 2285 2281 2276 2273 2268 2263 2256 2254 2241 2231 2219 2196 2187 2182 2175 2168 2166 2163 2162 2160 2156 2152 2149 2148 2146 2145 2141 2137 2133 2127 2122 2118 2116 2112 2110 2106 2101 2097 2094 2091 2086 2075 2067 2063 2062 2061 2059 2049 2034 2017 1995 1977 1953 0 0 0 0 0 0 0 0 0 1204 1202 1201 1199 1195 1195 1195 1192 1191 1191 1190 1190 1189 1188 1188 1187 1186 1186 1185 1185 1184 1184 1183 1183 1183 1182 1181 1181 1181 1180 1179 1178 1177 1176 1176 1174 1174 1172 1171 1170 1169 1168 1167 1166 1165 1163 1163 1163 1163 1162 1162 1162 1162 1162 1162 1163 1163 1163 1163 1163 1163 1163 1163 1163 1163 1163 1163 1163 1163 1162 1163 1162 1162 1162 1162 1162 1162 1162 1161 1161 1160 1160 1160 1159 1159 1157 1157 1156 1156 1155 1155 1153 1153 1152 1151 1151 1150 1149 1148 1148 1148 1147 1147 1147 1147 1147 1147 1147 1146 1146 1146 1146 1146 1146 1146 1145 1145 1145 1144 1144 1143 1143 1142 1142 1142 1141 1141 1141 1140 1139 1139 1139 1140 1141 1141 1142 1142 1145 1155 1169 0 0 0 0 0 1907 1907 1942 1968 1976 1980 1980 1983 1988 1992 1995 1998 1999 2000 2002 2003 2005 2007 2008 2008 2009 2010 2011 2012 2012 2013 2014 2016 2017 2019 2020 2023 2024 2026 2027 2027 2028 2030 2032 2033 2033 2033 2033 2032 2032 2032 2032 2032 2032 2032 2033 2032 2032 2032 2031 2030 2029 2027 2021 2019 2016 2012 2010 2009 2002 2002 2002 2006 2011 2011 2011 1974 1915 1902 0 0 0 0 0 0 0 0 0 0 0 0 0 0 0 0 0 0 0 0 0 0 0 0 0 0 0 0 0 0 0 0 0 0 0 0 0 0 0 0 0
3104 3104 3104 3112 3112 3115 3115 3115 3114 3114 3114 3117 3129 3130 3134 3137 3150 3154 3154 3154 3152 3152 3152 3156 3158 3166 3170 3171 3172 3174 3180 3183 3184 3187 3192 3196 3198 3200 3204 3207 3208 3213 3220 3227 3231 3234 3234 3235 3236 3236 3236 3238 3238 3241 3246 3251 3257 3263 3264 3267 3267 3270 3275 3282 3291 3302 3309 3310 3315 3318 3320 3324 3324 3326 3330 3336 3345 3348 3348 3351 3354 3360 3365 3367 3369 3375 3383 3389 3392 3396 3396 3401 3405 3414 3420 3424 3427 3433 3438 3443 3445 3448 3453 3458 3461 3466 3470 3474 3478 3483 3487 3491 3496 3501 3506 3510 3513 3516 3519 3523 3527 3532 3536 3539 3540 3541 3541 3543 3546 3549 3555 3560 3563 3568 3579 3584 3587 3589 3591 3596 3601 3608 3614 3619 3622 3626 3631 3634 3634 3637 3638 3643 3648 3651 3653 3653 3653 3653 3653 3653 3654 3656 3657 3658 3662 3670 3675 3680 3683 3687 3693 3696 3696 3699 3700 3702 3705 3707 3711 3715 3715 3716 3716 3718 3720 3721 3725 3728 3728 3729 3730 3731 3731 3732 3735 3739 3741 3743 3745 3750 3753 3754 3754 3754 3756 3757 3758 3758 3759 3760 3760 3761 3764 3766 3767 3768 3769 3771 3772 3775 3775 3778 3780 3781 3783 3785 3785 3785 3783 3783 3782 3782 3782 3782 3782 3784 3786 3786 3786 3786 3786 3786 3785 3784 3782 3779 3777 3776 3775 3774 3772 3769 3767 3765 3765 3764 3761 3761 3760 3752 3736 3715 3706 3706 3706 3708 3711 3713 3713 3713 3710 3708 3705 3701 3699 3699 3699 3697 3696 3696 3696 3695 3693 3690 3686 3682 3680 3675 3662 3645 3631 3618 3614 3612 3610 3610 3610 3610 3610 3590 3518 3438 3300 2914 2563 0 2409 2382 2342 2320 2319 2314 2307 2303 2299 2295 2291 2288 2285 2281 2275 2272 2267 2263 2258 2254 2241 2226 2212 2194 2187 2180 2173 2168 2165 2163 2161 2158 2154 2149 2146 2144 2142 2141 2138 2135 2129 2125 2120 2117 2112 2107 2103 2097 2092 2088 2086 2085 2081 2075 2066 2059 2055 2051 2048 2032 2006 1990 1976 0 0 0 0 0 0 0 0 0 1209 1208 1204 1202 1200 1198 1196 1195 1194 1192 1191 1191 1190 1190 1189 1188 1188 1187 1186 1186 1186 1185 1184 1184 1184 1184 1183 1182 1182 1182 1181 1181 1180 1179 1178 1178 1176 1175 1175 1172 1171 1170 1169 1168 1167 1166 1165 1163 1163 1163 1163 1163 1163 1163 1163 1163 1163 1163 1164 1164 1164 1164 1164 1164 1164 1164 1163 1163 1163 1163 1163 1163 1163 1163 1163 1163 1163 1163 1163 1163 1162 1162 1161 1161 1161 1160 1159 1158 1158 1157 1156 1155 1155 1153 1153 1152 1152 1151 1151 1150 1149 1148 1148 1147 1147 1147 1147 1147 1147 1147 1147 1147 1147 1147 1146 1146 1146 1146 1146 1146 1145 1145 1144 1144 1144 1143 1143 1142 1142 1141 1140 1140 1140 1140 1141 1141 1141 1142 1142 1144 1154 1166 1174 0 0 0 0 0 1887 1942 1956 1976 1978 1979 1983 1987 1992 1995 1997 1998 1998 2000 2001 2003 2003 2005 2006 2007 2009 2010 2011 2012 2012 2013 2014 2017 2019 2020 2023 2024 2026 2027 2027 2028 2030 2032 2033 2033 2033 2032 2031 2031 2031 2031 2031 2031 2031 2031 2031 2030 2030 2027 2025 2025 2023 2021 2015 2015 2012 2010 2009 2002 2001 2001 2001 2011 2011 2011 1974 1941 1907 1905 1905 0 0 0 0 0 0 0 0 0 0 0 0 0 0 0 0 0 0 0 0 0 0 0 0 0 0 0 0 0 0 0 0 0 0 0 0 0 0 0
3104 3104 3095 3099 3099 3099 3116 3122 3122 3123 3126 3129 3130 3130 3134 3147 3157 3157 3157 3156 3154 3154 3154 3156 3158 3166 3170 3171 3172 3176 3184 3190 3193 3194 3198 3201 3202 3205 3208 3212 3213 3215 3220 3227 3233 3234 3235 3235 3236 3237 3237 3239 3241 3242 3247 3251 3255 3259 3263 3267 3269 3270 3275 3284 3294 3308 3318 3321 3323 3324 3324 3326 3327 3328 3332 3338 3345 3349 3349 3351 3358 3368 3370 3374 3379 3386 3391 3394 3397 3399 3400 3403 3409 3414 3421 3425 3430 3435 3440 3445 3450 3451 3454 3459 3461 3466 3470 3475 3479 3483 3488 3493 3499 3504 3509 3512 3515 3516 3520 3524 3528 3532 3536 3541 3544 3545 3546 3549 3553 3558 3561 3566 3568 3573 3581 3587 3590 3592 3594 3598 3605 3612 3617 3624 3628 3628 3631 3635 3637 3637 3641 3644 3651 3652 3653 3655 3657 3658 3659 3660 3660 3660 3665 3668 3669 3674 3678 3681 3684 3689 3693 3697 3697 3699 3702 3705 3708 3710 3714 3717 3717 3718 3719 3719 3721 3724 3727 3731 3732 3732 3732 3732 3732 3732 3735 3739 3743 3745 3747 3751 3754 3754 3755 3756 3758 3759 3759 3760 3760 3762 3762 3765 3767 3768 3770 3770 3771 3771 3772 3775 3775 3779 3780 3783 3786 3787 3787 3787 3785 3784 3784 3784 3784 3784 3784 3786 3786 3786 3786 3786 3786 3786 3786 3785 3783 3781 3778 3777 3775 3773 3771 3768 3766 3766 3765 3763 3761 3761 3759 3753 3736 3715 3703 3703 3703 3703 3708 3713 3713 3713 3712 3709 3708 3705 3705 3705 3702 3702 3701 3700 3699 3699 3696 3692 3686 3682 3676 3672 3662 3645 3629 3624 3624 3617 3624 3624 3629 3624 3624 3585 3512 3410 3290 2727 2502 0 2407 2382 2340 2318 2318 2314 2307 2303 2299 2295 2291 2287 2285 2280 2273 2270 2267 2263 2258 2254 2238 2220 2210 2193 2185 2179 2172 2167 2165 2163 2160 2155 2151 2147 2144 2142 2139 2137 2135 2132 2127 2123 2119 2116 2111 2105 2098 2090 2086 2080 2077 2077 2076 2067 2061 2056 2052 2041 2022 2002 1984 1968 0 0 0 0 0 0 0 0 0 1212 1209 1207 1204 1202 1199 1198 1196 1195 1195 1192 1191 1191 1191 1190 1190 1189 1189 1188 1188 1186 1186 1186 1185 1185 1185 1184 1183 1182 1182 1182 1182 1182 1181 1179 1179 1178 1176 1176 1175 1173 1172 1171 1170 1168 1168 1167 1166 1165 1164 1164 1164 1164 1163 1163 1163 1163 1164 1164 1164 1164 1164 1164 1164 1164 1164 1164 1164 1164 1164 1164 1164 1164 1164 1164 1164 1164 1164 1164 1164 1163 1163 1162 1162 1161 1161 1160 1159 1158 1158 1157 1156 1155 1155 1153 1153 1152 1152 1151 1151 1150 1149 1148 1147 1147 1147 1147 1147 1147 1147 1147 1147 1147 1147 1147 1147 1147 1147 1146 1146 1146 1146 1145 1145 1145 1144 1144 1143 1143 1142 1142 1142 1141 1141 1141 1141 1141 1141 1142 1142 1144 1149 1154 1163 0 0 0 0 0 0 1911 1923 1966 1973 1977 1982 1986 1990 1993 1995 1996 1998 1999 2000 2000 2002 2002 2003 2005 2006 2008 2009 2010 2012 2012 2014 2015 2017 2019 2021 2024 2026 2027 2027 2028 2029 2032 2033 2033 2033 2032 2031 2031 2031 2031 2031 2031 2030 2030 2029 2029 2028 2027 2024 2021 2019 2016 2014 2012 2009 2008 2006 2002 1999 1999 1999 2008 2008 2008 2001 1971 1936 1933 1933 1933 1895 0 0 0 0 0 0 0 0 0 0 0 0 0 0 0 0 0 0 0 0 0 0 0 0 0 0 0 0 0 0 0 0 0 0 0 0 0
3097 3097 3074 3097 3097 3099 3116 3132 3133 3134 3135 3135 3137 3139 3145 3155 3158 3159 3159 3159 3157 3157 3157 3160 3164 3169 3175 3177 3179 3181 3188 3196 3197 3197 3199 3201 3204 3208 3212 3216 3217 3219 3222 3229 3233 3234 3235 3235 3236 3237 3239 3242 3245 3247 3250 3252 3255 3259 3262 3269 3270 3271 3279 3288 3299 3309 3318 3322 3323 3325 3326 3327 3330 3330 3334 3340 3346 3350 3350 3352 3361 3373 3376 3382 3385 3390 3396 3398 3400 3402 3405 3407 3411 3415 3421 3425 3431 3437 3442 3449 3453 3456 3457 3459 3461 3466 3473 3477 3481 3486 3491 3496 3501 3507 3511 3513 3515 3519 3522 3525 3529 3533 3537 3541 3545 3547 3550 3553 3557 3563 3568 3571 3574 3576 3584 3588 3592 3594 3597 3601 3606 3613 3619 3625 3628 3628 3631 3635 3637 3639 3643 3648 3653 3654 3656 3657 3659 3660 3661 3664 3665 3667 3668 3671 3676 3678 3681 3684 3687 3692 3694 3697 3701 3703 3706 3708 3711 3715 3717 3717 3718 3719 3721 3722 3722 3726 3729 3737 3737 3737 3737 3734 3734 3734 3735 3740 3744 3747 3751 3752 3754 3754 3755 3759 3760 3760 3761 3761 3761 3762 3764 3767 3770 3772 3772 3772 3772 3772 3772 3775 3776 3781 3783 3785 3788 3788 3789 3789 3788 3787 3787 3786 3786 3786 3786 3788 3789 3789 3789 3789 3789 3789 3789 3788 3785 3782 3779 3777 3775 3773 3771 3767 3766 3766 3766 3763 3762 3761 3761 3753 3736 3715 3703 3700 3700 3700 3707 3707 3710 3710 3710 3710 3710 3709 3709 3708 3708 3707 3702 3700 3700 3699 3697 3692 3686 3682 3675 3672 3662 3645 3629 3627 3627 3627 3630 3633 3635 3633 3633 3577 3511 3333 3013 2631 0 2411 2392 2373 2337 2318 2317 2311 2307 2304 2299 2294 2290 2287 2283 2280 2273 2270 2267 2264 2258 2250 2234 2220 2210 2193 2181 2175 2169 2165 2165 2162 2159 2154 2149 2146 2143 2140 2137 2134 2132 2128 2125 2122 2119 2116 2111 2103 2095 2086 2080 2074 2071 2068 2066 2059 2053 2045 2034 2014 2013 1985 1980 0 0 0 0 0 0 0 0 0 1216 1207 1206 1206 1203 1201 1199 1198 1196 1195 1195 1193 1193 1193 1192 1192 1191 1190 1189 1189 1188 1187 1187 1186 1186 1185 1185 1184 1184 1184 1183 1183 1183 1183 1182 1181 1180 1179 1177 1176 1175 1174 1172 1171 1170 1169 1168 1167 1167 1165 1165 1165 1165 1165 1165 1165 1164 1164 1165 1165 1165 1165 1165 1165 1165 1165 1165 1165 1165 1165 1165 1165 1165 1165 1165 1165 1165 1165 1165 1165 1165 1163 1163 1163 1162 1161 1161 1160 1159 1159 1158 1157 1157 1156 1154 1153 1153 1152 1152 1151 1151 1150 1149 1148 1147 1147 1147 1148 1148 1148 1148 1148 1148 1148 1148 1147 1147 1147 1147 1147 1147 1147 1146 1146 1146 1146 1145 1144 1144 1144 1143 1143 1143 1142 1142 1141 1141 1141 1142 1142 1142 1145 1146 1147 1152 1162 0 0 0 0 0 0 1903 1944 1966 1973 1981 1984 1987 1990 1992 1994 1996 1998 1998 1999 2000 2000 2002 2002 2004 2004 2007 2008 2010 2011 2013 2013 2014 2016 2019 2022 2025 2025 2026 2027 2028 2031 2031 2031 2031 2030 2030 2030 2030 2030 2030 2030 2030 2030 2028 2027 2027 2026 2022 2021 2017 2014 2012 2011 2008 2006 2000 1997 1995 1995 1995 2001 2001 2001 2001 1988 1952 1949 1945 1935 1897 1892 0 0 0 0 0 0 0 0 0 0 0 0 0 0 0 0 0 0 0 0 0 0 0 0 0 0 0 0 0 0 0 0 0 0 0 0
3085 3085 3074 3085 3085 3099 3116 3136 3136 3138 3139 3140 3146 3147 3153 3158 3160 3160 3161 3161 3159 3159 3161 3161 3167 3175 3183 3186 3191 3195 3197 3197 3198 3198 3202 3203 3205 3209 3213 3217 3220 3221 3222 3230 3235 3235 3235 3236 3236 3241 3242 3245 3246 3248 3251 3252 3255 3259 3262 3267 3270 3271 3282 3293 3302 3309 3318 3323 3324 3325 3327 3328 3331 3333 3335 3341 3346 3350 3351 3356 3363 3373 3376 3382 3386 3392 3396 3398 3400 3403 3409 3411 3415 3418 3421 3427 3432 3438 3444 3450 3455 3459 3463 3464 3465 3468 3473 3480 3483 3489 3494 3499 3503 3507 3512 3515 3517 3520 3525 3526 3529 3533 3537 3541 3545 3547 3552 3557 3558 3563 3570 3574 3577 3581 3588 3591 3594 3595 3598 3602 3607 3613 3621 3626 3628 3629 3631 3635 3637 3642 3646 3649 3653 3655 3658 3661 3662 3663 3665 3668 3669 3671 3674 3678 3681 3684 3685 3688 3691 3694 3699 3703 3705 3709 3713 3715 3715 3719 3719 3719 3720 3720 3725 3727 3730 3732 3737 3743 3743 3743 3741 3736 3735 3735 3735 3740 3745 3749 3753 3755 3756 3757 3757 3761 3763 3763 3763 3762 3762 3762 3766 3768 3772 3775 3775 3775 3776 3776 3776 3776 3779 3783 3785 3788 3789 3789 3790 3790 3789 3789 3789 3789 3788 3788 3788 3790 3792 3792 3792 3792 3791 3791 3791 3790 3787 3784 3781 3778 3775 3773 3771 3767 3766 3766 3766 3762 3762 3761 3761 3754 3744 3724 3703 3699 3699 3699 3700 3700 3707 3711 3711 3711 3711 3711 3711 3711 3711 3709 3702 3701 3700 3700 3697 3693 3687 3680 3675 3672 3662 3640 3629 3627 3627 3627 3633 3633 3635 3633 3633 3568 3489 3272 2903 2549 0 2397 2374 2352 2332 2318 2314 2311 2307 2305 2299 2294 2289 2286 2283 2280 2273 2270 2267 2264 2258 2247 2234 2220 2210 2190 2177 2173 2167 2164 2164 2162 2157 2151 2148 2144 2140 2139 2136 2133 2129 2126 2123 2121 2119 2115 2109 2101 2091 2083 2078 2071 2064 2060 2055 2048 2035 2024 2009 2009 1982 0 0 0 0 0 0 0 0 0 0 1212 1207 1207 1206 1206 1203 1201 1199 1198 1197 1197 1196 1194 1194 1193 1193 1192 1191 1191 1190 1189 1188 1188 1187 1187 1186 1186 1186 1185 1184 1184 1184 1184 1183 1183 1182 1181 1180 1179 1178 1177 1177 1174 1173 1172 1170 1169 1169 1168 1167 1166 1166 1166 1165 1165 1165 1165 1165 1165 1165 1165 1165 1165 1165 1165 1165 1165 1165 1165 1165 1165 1166 1166 1166 1166 1166 1166 1165 1165 1165 1165 1165 1164 1164 1163 1163 1162 1161 1160 1159 1159 1158 1157 1156 1155 1154 1153 1153 1152 1152 1151 1150 1150 1149 1148 1148 1148 1148 1148 1148 1148 1148 1148 1148 1148 1148 1148 1148 1148 1148 1148 1148 1148 1148 1147 1147 1147 1146 1146 1145 1144 1144 1144 1143 1143 1143 1142 1142 1142 1142 1142 1143 1145 1146 1146 1152 1154 0 0 0 0 0 0 0 1909 1953 1965 1975 1980 1983 1987 1988 1991 1992 1994 1996 1996 1997 1998 1999 2000 2000 2001 2003 2005 2007 2009 2011 2012 2013 2015 2016 2018 2021 2021 2022 2024 2026 2028 2028 2028 2028 2027 2027 2027 2029 2030 2030 2030 2030 2028 2028 2026 2026 2024 2022 2020 2016 2013 2011 2009 2007 2005 1999 1995 1994 1994 1994 1999 2001 2001 2001 1988 1972 1954 1952 1943 1906 1894 1840 0 0 0 0 0 0 0 0 0 0 0 0 0 0 0 0 0 0 0 0 0 0 0 0 0 0 0 0 0 0 0 0 0 0 0
3085 3085 3074 3085 3085 3100 3124 3134 3137 3139 3140 3141 3151 3156 3156 3159 3160 3161 3163 3164 3164 3163 3164 3164 3170 3180 3189 3195 3199 3199 3199 3200 3200 3200 3202 3204 3206 3209 3214 3218 3220 3226 3228 3230 3235 3236 3236 3236 3237 3241 3244 3245 3247 3249 3252 3254 3258 3260 3263 3269 3272 3273 3285 3296 3302 3309 3317 3324 3324 3326 3328 3330 3331 3333 3336 3342 3347 3352 3356 3362 3367 3373 3376 3382 3386 3392 3396 3398 3400 3403 3409 3413 3416 3418 3422 3427 3434 3440 3446 3451 3456 3461 3466 3470 3472 3476 3479 3483 3485 3490 3496 3501 3506 3510 3513 3516 3520 3523 3526 3528 3529 3533 3538 3542 3545 3549 3552 3558 3562 3566 3572 3577 3580 3587 3592 3596 3596 3596 3598 3603 3608 3613 3621 3626 3628 3629 3631 3635 3639 3644 3647 3649 3653 3657 3661 3663 3665 3668 3670 3670 3672 3673 3676 3681 3685 3687 3691 3696 3700 3701 3702 3705 3709 3715 3721 3721 3722 3722 3721 3721 3721 3721 3729 3734 3737 3740 3744 3746 3746 3746 3745 3742 3739 3739 3739 3743 3747 3751 3756 3758 3758 3760 3760 3763 3764 3765 3765 3765 3766 3766 3766 3770 3773 3777 3779 3780 3780 3781 3781 3782 3786 3787 3789 3790 3791 3791 3791 3791 3791 3791 3791 3791 3791 3791 3791 3792 3793 3793 3793 3794 3793 3792 3792 3791 3790 3784 3781 3779 3775 3774 3771 3767 3767 3766 3764 3761 3761 3760 3760 3760 3753 3742 3717 3698 3698 3698 3698 3699 3705 3711 3711 3712 3713 3713 3713 3713 3713 3710 3706 3704 3704 3702 3700 3693 3687 3680 3674 3667 3653 3637 3633 3627 3627 3627 3633 3638 3638 3633 3630 3542 3481 3231 2776 2514 0 2382 2364 2343 2327 2318 2314 2311 2307 2305 2299 2293 2288 2286 2283 2280 2274 2270 2268 2264 2258 2247 2234 2221 2210 2189 2177 2173 2167 2164 2162 2159 2155 2149 2145 2141 2138 2136 2134 2132 2128 2124 2121 2119 2115 2111 2104 2097 2088 2079 2073 2065 2060 2051 2042 2027 2009 2007 2006 2001 1981 0 0 0 0 0 0 0 0 0 1212 1203 1203 1203 1203 1203 1203 1201 1199 1199 1199 1197 1196 1195 1195 1193 1193 1193 1191 1191 1191 1190 1189 1188 1188 1187 1187 1187 1186 1186 1186 1185 1185 1185 1184 1184 1183 1181 1180 1179 1178 1178 1177 1176 1174 1173 1172 1171 1170 1169 1168 1167 1166 1166 1166 1165 1165 1165 1165 1165 1165 1166 1166 1166 1166 1166 1166 1166 1166 1166 1166 1166 1166 1166 1166 1166 1166 1166 1166 1166 1165 1165 1165 1164 1164 1164 1163 1162 1161 1160 1159 1159 1157 1157 1156 1155 1154 1153 1153 1152 1152 1151 1150 1150 1149 1148 1148 1148 1148 1148 1148 1148 1149 1149 1149 1149 1149 1149 1149 1149 1149 1149 1149 1149 1149 1148 1148 1148 1147 1147 1146 1145 1145 1144 1144 1144 1143 1143 1143 1143 1143 1143 1143 1145 1146 1146 1150 1154 0 0 0 0 0 0 0 0 1926 1958 1970 1975 1981 1983 1983 1987 1989 1991 1992 1993 1994 1994 1996 1997 1998 1999 2002 2002 2005 2006 2008 2009 2011 2013 2015 2016 2018 2018 2018 2020 2023 2024 2024 2025 2025 2025 2025 2026 2026 2027 2027 2027 2027 2027 2026 2025 2024 2022 2019 2017 2015 2012 2010 2008 2005 2003 1998 1995 1993 1993 1993 1997 1997 1997 1997 1988 1972 1962 1956 1954 1940 1902 1890 0 0 0 0 0 0 0 0 0 0 0 0 0 0 0 0 0 0 0 0 0 0 0 0 0 0 0 0 0 0 0 0 0 0 0
3085 3085 3085 3088 3091 3119 3127 3141 3141 3142 3144 3148 3153 3156 3156 3159 3160 3163 3164 3165 3165 3167 3170 3170 3173 3183 3192 3200 3205 3205 3205 3202 3202 3202 3202 3206 3209 3212 3219 3222 3227 3230 3235 3235 3236 3238 3238 3239 3240 3241 3244 3246 3248 3252 3255 3260 3261 3263 3265 3270 3273 3278 3287 3296 3303 3309 3315 3319 3324 3328 3329 3331 3333 3334 3337 3342 3348 3353 3360 3362 3367 3373 3376 3381 3386 3392 3396 3397 3400 3403 3409 3413 3417 3420 3423 3428 3437 3442 3448 3452 3457 3462 3466 3471 3475 3479 3483 3484 3487 3490 3497 3504 3508 3513 3516 3519 3523 3524 3528 3530 3531 3534 3539 3544 3546 3551 3555 3562 3567 3569 3573 3577 3582 3588 3593 3596 3596 3597 3598 3603 3608 3615 3623 3626 3628 3629 3631 3635 3640 3644 3648 3650 3653 3657 3663 3668 3670 3672 3672 3673 3674 3678 3679 3682 3686 3689 3695 3700 3703 3704 3705 3706 3712 3717 3721 3726 3726 3727 3727 3727 3727 3730 3738 3742 3745 3746 3748 3749 3750 3750 3750 3748 3746 3746 3746 3749 3751 3755 3758 3761 3761 3762 3764 3766 3767 3768 3768 3768 3768 3768 3768 3771 3775 3778 3781 3781 3781 3782 3786 3787 3789 3790 3790 3790 3791 3790 3790 3790 3791 3791 3791 3791 3792 3792 3793 3794 3796 3796 3796 3795 3794 3794 3793 3792 3790 3786 3783 3780 3779 3776 3772 3769 3768 3767 3764 3761 3761 3761 3760 3760 3756 3745 3729 3713 3698 3698 3698 3698 3703 3707 3710 3711 3711 3713 3713 3713 3713 3710 3708 3706 3706 3704 3700 3693 3686 3679 3674 3662 3652 3637 3633 3627 3627 3627 3629 3633 3633 3633 3606 3524 3377 3053 2690 2469 0 2380 2358 2343 2327 2318 2314 2311 2307 2305 2299 2293 2287 2285 2283 2280 2274 2270 2268 2264 2258 2247 2234 2221 2210 2188 2176 2172 2166 2163 2160 2156 2152 2147 2142 2138 2135 2132 2130 2128 2125 2122 2119 2116 2109 2104 2099 2092 2085 2077 2070 2062 2054 2042 2020 2011 2000 1991 1990 1975 1876 0 0 0 0 0 0 0 0 1213 1209 1201 1200 1200 1200 1201 1201 1201 1199 1199 1199 1197 1197 1195 1195 1194 1193 1193 1192 1191 1191 1190 1189 1189 1188 1188 1188 1187 1187 1186 1186 1186 1185 1185 1185 1184 1183 1182 1181 1181 1180 1179 1179 1178 1175 1175 1173 1172 1171 1170 1169 1167 1167 1166 1166 1166 1166 1166 1166 1166 1166 1166 1167 1167 1167 1167 1167 1167 1167 1167 1167 1167 1167 1167 1167 1167 1167 1167 1166 1166 1166 1166 1166 1165 1164 1164 1163 1162 1161 1160 1159 1158 1157 1157 1156 1155 1154 1153 1153 1152 1151 1151 1150 1149 1149 1148 1148 1148 1148 1148 1148 1149 1149 1149 1150 1150 1150 1150 1150 1150 1150 1150 1149 1149 1149 1149 1148 1148 1148 1148 1147 1146 1145 1145 1144 1144 1144 1144 1144 1144 1144 1144 1145 1145 1146 1147 1150 1153 1159 0 0 0 0 0 0 0 1898 1943 1962 1973 1978 1978 1979 1981 1983 1986 1987 1988 1988 1990 1992 1994 1996 1998 2000 2000 2001 2004 2005 2007 2010 2010 2011 2012 2014 2015 2015 2015 2018 2020 2022 2023 2023 2023 2023 2023 2024 2025 2025 2025 2025 2025 2023 2023 2022 2021 2017 2016 2013 2011 2010 2007 2002 1999 1995 1993 1992 1992 1990 1990 1987 1986 1986 1982 1972 1962 1956 1954 1944 1936 1932 0 0 0 0 0 0 0 0 0 0 0 0 0 0 0 0 0 0 0 0 0 0 0 0 0 0 0 0 0 0 0 0 0 0 0
3116 3116 3116 3119 3123 3125 3127 3143 3144 3148 3149 3150 3153 3153 3156 3156 3160 3163 3166 3166 3166 3172 3175 3179 3183 3189 3197 3205 3206 3206 3205 3203 3203 3203 3207 3215 3221 3226 3230 3234 3234 3236 3241 3241 3241 3241 3241 3243 3244 3245 3245 3247 3251 3256 3259 3263 3264 3267 3271 3274 3277 3282 3290 3298 3306 3309 3313 3319 3322 3329 3332 3335 3335 3336 3338 3343 3348 3354 3360 3365 3368 3373 3376 3381 3385 3391 3393 3395 3399 3402 3409 3413 3419 3423 3426 3430 3438 3444 3449 3453 3457 3463 3467 3471 3475 3479 3483 3485 3487 3491 3498 3506 3511 3516 3519 3522 3525 3528 3529 3531 3533 3536 3542 3547 3550 3555 3560 3564 3569 3574 3576 3579 3583 3588 3593 3597 3597 3598 3600 3606 3611 3617 3625 3631 3632 3633 3633 3636 3640 3644 3648 3652 3655 3660 3667 3669 3673 3674 3675 3677 3679 3682 3684 3684 3687 3690 3695 3700 3704 3707 3709 3711 3715 3718 3723 3728 3730 3731 3731 3733 3735 3738 3743 3748 3750 3751 3751 3752 3752 3753 3753 3753 3753 3753 3753 3753 3755 3756 3761 3762 3765 3767 3768 3769 3770 3770 3770 3770 3770 3770 3770 3772 3775 3779 3781 3782 3783 3784 3786 3789 3791 3791 3791 3791 3791 3791 3791 3791 3791 3791 3792 3792 3792 3792 3795 3797 3798 3798 3798 3796 3796 3795 3793 3792 3791 3789 3785 3785 3784 3781 3775 3771 3769 3768 3766 3761 3761 3761 3760 3760 3756 3746 3735 3717 3698 3697 3697 3697 3700 3702 3704 3704 3705 3713 3713 3713 3713 3710 3708 3707 3706 3704 3700 3693 3686 3679 3671 3661 3648 3637 3633 3628 3628 3628 3629 3633 3633 3633 3585 3453 3163 2894 2583 0 2391 2368 2357 2343 2327 2319 2314 2311 2307 2305 2299 2293 2287 2285 2283 2280 2275 2270 2268 2264 2257 2246 2234 2221 2210 2186 2174 2171 2166 2161 2157 2152 2148 2143 2139 2136 2132 2129 2126 2123 2120 2117 2115 2111 2104 2098 2094 2089 2082 2073 2064 2057 2044 2018 2012 2001 0 0 0 0 0 0 0 0 1310 1244 1223 1216 1213 1211 1204 1200 1200 1200 1200 1201 1201 1201 1200 1199 1199 1198 1197 1196 1195 1195 1194 1193 1193 1192 1191 1191 1190 1190 1190 1189 1189 1188 1188 1187 1187 1187 1186 1186 1185 1184 1183 1183 1183 1182 1181 1180 1180 1179 1178 1176 1175 1173 1172 1171 1170 1169 1167 1167 1167 1167 1166 1166 1166 1166 1166 1167 1167 1167 1167 1167 1167 1167 1168 1168 1168 1168 1168 1168 1168 1168 1168 1168 1167 1167 1166 1166 1166 1166 1164 1164 1163 1162 1161 1161 1159 1158 1157 1157 1156 1156 1154 1153 1153 1152 1151 1151 1150 1149 1149 1149 1148 1148 1148 1149 1149 1149 1149 1149 1150 1150 1150 1150 1150 1150 1150 1150 1150 1150 1150 1149 1149 1149 1149 1148 1148 1147 1146 1146 1146 1145 1145 1145 1145 1145 1145 1145 1145 1145 1146 1147 1150 1153 1159 1169 0 0 0 0 0 0 1846 1912 1953 1971 1976 1977 1977 1977 1977 1980 1982 1984 1984 1985 1988 1991 1994 1995 1996 1997 1999 2001 2003 2004 2006 2007 2007 2010 2011 2013 2013 2014 2014 2016 2018 2020 2020 2020 2020 2020 2021 2021 2022 2022 2022 2021 2020 2019 2019 2018 2015 2014 2012 2010 2007 2004 2001 1995 1993 1990 1988 1987 1987 1987 1981 1980 1977 1974 1968 1962 1956 1954 1945 1944 1939 1932 0 0 0 0 0 0 0 0 0 0 0 0 0 0 0 0 0 0 0 0 0 0 0 0 0 0 0 0 0 0 0 0 0 0
3123 3123 3123 3127 3127 3128 3128 3144 3148 3148 3149 3150 3151 3153 3153 3155 3160 3168 3168 3172 3173 3178 3181 3183 3190 3193 3201 3207 3212 3212 3212 3212 3212 3212 3213 3215 3228 3232 3232 3238 3242 3242 3243 3243 3243 3244 3244 3245 3248 3248 3249 3250 3253 3257 3260 3264 3266 3271 3274 3277 3279 3283 3291 3300 3307 3308 3312 3318 3322 3329 3335 3337 3338 3339 3340 3343 3348 3355 3360 3366 3370 3374 3376 3381 3385 3388 3391 3394 3398 3402 3408 3413 3419 3423 3427 3434 3441 3446 3449 3453 3459 3463 3468 3472 3475 3479 3483 3486 3490 3494 3499 3507 3514 3518 3520 3524 3526 3529 3531 3534 3537 3540 3545 3551 3556 3559 3561 3567 3572 3578 3580 3582 3586 3589 3594 3597 3599 3601 3604 3608 3614 3621 3628 3633 3636 3637 3638 3641 3643 3647 3650 3653 3657 3663 3667 3669 3673 3676 3678 3681 3684 3688 3688 3689 3690 3691 3695 3701 3704 3709 3710 3713 3715 3719 3724 3728 3733 3733 3736 3738 3740 3744 3746 3752 3755 3755 3755 3755 3755 3757 3758 3758 3758 3757 3757 3757 3759 3761 3763 3764 3766 3768 3768 3771 3771 3771 3771 3771 3771 3771 3771 3774 3776 3779 3781 3783 3784 3785 3787 3789 3791 3791 3791 3791 3791 3791 3792 3792 3792 3793 3793 3793 3794 3794 3796 3798 3799 3799 3799 3798 3796 3795 3795 3793 3793 3792 3789 3789 3788 3787 3778 3774 3770 3769 3767 3763 3761 3761 3761 3761 3756 3746 3735 3717 3698 3697 3697 3696 3696 3696 3696 3696 3700 3709 3713 3713 3713 3710 3708 3707 3705 3699 3696 3691 3685 3679 3671 3661 3648 3636 3635 3628 3628 3628 3629 3633 3633 3633 3549 3388 3084 2731 0 0 2388 2367 2355 2344 2331 2321 2314 2311 2307 2304 2300 2293 2287 2285 2283 2279 2275 2270 2266 2261 2257 2246 2234 2218 2208 2186 2174 2171 2166 2158 2153 2148 2143 2140 2137 2134 2131 2128 2124 2120 2116 2112 2108 2104 2101 2093 2089 2084 2074 2065 2052 2042 2024 2017 1996 0 0 0 0 0 0 0 0 0 1239 1222 1215 1213 1211 1211 1206 1202 1201 1201 1201 1201 1201 1201 1200 1199 1199 1199 1197 1197 1196 1196 1196 1194 1194 1193 1192 1192 1192 1191 1190 1190 1190 1189 1188 1188 1188 1187 1187 1186 1186 1185 1185 1184 1184 1183 1183 1182 1181 1180 1178 1177 1176 1175 1174 1172 1171 1169 1168 1168 1168 1167 1167 1167 1167 1167 1167 1167 1167 1167 1167 1167 1168 1168 1168 1169 1169 1169 1168 1168 1168 1168 1168 1168 1168 1167 1167 1166 1166 1166 1165 1164 1163 1162 1161 1161 1159 1158 1157 1157 1156 1155 1154 1153 1153 1152 1151 1151 1150 1149 1149 1149 1148 1148 1148 1149 1150 1150 1150 1150 1151 1151 1152 1152 1152 1151 1151 1151 1151 1151 1151 1150 1150 1150 1149 1149 1148 1147 1147 1147 1147 1146 1146 1146 1146 1145 1145 1145 1145 1145 1146 1149 1150 1153 1155 1164 0 0 0 0 0 0 0 1877 1924 1955 1970 1972 1972 1973 1973 1976 1979 1980 1981 1981 1984 1987 1989 1991 1992 1994 1995 1998 1999 2000 2002 2003 2004 2006 2007 2010 2010 2010 2011 2012 2014 2016 2016 2016 2017 2017 2018 2018 2019 2019 2019 2019 2017 2016 2016 2014 2013 2011 2010 2008 2004 2001 1996 1995 1989 1987 1984 1981 1981 1980 1980 1978 1976 1971 1961 1958 1953 1951 1949 1948 1944 1942 0 0 0 0 0 0 0 0 0 0 0 0 0 0 0 0 0 0 0 0 0 0 0 0 0 0 0 0 0 0 0 0 0 0
3127 3127 3127 3128 3129 3131 3136 3144 3150 3151 3152 3152 3152 3152 3153 3153 3160 3170 3173 3174 3177 3180 3182 3184 3193 3200 3202 3207 3214 3214 3214 3213 3213 3213 3213 3217 3231 3232 3236 3238 3242 3245 3246 3246 3245 3246 3246 3246 3249 3252 3253 3255 3256 3258 3261 3264 3267 3271 3275 3277 3279 3284 3292 3301 3307 3308 3311 3315 3319 3329 3337 3342 3343 3344 3344 3345 3348 3355 3362 3368 3373 3376 3379 3382 3385 3388 3391 3394 3398 3402 3408 3413 3419 3425 3431 3438 3444 3448 3450 3453 3459 3464 3468 3472 3475 3479 3484 3488 3493 3498 3504 3511 3517 3519 3520 3525 3527 3531 3534 3538 3541 3546 3550 3555 3560 3563 3566 3572 3575 3579 3582 3584 3588 3593 3597 3600 3603 3603 3607 3610 3616 3621 3628 3633 3636 3637 3640 3644 3647 3650 3653 3655 3660 3663 3668 3670 3673 3676 3680 3684 3684 3688 3690 3692 3692 3694 3698 3702 3704 3709 3711 3714 3717 3720 3724 3729 3733 3735 3740 3743 3745 3748 3751 3754 3757 3758 3759 3759 3759 3760 3761 3761 3761 3760 3760 3760 3762 3763 3765 3767 3768 3768 3769 3771 3773 3773 3773 3773 3774 3775 3776 3777 3778 3781 3782 3785 3785 3785 3787 3789 3792 3792 3792 3791 3791 3791 3793 3794 3794 3795 3796 3796 3797 3799 3800 3800 3800 3800 3799 3799 3799 3798 3798 3798 3797 3796 3793 3789 3789 3787 3784 3774 3771 3770 3769 3769 3767 3762 3760 3759 3754 3746 3735 3717 3695 3693 3690 3690 3690 3687 3687 3687 3699 3708 3708 3708 3708 3707 3707 3705 3699 3692 3686 3683 3682 3677 3669 3658 3648 3636 3633 3632 3630 3630 3632 3632 3630 3604 3504 3351 3053 2657 0 0 2386 2366 2354 2344 2331 2322 2314 2311 2306 2304 2300 2295 2289 2285 2283 2279 2275 2270 2264 2260 2255 2246 2234 2213 2201 2180 2171 2170 2164 2156 2149 2144 2139 2136 2133 2132 2128 2125 2122 2117 2112 2106 2102 2100 2097 2090 2084 2077 2066 2044 2035 2026 2017 1991 0 0 0 0 0 0 0 0 0 0 1222 1215 1212 1211 1211 1209 1207 1203 1203 1202 1202 1202 1202 1202 1201 1201 1200 1199 1199 1198 1197 1197 1196 1195 1194 1194 1194 1193 1192 1192 1191 1190 1190 1190 1189 1189 1189 1188 1188 1187 1187 1187 1185 1184 1184 1184 1183 1183 1182 1182 1180 1179 1177 1175 1174 1173 1172 1170 1170 1169 1169 1169 1168 1168 1168 1168 1168 1168 1168 1168 1168 1168 1168 1169 1169 1169 1169 1169 1169 1168 1168 1168 1168 1168 1168 1168 1167 1167 1167 1166 1165 1164 1163 1162 1162 1161 1159 1158 1157 1157 1156 1156 1155 1154 1153 1152 1151 1151 1150 1149 1149 1149 1149 1149 1149 1149 1150 1150 1151 1151 1151 1152 1152 1152 1152 1152 1152 1152 1152 1151 1151 1151 1151 1150 1149 1149 1149 1149 1148 1148 1147 1147 1146 1146 1146 1146 1146 1146 1146 1147 1147 1149 1150 1153 1155 1159 1169 0 0 0 0 0 0 0 1890 1936 1955 1965 1966 1970 1970 1973 1976 1977 1977 1979 1981 1982 1985 1987 1989 1990 1993 1995 1996 1997 1998 2000 2001 2003 2005 2006 2007 2007 2008 2010 2011 2012 2013 2013 2014 2014 2014 2015 2015 2017 2017 2017 2015 2014 2014 2012 2009 2008 2007 2005 2002 1998 1994 1991 1989 1986 1981 1979 1979 1979 1978 1978 1976 1967 1958 1952 1952 1948 1948 1948 1944 1942 1909 0 0 0 0 0 0 0 0 0 0 0 0 0 0 0 0 0 0 0 0 0 0 0 0 0 0 0 0 0 0 0 0 0
3123 3123 3124 3127 3128 3136 3147 3149 3150 3151 3152 3152 3152 3152 3153 3153 3164 3172 3176 3177 3178 3181 3184 3190 3193 3200 3206 3211 3214 3214 3214 3214 3215 3215 3215 3219 3231 3232 3236 3238 3242 3246 3247 3247 3247 3246 3246 3246 3251 3254 3256 3257 3258 3260 3262 3266 3269 3272 3275 3277 3280 3284 3292 3301 3307 3308 3309 3312 3317 3326 3337 3344 3346 3347 3347 3347 3350 3355 3362 3371 3377 3380 3382 3384 3385 3388 3391 3394 3398 3402 3408 3413 3419 3428 3436 3443 3449 3450 3454 3458 3463 3465 3469 3472 3475 3479 3484 3489 3496 3504 3509 3514 3518 3520 3524 3526 3529 3533 3536 3542 3548 3551 3556 3560 3562 3565 3568 3572 3577 3580 3583 3587 3591 3595 3599 3603 3606 3606 3609 3613 3616 3622 3628 3633 3636 3638 3641 3645 3648 3651 3654 3659 3663 3665 3669 3670 3673 3676 3681 3684 3684 3688 3690 3692 3695 3700 3703 3705 3707 3710 3714 3716 3719 3723 3730 3733 3735 3738 3742 3746 3747 3750 3753 3756 3759 3761 3761 3761 3761 3761 3763 3763 3763 3763 3763 3763 3765 3766 3767 3767 3769 3769 3770 3772 3774 3775 3777 3778 3780 3781 3782 3782 3783 3785 3787 3787 3788 3788 3789 3789 3793 3793 3793 3791 3791 3791 3793 3797 3797 3797 3798 3799 3799 3800 3803 3803 3803 3803 3802 3802 3802 3802 3801 3800 3800 3799 3796 3792 3790 3787 3785 3776 3771 3770 3770 3770 3770 3764 3757 3753 3748 3738 3723 3708 3690 3682 3681 3680 3678 3678 3678 3687 3698 3708 3708 3708 3708 3704 3703 3702 3698 3692 3686 3683 3682 3677 3669 3658 3648 3641 3632 3632 3632 3634 3641 3641 3641 3534 3422 3292 2950 2585 0 2410 2386 2365 2353 2344 2331 2322 2315 2311 2306 2304 2300 2297 2293 2287 2283 2279 2275 2270 2264 2260 2255 2249 2234 2213 2196 2176 2166 2166 2161 2153 2146 2140 2137 2133 2132 2129 2127 2122 2117 2113 2107 2101 2097 2095 2093 2088 2078 2065 2046 2030 2016 2011 2008 0 0 0 0 0 0 0 0 0 1222 1221 1216 1214 1212 1211 1210 1209 1207 1204 1203 1203 1203 1203 1203 1203 1202 1201 1200 1200 1199 1199 1198 1198 1196 1196 1196 1195 1195 1194 1193 1192 1192 1192 1191 1191 1190 1190 1189 1189 1189 1187 1187 1187 1187 1184 1184 1184 1184 1183 1183 1182 1180 1179 1177 1176 1175 1174 1172 1172 1171 1171 1170 1169 1169 1169 1168 1168 1168 1168 1168 1169 1169 1169 1169 1169 1169 1169 1169 1169 1169 1169 1169 1169 1169 1168 1168 1168 1167 1167 1167 1166 1165 1164 1164 1162 1162 1161 1159 1158 1158 1157 1156 1156 1155 1154 1153 1152 1152 1151 1150 1149 1149 1149 1149 1149 1149 1149 1150 1151 1151 1152 1152 1152 1153 1153 1153 1153 1153 1153 1152 1152 1152 1152 1151 1151 1150 1150 1150 1149 1149 1148 1148 1148 1147 1147 1147 1147 1147 1147 1147 1147 1147 1149 1151 1152 1155 1158 1163 0 0 0 0 0 0 0 1860 1905 1941 1953 1959 1966 1966 1969 1971 1973 1974 1977 1978 1979 1981 1983 1986 1987 1991 1993 1994 1994 1995 1997 1999 2000 2001 2003 2003 2003 2004 2007 2007 2008 2008 2009 2010 2011 2011 2011 2012 2013 2014 2014 2014 2012 2011 2009 2006 2006 2004 2002 1998 1995 1993 1990 1988 1984 1981 1979 1977 1977 1974 1971 1968 1959 1951 1949 1948 1948 1948 1946 1944 1942 1921 0 0 0 0 0 0 0 0 0 0 0 0 0 0 0 0 0 0 0 0 0 0 0 0 0 0 0 0 0 0 0 0 0
3127 3127 3127 3128 3132 3143 3143 3149 3153 3153 3153 3153 3153 3153 3153 3162 3171 3181 3182 3182 3183 3185 3191 3193 3199 3200 3208 3211 3214 3214 3214 3214 3215 3215 3218 3219 3226 3228 3232 3238 3238 3246 3247 3248 3248 3248 3248 3248 3251 3256 3258 3260 3262 3263 3266 3270 3272 3275 3277 3278 3280 3284 3293 3302 3307 3308 3309 3309 3313 3324 3337 3344 3348 3348 3349 3350 3352 3359 3365 3373 3379 3385 3387 3388 3388 3392 3394 3396 3402 3406 3411 3416 3424 3431 3440 3445 3450 3453 3458 3462 3464 3468 3470 3472 3477 3482 3488 3494 3501 3507 3512 3517 3520 3522 3526 3528 3530 3535 3540 3545 3550 3556 3558 3562 3565 3566 3570 3575 3578 3581 3585 3588 3593 3596 3600 3604 3606 3609 3611 3613 3617 3622 3628 3633 3636 3638 3642 3645 3648 3651 3656 3663 3667 3670 3672 3674 3675 3678 3681 3684 3684 3687 3690 3692 3696 3701 3704 3709 3713 3714 3717 3720 3722 3726 3734 3735 3737 3738 3744 3748 3750 3752 3755 3758 3760 3762 3762 3763 3763 3763 3763 3763 3763 3763 3763 3765 3767 3767 3768 3768 3769 3769 3770 3774 3775 3778 3780 3782 3786 3787 3787 3787 3788 3789 3790 3790 3791 3791 3792 3792 3795 3795 3795 3794 3794 3794 3796 3797 3799 3799 3799 3799 3800 3801 3803 3805 3805 3805 3805 3804 3804 3804 3804 3803 3802 3801 3800 3796 3790 3788 3786 3776 3771 3770 3770 3770 3770 3764 3756 3748 3742 3731 3721 3708 3690 3682 3681 3680 3678 3676 3676 3676 3698 3708 3708 3708 3708 3704 3703 3702 3698 3692 3686 3683 3682 3677 3669 3658 3648 3641 3636 3636 3636 3637 3637 3637 3600 3493 3406 3141 2793 2516 0 2401 2382 2361 2350 2339 2329 2323 2316 2311 2306 2304 2301 2300 2297 2289 2284 2280 2275 2269 2263 2259 2255 2249 2233 2208 2193 2174 2161 2160 2155 2149 2143 2137 2135 2132 2129 2126 2123 2118 2114 2109 2103 2097 2094 2093 2091 2084 2069 2046 2042 2027 2002 1994 0 0 0 0 0 0 0 0 0 1223 1219 1216 1214 1212 1211 1210 1210 1209 1207 1205 1205 1204 1204 1204 1204 1203 1203 1202 1201 1201 1201 1199 1199 1199 1198 1197 1197 1196 1196 1195 1194 1194 1193 1192 1192 1192 1191 1191 1190 1190 1190 1189 1189 1188 1187 1187 1186 1185 1184 1183 1183 1182 1181 1180 1179 1177 1176 1175 1174 1173 1172 1172 1171 1171 1170 1170 1169 1169 1169 1169 1169 1169 1169 1169 1169 1169 1169 1170 1170 1170 1169 1169 1169 1169 1169 1169 1169 1168 1168 1167 1167 1166 1165 1165 1164 1163 1162 1161 1159 1158 1158 1157 1156 1156 1155 1154 1153 1153 1153 1152 1151 1150 1150 1150 1150 1150 1150 1150 1151 1152 1152 1153 1154 1155 1155 1155 1154 1154 1154 1154 1153 1153 1153 1152 1152 1152 1152 1152 1151 1151 1150 1150 1149 1148 1148 1147 1147 1147 1147 1147 1147 1147 1147 1149 1151 1152 1153 1154 1155 1167 0 0 0 0 0 0 0 1870 1924 1943 1953 1960 1963 1966 1969 1971 1974 1975 1976 1977 1979 1980 1982 1985 1987 1990 1992 1992 1993 1994 1996 1997 1998 1999 2000 2001 2001 2002 2004 2004 2004 2005 2006 2007 2008 2009 2009 2010 2011 2011 2010 2010 2008 2007 2005 2004 2000 1997 1995 1993 1991 1990 1987 1984 1980 1979 1977 1974 1972 1966 1957 1954 1951 1948 1948 1948 1948 1946 1944 1931 1922 1904 0 0 0 0 0 0 0 0 0 0 0 0 0 0 0 0 0 0 0 0 0 0 0 0 0 0 0 0 0 0 0 0
3127 3127 3132 3134 3135 3145 3147 3149 3154 3155 3156 3156 3156 3156 3159 3172 3177 3182 3188 3190 3192 3193 3195 3195 3199 3201 3208 3211 3214 3214 3214 3214 3215 3215 3220 3224 3226 3228 3232 3235 3238 3241 3243 3245 3250 3250 3250 3250 3255 3257 3263 3267 3268 3268 3268 3271 3275 3277 3279 3279 3282 3284 3293 3302 3307 3307 3309 3309 3313 3324 3333 3344 3348 3351 3354 3356 3358 3365 3370 3377 3383 3387 3391 3393 3395 3398 3401 3405 3409 3413 3417 3423 3430 3436 3445 3451 3451 3454 3458 3462 3464 3468 3472 3477 3484 3488 3492 3502 3509 3511 3515 3521 3523 3527 3529 3531 3533 3536 3541 3546 3552 3557 3562 3565 3568 3569 3572 3576 3581 3583 3587 3590 3593 3597 3601 3604 3607 3610 3612 3613 3618 3623 3628 3633 3636 3638 3642 3648 3651 3653 3659 3664 3671 3674 3676 3677 3678 3682 3683 3684 3684 3685 3688 3692 3696 3701 3706 3711 3714 3715 3719 3723 3726 3730 3734 3737 3737 3739 3744 3749 3752 3755 3756 3758 3760 3762 3763 3763 3764 3764 3764 3764 3764 3765 3766 3767 3769 3769 3769 3769 3771 3772 3774 3777 3780 3783 3784 3786 3789 3790 3791 3791 3792 3793 3793 3793 3794 3794 3796 3797 3799 3799 3799 3796 3796 3796 3796 3798 3800 3800 3801 3801 3802 3804 3805 3805 3806 3806 3806 3806 3807 3806 3806 3806 3804 3803 3801 3801 3797 3791 3786 3778 3768 3768 3768 3764 3764 3764 3755 3746 3739 3728 3721 3708 3690 3682 3681 3680 3678 3674 3674 3674 3693 3709 3709 3709 3708 3704 3703 3701 3698 3692 3686 3681 3680 3677 3673 3666 3652 3641 3636 3636 3636 3637 3637 3637 3587 3490 3276 3009 2681 0 2404 2386 2361 2348 2340 2332 2324 2323 2319 2316 2310 2305 2302 2301 2297 2289 2284 2280 2275 2269 2263 2258 2255 2249 2233 2204 2189 2173 2157 2151 2151 2144 2139 2134 2132 2129 2127 2122 2118 2114 2110 2107 2102 2096 2092 2092 2087 2073 2049 2046 2033 2006 0 0 0 0 0 0 0 0 0 0 1225 1220 1218 1216 1213 1212 1211 1211 1210 1209 1208 1206 1206 1206 1205 1205 1204 1203 1203 1202 1202 1202 1201 1200 1200 1199 1199 1198 1198 1197 1197 1196 1195 1195 1194 1194 1194 1193 1193 1192 1191 1191 1191 1191 1190 1189 1188 1187 1187 1186 1185 1184 1183 1182 1182 1180 1179 1178 1177 1176 1175 1174 1173 1173 1173 1172 1171 1170 1170 1170 1170 1170 1169 1169 1169 1169 1169 1169 1170 1170 1170 1170 1170 1170 1170 1169 1169 1169 1169 1169 1168 1167 1167 1166 1166 1165 1164 1163 1162 1161 1160 1159 1159 1158 1157 1156 1155 1155 1154 1154 1153 1152 1152 1151 1151 1151 1151 1151 1151 1151 1152 1153 1154 1154 1154 1156 1156 1156 1155 1155 1154 1154 1154 1154 1154 1154 1153 1153 1152 1152 1152 1151 1151 1150 1150 1149 1148 1148 1148 1148 1148 1148 1148 1148 1148 1149 1151 1151 1152 1153 1154 1160 0 0 0 0 0 0 0 1869 1886 1926 1943 1953 1957 1961 1967 1970 1974 1974 1974 1976 1977 1978 1980 1983 1985 1987 1988 1989 1990 1991 1993 1994 1995 1996 1996 1997 1998 1999 2000 2000 2001 2002 2003 2004 2006 2006 2006 2007 2007 2007 2007 2007 2007 2005 2003 2002 1998 1994 1991 1991 1990 1988 1985 1983 1980 1977 1976 1972 1970 1965 1957 1954 1951 1948 1948 1948 1948 1946 1944 1931 1926 1904 1888 0 0 0 0 0 0 0 0 0 0 0 0 0 0 0 0 0 0 0 0 0 0 0 0 0 0 0 0 0 0 0
3135 3135 3135 3136 3136 3146 3149 3150 3155 3155 3156 3156 3156 3156 3159 3172 3177 3182 3189 3192 3194 3196 3196 3197 3199 3201 3206 3207 3208 3211 3211 3212 3213 3216 3220 3224 3226 3227 3229 3233 3236 3238 3239 3243 3251 3251 3253 3254 3261 3263 3265 3268 3268 3268 3269 3271 3277 3280 3282 3282 3283 3286 3294 3302 3305 3306 3308 3309 3313 3324 3333 3344 3348 3352 3356 3361 3365 3369 3375 3379 3384 3387 3391 3396 3401 3404 3410 3413 3417 3419 3424 3429 3433 3440 3447 3456 3456 3458 3458 3462 3464 3468 3475 3481 3486 3489 3495 3503 3511 3513 3520 3526 3529 3531 3532 3533 3536 3540 3543 3548 3555 3560 3566 3569 3570 3572 3573 3577 3581 3584 3587 3590 3594 3598 3601 3605 3607 3610 3612 3615 3619 3624 3629 3633 3637 3640 3645 3648 3653 3656 3659 3666 3671 3675 3677 3679 3681 3683 3684 3684 3684 3685 3688 3692 3697 3701 3706 3712 3715 3720 3722 3726 3728 3731 3735 3738 3738 3739 3745 3750 3753 3755 3757 3760 3760 3763 3763 3763 3764 3764 3764 3765 3765 3765 3767 3769 3770 3770 3771 3772 3775 3777 3780 3782 3783 3784 3788 3790 3793 3795 3795 3795 3796 3797 3797 3798 3798 3798 3798 3800 3801 3801 3801 3798 3797 3797 3797 3799 3801 3801 3802 3802 3804 3805 3806 3807 3809 3809 3809 3807 3807 3807 3807 3806 3805 3805 3804 3804 3804 3799 3790 3781 3768 3764 3764 3764 3763 3760 3754 3745 3735 3728 3720 3715 3711 3707 3707 3699 3681 3674 3674 3674 3693 3709 3714 3714 3714 3710 3703 3700 3697 3692 3686 3681 3680 3677 3673 3671 3669 3653 3640 3637 3637 3637 3637 3637 3558 3445 3248 2833 2582 0 2390 2375 2350 2346 2339 2330 2325 2323 2322 2320 2312 2307 2302 2301 2297 2289 2284 2280 2274 2267 2261 2258 2255 2249 2231 2198 2184 2172 2154 2147 2147 2141 2134 2131 2129 2127 2122 2118 2114 2109 2107 2105 2102 2094 2088 2084 2072 2053 2049 2032 2032 0 0 0 0 0 0 0 0 0 0 1221 1220 1218 1216 1215 1213 1213 1212 1211 1211 1209 1208 1207 1207 1207 1207 1206 1205 1204 1203 1203 1203 1202 1202 1202 1201 1200 1200 1200 1198 1198 1198 1197 1197 1196 1195 1195 1194 1194 1193 1193 1193 1193 1192 1191 1191 1190 1190 1189 1189 1188 1187 1185 1184 1183 1182 1181 1181 1179 1179 1178 1176 1176 1175 1174 1173 1172 1172 1171 1170 1170 1170 1170 1170 1170 1170 1170 1170 1170 1170 1171 1171 1171 1170 1170 1170 1170 1170 1170 1169 1169 1168 1168 1167 1166 1166 1165 1164 1163 1163 1162 1161 1160 1159 1158 1158 1157 1156 1156 1155 1154 1154 1153 1153 1152 1152 1152 1152 1152 1152 1152 1152 1154 1154 1154 1155 1157 1157 1157 1156 1156 1156 1156 1156 1155 1154 1154 1154 1154 1153 1153 1152 1152 1152 1152 1150 1150 1149 1149 1149 1148 1148 1148 1148 1148 1148 1149 1149 1150 1150 1154 1155 1158 1168 0 0 0 0 0 0 1869 1886 1924 1933 1945 1948 1954 1960 1966 1970 1971 1972 1974 1975 1976 1978 1980 1983 1984 1985 1986 1987 1989 1990 1991 1992 1993 1994 1995 1995 1997 1997 1998 1999 1999 2001 2001 2003 2003 2003 2005 2005 2005 2005 2004 2004 2002 2001 2000 1995 1991 1989 1988 1988 1986 1985 1983 1981 1977 1974 1971 1970 1965 1957 1954 1952 1950 1950 1950 1950 1950 1950 1931 1927 1910 1891 0 0 0 0 0 0 0 0 0 0 0 0 0 0 0 0 0 0 0 0 0 0 0 0 0 0 0 0 0 0 0
3135 3135 3135 3137 3137 3146 3148 3150 3155 3156 3156 3156 3156 3156 3159 3172 3177 3183 3189 3192 3194 3196 3196 3199 3199 3201 3202 3203 3203 3211 3211 3212 3213 3216 3220 3224 3225 3226 3228 3231 3234 3237 3239 3242 3247 3254 3256 3257 3263 3263 3268 3268 3269 3269 3275 3276 3278 3283 3284 3285 3286 3289 3295 3302 3305 3306 3309 3309 3315 3324 3333 3344 3348 3352 3357 3361 3366 3370 3375 3380 3385 3387 3392 3396 3404 3409 3413 3417 3417 3421 3424 3429 3433 3440 3447 3456 3456 3458 3460 3462 3464 3469 3476 3482 3486 3489 3495 3504 3511 3517 3528 3535 3536 3536 3537 3537 3540 3543 3546 3550 3556 3561 3566 3569 3572 3573 3574 3578 3582 3585 3588 3592 3595 3599 3602 3605 3607 3610 3616 3617 3620 3625 3629 3635 3640 3645 3648 3650 3653 3657 3661 3668 3671 3676 3680 3683 3684 3684 3685 3685 3685 3686 3688 3692 3697 3702 3708 3712 3719 3723 3727 3728 3731 3733 3736 3738 3739 3740 3746 3750 3754 3756 3759 3760 3762 3763 3764 3765 3766 3766 3766 3766 3766 3766 3769 3771 3772 3773 3774 3778 3780 3782 3784 3784 3785 3786 3790 3794 3795 3797 3797 3797 3800 3800 3800 3800 3800 3800 3802 3802 3802 3802 3801 3800 3799 3799 3799 3800 3802 3802 3802 3804 3804 3805 3807 3810 3810 3810 3809 3808 3808 3808 3807 3807 3806 3806 3806 3806 3804 3800 3795 3787 3776 3764 3764 3760 3760 3758 3747 3738 3726 3724 3720 3719 3719 3719 3717 3713 3700 3680 3680 3680 3693 3709 3714 3714 3714 3711 3705 3700 3694 3690 3684 3680 3678 3674 3673 3671 3669 3653 3642 3642 3642 3642 3642 3620 3522 3425 3173 2797 2539 0 2380 2353 2348 2345 2338 2329 2325 2323 2322 2320 2314 2308 2303 2301 2297 2288 2282 2280 2273 2266 2258 2254 2251 2245 2229 2196 2179 2165 2153 2146 2144 2136 2130 2129 2127 2126 2122 2118 2114 2109 2106 2104 2101 2094 2088 2083 2072 2052 2048 2019 0 0 0 0 0 0 0 0 0 1226 1221 1220 1219 1216 1215 1215 1214 1213 1213 1212 1212 1211 1209 1208 1208 1208 1207 1206 1206 1205 1204 1204 1204 1203 1203 1202 1202 1202 1200 1200 1199 1199 1198 1198 1198 1197 1197 1196 1195 1195 1195 1195 1194 1194 1193 1192 1191 1191 1191 1189 1189 1188 1187 1185 1184 1184 1184 1182 1181 1180 1180 1179 1178 1177 1176 1176 1175 1174 1174 1172 1172 1172 1172 1171 1170 1170 1170 1170 1170 1171 1171 1171 1171 1171 1171 1170 1170 1170 1170 1170 1169 1169 1169 1168 1167 1167 1166 1165 1164 1163 1163 1162 1162 1161 1160 1160 1158 1158 1157 1156 1156 1156 1155 1154 1153 1153 1152 1152 1152 1152 1152 1152 1153 1154 1155 1155 1155 1157 1157 1157 1157 1157 1157 1156 1156 1155 1155 1154 1154 1154 1154 1153 1153 1153 1153 1152 1151 1151 1150 1150 1149 1149 1149 1149 1149 1149 1149 1149 1149 1150 1150 1154 1155 1158 1162 1168 0 0 0 0 0 0 1886 1906 1933 1936 1943 1948 1953 1958 1964 1966 1968 1971 1971 1974 1976 1979 1980 1982 1982 1982 1985 1986 1987 1988 1989 1990 1991 1993 1993 1995 1995 1996 1996 1997 1998 1999 1999 2000 2001 2002 2002 2002 2002 2001 2000 2000 1999 1997 1995 1991 1988 1985 1985 1985 1985 1983 1981 1977 1974 1971 1968 1964 1958 1957 1956 1956 1957 1957 1957 1957 1950 1935 1930 1926 1902 1881 0 0 0 0 0 0 0 0 0 0 0 0 0 0 0 0 0 0 0 0 0 0 0 0 0 0 0 0 0 0
3135 3135 3135 3137 3137 3148 3150 3152 3155 3158 3158 3158 3157 3157 3157 3161 3175 3184 3189 3192 3194 3196 3199 3199 3199 3202 3203 3203 3203 3210 3210 3211 3213 3216 3220 3224 3225 3225 3228 3231 3234 3237 3239 3242 3245 3250 3258 3260 3265 3266 3270 3270 3271 3272 3279 3281 3285 3285 3286 3288 3290 3291 3296 3303 3305 3306 3309 3309 3316 3326 3338 3347 3352 3356 3359 3361 3366 3370 3377 3381 3385 3387 3392 3397 3405 3409 3414 3417 3417 3421 3425 3430 3434 3440 3447 3456 3456 3459 3460 3462 3464 3470 3477 3483 3488 3490 3495 3504 3512 3519 3528 3535 3536 3537 3537 3539 3543 3544 3547 3552 3556 3561 3566 3569 3572 3573 3575 3578 3582 3587 3590 3593 3595 3600 3602 3605 3607 3612 3616 3621 3624 3625 3630 3635 3641 3645 3650 3653 3655 3658 3662 3668 3672 3677 3682 3685 3687 3688 3688 3689 3689 3689 3689 3692 3697 3704 3710 3717 3721 3726 3732 3733 3733 3735 3737 3739 3741 3744 3748 3752 3755 3757 3760 3761 3764 3765 3767 3769 3769 3769 3768 3768 3768 3769 3771 3774 3776 3777 3780 3783 3786 3787 3787 3787 3787 3787 3791 3795 3796 3798 3799 3800 3801 3801 3801 3801 3801 3801 3802 3803 3803 3803 3801 3801 3800 3800 3800 3801 3802 3802 3803 3804 3805 3807 3809 3810 3811 3811 3811 3809 3809 3809 3807 3807 3807 3807 3807 3806 3804 3800 3795 3794 3786 3776 3766 3760 3760 3756 3737 3722 3720 3720 3720 3720 3720 3719 3719 3713 3703 3703 3703 3705 3708 3709 3713 3713 3713 3711 3705 3699 3693 3688 3682 3677 3671 3671 3669 3668 3667 3653 3653 3653 3647 3647 3647 3577 3498 3352 3014 2659 0 0 2379 2353 2348 2346 2338 2329 2325 2323 2322 2320 2314 2308 2303 2300 2293 2286 2282 2280 2273 2265 2258 2251 2245 2240 2225 2194 2179 2164 2152 2145 2143 2135 2129 2126 2125 2122 2119 2115 2110 2107 2105 2103 2098 2091 2081 2066 2052 2044 2024 0 0 0 0 0 0 0 0 0 1237 1225 1221 1220 1219 1216 1215 1215 1214 1214 1213 1213 1212 1212 1211 1210 1209 1208 1208 1208 1206 1206 1206 1205 1205 1204 1204 1204 1203 1202 1201 1201 1201 1200 1199 1199 1198 1198 1198 1198 1197 1196 1195 1195 1195 1195 1193 1192 1192 1192 1191 1191 1190 1189 1188 1187 1186 1185 1185 1184 1183 1182 1181 1180 1179 1178 1178 1177 1176 1176 1174 1174 1173 1172 1172 1172 1172 1172 1172 1171 1171 1171 1172 1172 1172 1172 1171 1171 1171 1171 1171 1170 1170 1170 1169 1169 1168 1168 1166 1166 1165 1164 1163 1163 1162 1161 1161 1160 1160 1159 1158 1157 1157 1156 1156 1155 1154 1154 1153 1153 1153 1153 1153 1153 1153 1154 1155 1155 1155 1157 1157 1157 1157 1157 1157 1157 1157 1156 1156 1155 1155 1155 1154 1154 1153 1153 1153 1153 1152 1151 1151 1151 1150 1150 1150 1150 1150 1150 1150 1150 1150 1150 1150 1154 1154 1155 1157 1157 0 0 0 0 0 0 0 1882 1916 1936 1938 1945 1947 1950 1958 1961 1964 1968 1969 1973 1975 1976 1978 1979 1979 1979 1981 1983 1984 1986 1987 1989 1990 1991 1992 1992 1993 1994 1994 1996 1996 1997 1997 1998 1998 2000 2000 2000 2000 1999 1998 1996 1996 1993 1991 1987 1985 1985 1985 1984 1984 1984 1982 1978 1974 1970 1967 1963 1959 1958 1957 1957 1957 1957 1957 1957 1955 1943 1932 1928 1920 1899 0 0 0 0 0 0 0 0 0 0 0 0 0 0 0 0 0 0 0 0 0 0 0 0 0 0 0 0 0 0
3135 3135 3135 3137 3137 3149 3153 3158 3158 3161 3161 3158 3157 3157 3157 3161 3175 3184 3189 3190 3192 3192 3197 3198 3199 3202 3203 3203 3203 3206 3210 3210 3211 3215 3218 3223 3226 3227 3228 3231 3234 3237 3239 3242 3246 3251 3258 3260 3265 3267 3270 3271 3272 3273 3281 3286 3286 3286 3289 3291 3293 3298 3303 3304 3308 3311 3312 3313 3319 3332 3344 3351 3352 3356 3360 3364 3368 3373 3378 3381 3385 3387 3392 3398 3405 3409 3414 3417 3419 3422 3425 3430 3435 3440 3447 3453 3457 3459 3461 3465 3471 3477 3481 3483 3488 3490 3498 3505 3512 3520 3528 3535 3536 3537 3537 3540 3544 3547 3550 3553 3557 3561 3563 3567 3572 3574 3576 3578 3582 3588 3592 3596 3599 3600 3602 3605 3607 3612 3617 3621 3624 3626 3631 3637 3641 3647 3651 3654 3656 3659 3665 3669 3672 3677 3682 3687 3689 3689 3691 3693 3693 3694 3695 3695 3699 3706 3712 3717 3725 3730 3734 3737 3737 3737 3741 3742 3746 3749 3753 3754 3757 3758 3761 3763 3765 3767 3769 3771 3771 3771 3771 3771 3771 3774 3776 3778 3781 3784 3786 3788 3790 3790 3790 3790 3790 3790 3793 3795 3796 3798 3799 3800 3802 3802 3802 3802 3802 3802 3802 3803 3803 3803 3802 3801 3801 3801 3802 3802 3803 3803 3804 3806 3807 3809 3811 3812 3812 3812 3812 3812 3811 3809 3808 3808 3808 3807 3807 3807 3805 3801 3797 3794 3790 3783 3777 3769 3760 3756 3737 3722 3720 3720 3720 3720 3720 3719 3719 3713 3706 3706 3706 3708 3712 3712 3712 3712 3712 3711 3705 3699 3693 3688 3682 3675 3670 3665 3663 3661 3660 3653 3653 3653 3652 3652 3620 3550 3474 3291 2894 2595 0 2409 2374 2353 2348 2347 2339 2329 2323 2323 2323 2319 2314 2308 2303 2299 2293 2286 2282 2280 2273 2265 2258 2251 2244 2238 2224 2194 2178 2162 2150 2145 2140 2134 2127 2124 2122 2119 2115 2114 2110 2104 2099 2097 2093 2080 2062 2055 2032 2025 0 0 0 0 0 0 0 0 0 0 1227 1224 1221 1220 1217 1216 1215 1215 1215 1214 1214 1213 1212 1212 1211 1210 1210 1209 1209 1208 1208 1207 1207 1207 1206 1206 1205 1205 1203 1203 1203 1203 1202 1201 1201 1201 1200 1199 1199 1199 1198 1198 1197 1196 1196 1196 1195 1194 1193 1193 1192 1191 1191 1191 1190 1188 1187 1186 1185 1185 1184 1183 1182 1181 1179 1178 1178 1178 1178 1176 1176 1174 1174 1173 1173 1173 1173 1173 1173 1173 1172 1172 1173 1173 1173 1173 1173 1173 1172 1171 1171 1171 1170 1170 1169 1169 1168 1168 1167 1166 1165 1165 1164 1163 1162 1162 1161 1161 1161 1160 1159 1159 1158 1157 1157 1156 1155 1155 1153 1153 1153 1153 1153 1153 1154 1154 1155 1155 1157 1158 1159 1159 1159 1158 1158 1158 1157 1156 1156 1156 1155 1155 1155 1154 1154 1154 1154 1154 1153 1153 1153 1151 1151 1150 1150 1150 1150 1150 1150 1150 1151 1152 1153 1154 1154 1154 1154 1156 1156 0 0 0 0 0 0 1882 1891 1924 1936 1937 1944 1946 1952 1959 1964 1966 1969 1970 1971 1973 1975 1976 1976 1977 1978 1981 1982 1983 1985 1986 1988 1989 1990 1990 1991 1991 1992 1993 1993 1995 1995 1996 1997 1997 1997 1997 1997 1997 1997 1996 1996 1993 1991 1987 1984 1983 1983 1983 1983 1983 1982 1978 1974 1969 1963 1959 1959 1958 1957 1957 1957 1957 1962 1962 1962 1952 1945 1944 1941 1922 0 0 0 0 0 0 0 0 0 0 0 0 0 0 0 0 0 0 0 0 0 0 0 0 0 0 0 0 0 0
