1838 1839 1840 1840 1840 1840 1840 1835 1835 1835 1834 1832 1831 1831 1831 1833 1836 1836 1836 1828 1818 1812 1809 1808 1807 1806 1806 1806 1805 1805 1805 1801 1798 1796 1789 1784 1783 1783 1780 1775 1768 1761 1757 1749 1742 1742 1737 1718 1706 1706 1706 1725 1741 1750 1750 1750 0 0 0 0 0 0 0 0 0 0 0 1810 1810 1797 1786 1782 0 0 0 0 0 0 0 0 0 0 0 0 0 0 0 0 0 0 0 1679 1682 1682 1682 1683 1683 1683 1668 1665 1662 1662 1654 1654 1654 1689 1694 1694 1696 1704 1718 1718 1718 1719 1720 1723 1740 1740 1740 1725 1715 1715 1715 1729 0 0 0 0 0 0 0 0 0 0 0 0 0 0 0 0 0 1647 1620 1612 1612 1611 1611 1611 1611 1611 1610 1610 1610 1611 1612 1612 1612 1613 1614 1614 1614 1615 1616 1616 1616 1616 1617 1618 1618 1619 1620 1621 1622 1622 1622 1623 1624 1624 1626 1627 1627 1627 1628 1631 1632 1635 1636 1637 1639 1640 1640 1641 1643 1643 1643 1643 1646 1647 1647 1649 1650 1652 1652 1654 1655 1656 1656 1657 1658 1659 1660 1660 1661 1661 1661 1662 1662 1664 1665 1666 1667 1667 1669 1669 1671 1672 1674 1676 1676 1684 1691 1698 1713 0 0 0 0 0 0 0 2492 2511 2533 2552 2564 2574 2586 2593 2600 2605 2613 2621 2631 2637 2642 2648 2652 2656 2662 2664 2667 2671 2679 2688 2697 2700 2702 2703 2704 2712 2718 2724 2732 2732 2732 2713 2665 2523 2493 2493 2493 0 0 0 0 0 0 0 0 0 2616 2691 2702 2774 2811 2825 2834 2846 2855 2862 2862 2862 2864 2867 2874 2881 2892 2902 2902 2902 2903 2903 2903 2904 2910 2913 2917 2920 2920 2927 2933 2939 2945 2949 2953 2961 2962 2966 2967 2969 2971 2972 2972 2982 2993 3003 3012 3026 3036 3047 3049 3053 3085 3087 3142 3189 3247 3285 3302 3334 3365 3370 3370 3370 3366 3366 3366 3370 3370 3370 3360 3360 3360 3360 3360 3354 3326 3295 3291 3276 3261 3234 3201 3148 3079 2928 2672 0 0 0 2287 2287 2280 2280 2280 2259 2227 2197 2179 2170 2161 2148 2139 2132 2128 2119 2110 2094 2085 2077 2072 2068 2063 2062 2057 2054 2048 2043 2037 2033 2029 2024 2020 2017 2014 2012 2010 2007 2004 2000 1998 1994 1991 1988 1984 1982 1979 1978 1975 1972 1970 1968 1965 1963 1960 1957 1955 1953 1952 1950 1948 1946 1944 1941 1938 1935 1931 1927 1923 1922 1921 1918 1915 1912 1909 1907 1904 1900 1896 1895 1892 1890 1889 1888 1886 1884 1878 1871 1865 1859 1854 1854 1853 1853 1852 1852 1852 1852 1852 1851 1851 1851 1852 1854 1854 1854 1854 1853 1852 1851 1850 1849 1847 1846 1846 1844 1843 1842 1840 1839 1838 1836 1835 1833 1832 1831 1830 1829 1828 1828 1827 1826 1824 1823 1821 1820 1819 1819 1818 1817 1815 1813 1811 1810 1808 1807 1805 1804 1802 1801 1799 1798 1797 1797 1797 1796 1796 1796 1796 1796 1798 1799 1799 1801 1803 1803 1803 1805 1806 1808 1810 1811 1812 1813 1814 1814 1815 1815 1815 1815 1815 1815 1814 1814 1814 1813 1813 1812 1812 1811 1811 1811 1812 1812 1812 1812 1812 1813 1813 1813 1814 1814 1814 1814 1815 1816 1816 1817 1817 1818 1820 1820 1821 1823 1824 1824 1826 1827 1828 1828 1829 1830 1830 1830 1826 1823 1820 1820 1819 1818 1815 1810 1804 1804 1804 1808 1809 1810 1810 1810 1813 1815 1815 1815 1821
1835 1839 1839 1839 1840 1840 1840 1835 1831 1828 1826 1826 1825 1825 1825 1827 1829 1829 1829 1824 1816 1811 1809 1807 1807 1806 1806 1805 1805 1804 1803 1801 1798 1796 1789 1784 1782 1782 1779 1775 1769 1767 1762 1757 1752 1745 1744 1742 1706 1702 1702 1706 1713 1747 1747 1747 1713 0 0 0 0 0 0 0 0 0 0 1806 1806 1792 1784 1779 0 0 0 0 0 0 0 0 0 0 0 0 0 0 0 0 0 0 0 1666 1666 1682 1685 1685 1683 1683 1674 1672 1672 1672 1673 1674 1696 1701 1701 1704 1704 1704 1718 1718 1718 1719 1720 1731 1741 1741 1741 1724 1716 1716 1716 1756 0 0 0 0 0 0 0 0 0 0 0 0 0 0 0 0 0 1655 1623 1616 1611 1611 1611 1611 1612 1612 1612 1612 1611 1611 1611 1612 1612 1612 1613 1614 1614 1615 1615 1616 1616 1616 1617 1618 1619 1619 1620 1621 1622 1622 1622 1623 1623 1624 1625 1625 1625 1626 1628 1631 1632 1635 1636 1637 1638 1639 1639 1641 1642 1643 1643 1643 1646 1646 1647 1648 1649 1650 1652 1653 1655 1655 1656 1657 1658 1659 1659 1660 1660 1660 1661 1662 1662 1663 1665 1666 1667 1667 1669 1669 1673 1674 1675 1677 1689 1696 1699 0 0 0 0 0 0 0 0 2501 2512 2526 2538 2552 2564 2574 2577 2582 2588 2595 2605 2618 2624 2626 2628 2633 2638 2646 2651 2656 2657 2658 2661 2671 2683 2690 2691 2693 2703 2708 2712 2714 2714 2714 2707 2675 2561 2522 2493 2493 2493 2478 0 0 0 0 0 0 0 0 0 2585 2664 2738 2791 2794 2828 2841 2853 2857 2858 2858 2859 2859 2859 2864 2876 2887 2894 2894 2894 2894 2894 2896 2901 2905 2907 2907 2908 2909 2918 2929 2934 2937 2943 2947 2953 2953 2953 2950 2938 2938 2938 2950 2966 2987 3001 3003 3003 3004 3004 3008 3010 3033 3061 3094 3133 3177 3206 3312 3359 3359 3359 3339 3339 3339 3345 3349 3349 3349 3359 3359 3359 3359 3359 3354 3326 3302 3291 3266 3250 3233 3198 3148 3055 2847 2542 0 0 2278 2278 2278 2278 2278 2276 2242 2212 2192 2180 2171 2161 2154 2140 2132 2124 2118 2109 2094 2085 2075 2070 2066 2061 2060 2056 2053 2048 2043 2037 2031 2027 2024 2020 2016 2014 2012 2009 2007 2003 1998 1996 1993 1990 1987 1984 1982 1978 1977 1975 1972 1970 1968 1965 1963 1960 1957 1955 1954 1952 1950 1949 1946 1944 1941 1938 1935 1931 1928 1926 1923 1921 1918 1915 1912 1910 1908 1905 1902 1899 1896 1894 1890 1889 1888 1887 1885 1881 1877 1873 1866 1861 1857 1854 1854 1853 1853 1852 1851 1850 1850 1849 1849 1849 1850 1851 1851 1851 1851 1850 1850 1849 1847 1847 1845 1845 1844 1842 1840 1839 1839 1837 1836 1834 1833 1831 1830 1829 1828 1828 1827 1826 1825 1823 1821 1820 1819 1818 1818 1817 1815 1815 1813 1811 1810 1808 1807 1805 1804 1802 1801 1799 1798 1797 1796 1796 1796 1795 1795 1795 1796 1796 1797 1797 1798 1800 1801 1802 1803 1804 1805 1807 1808 1810 1811 1811 1812 1814 1814 1815 1815 1814 1814 1813 1813 1813 1813 1811 1811 1811 1811 1811 1811 1811 1811 1812 1812 1812 1813 1813 1813 1813 1814 1814 1814 1815 1816 1816 1817 1817 1818 1820 1820 1821 1823 1825 1827 1827 1827 1828 1829 1831 1831 1831 1830 1829 1826 1823 1821 1820 1819 1816 1812 1806 1806 1806 1808 1808 1810 1810 1810 1810 1811 1814 1815 1815
1832 1832 1833 1838 1840 1840 1840 1831 1827 1825 1824 1824 1824 1824 1822 1820 1819 1819 1818 1816 1811 1809 1806 1806 1806 1806 1805 1805 1805 1803 1801 1801 1798 1796 1788 1784 1782 1781 1781 1775 1770 1768 1765 1763 1758 1756 1752 1746 1726 1706 1702 1695 1692 1692 1692 1692 1692 0 0 0 0 0 0 0 0 0 0 0 1795 1791 1783 0 0 0 0 0 0 0 0 0 0 0 0 0 0 0 0 0 0 0 0 1666 1666 1674 1679 1685 1685 1685 1682 1682 1682 1686 1698 1700 1705 1705 1705 1704 1704 1704 1710 1710 1712 1712 1712 1731 1742 1742 1742 1725 1716 1716 1716 1758 0 0 0 0 0 0 0 0 0 0 0 0 0 0 0 0 0 0 1632 1622 1611 1611 1611 1611 1612 1612 1612 1611 1611 1611 1611 1611 1612 1612 1613 1613 1614 1614 1615 1616 1616 1616 1617 1618 1618 1619 1621 1621 1622 1622 1623 1623 1623 1624 1624 1624 1625 1626 1628 1629 1631 1633 1635 1636 1637 1638 1638 1640 1640 1642 1642 1643 1645 1646 1647 1648 1649 1650 1651 1652 1654 1655 1656 1657 1658 1658 1659 1659 1660 1660 1661 1662 1662 1663 1665 1666 1667 1667 1669 1670 1673 1674 1675 1678 1691 0 0 0 0 0 0 0 0 2501 2510 2515 2518 2526 2538 2552 2564 2570 2572 2573 2578 2586 2597 2612 2619 2621 2622 2622 2622 2629 2642 2642 2642 2646 2646 2649 2665 2677 2684 2688 2698 2699 2700 2701 2701 2701 2701 2638 2539 2528 2522 2522 2517 2512 0 0 0 0 0 0 0 0 0 0 2553 2649 2735 2746 2772 2811 2849 2850 2852 2852 2850 2850 2850 2850 2860 2872 2880 2882 2882 2883 2883 2886 2889 2893 2895 2896 2898 2905 2915 2925 2928 2928 2928 2933 2939 2939 2939 2933 2924 2924 2924 2933 2950 2968 2979 2980 2985 2985 2985 2997 2997 3019 3031 3031 3048 3060 3072 3164 3320 3334 3334 3334 3315 3315 3315 3334 3344 3344 3359 3359 3359 3359 3359 3354 3326 3302 3270 3262 3250 3226 3192 3143 3046 2786 2516 0 2289 2280 2280 2280 2280 2280 2269 2232 2202 2191 2180 2171 2161 2155 2143 2132 2124 2115 2109 2097 2085 2075 2067 2062 2060 2059 2055 2052 2048 2042 2035 2030 2025 2021 2019 2016 2014 2011 2007 2004 2001 1997 1994 1991 1989 1986 1984 1980 1978 1976 1974 1972 1969 1967 1964 1961 1959 1957 1955 1954 1952 1950 1949 1946 1944 1941 1938 1935 1931 1929 1926 1923 1921 1919 1916 1914 1911 1908 1905 1903 1900 1897 1894 1891 1889 1888 1888 1885 1882 1877 1875 1873 1871 1865 1863 1858 1856 1854 1852 1851 1850 1848 1847 1846 1846 1846 1846 1846 1846 1846 1846 1846 1846 1845 1843 1843 1842 1842 1841 1839 1839 1837 1836 1835 1833 1832 1830 1828 1828 1827 1827 1827 1825 1824 1823 1821 1820 1819 1818 1817 1816 1815 1814 1812 1811 1810 1808 1807 1805 1804 1802 1801 1799 1798 1797 1796 1796 1795 1795 1795 1795 1795 1795 1795 1795 1795 1798 1798 1800 1800 1801 1802 1803 1805 1807 1809 1810 1811 1812 1813 1813 1813 1813 1813 1812 1811 1811 1811 1811 1810 1810 1810 1810 1810 1811 1811 1812 1812 1812 1812 1813 1813 1813 1813 1814 1814 1815 1815 1815 1816 1817 1818 1820 1820 1821 1823 1825 1827 1827 1827 1828 1829 1831 1831 1831 1830 1829 1829 1826 1823 1820 1819 1817 1813 1807 1807 1807 1808 1809 1810 1810 1810 1810 1811 1814 1815 1816
1823 1823 1824 1834 1835 1835 1835 1825 1821 1821 1821 1821 1821 1820 1816 1813 1810 1807 1806 1805 1805 1805 1805 1805 1805 1805 1804 1803 1802 1800 1800 1800 1797 1794 1788 1784 1782 1781 1780 1775 1770 1769 1767 1764 1763 1759 1758 1748 1748 1727 1705 1695 1685 1669 1669 1660 1660 0 0 0 0 0 0 0 0 0 0 0 0 0 0 0 0 0 0 0 0 0 0 0 0 0 0 0 0 0 0 0 0 0 0 1643 1666 1668 1670 1673 1690 1690 1690 1689 1689 1689 1698 1700 1705 1705 1705 1705 1705 1708 1708 1708 1708 1708 1708 1731 1740 1740 1740 1729 1719 1719 1719 1765 0 0 0 0 0 0 0 0 0 0 0 0 0 0 0 0 0 0 1636 1623 1610 1610 1610 1610 1611 1611 1611 1611 1611 1611 1611 1611 1611 1612 1613 1613 1614 1614 1615 1616 1616 1616 1617 1618 1618 1619 1621 1621 1622 1622 1622 1622 1622 1622 1623 1624 1625 1626 1627 1629 1631 1632 1633 1635 1637 1638 1638 1639 1640 1641 1642 1643 1644 1646 1647 1648 1649 1650 1650 1652 1654 1654 1656 1657 1657 1658 1658 1659 1660 1660 1660 1662 1662 1662 1663 1666 1667 1669 1670 1670 1678 1681 1686 0 0 0 0 0 0 0 0 2481 2499 2513 2516 2518 2521 2526 2538 2550 2556 2559 2561 2565 2571 2580 2592 2605 2613 2613 2613 2614 2614 2615 2630 2631 2631 2637 2637 2637 2655 2664 2674 2683 2688 2692 2693 2695 2696 2696 2693 2638 2542 2539 2539 2542 2542 2528 0 0 0 0 0 0 0 0 0 0 0 0 2590 2626 2687 2770 2822 2832 2836 2836 2836 2836 2838 2839 2841 2859 2868 2868 2869 2872 2876 2886 2886 2886 2887 2887 2889 2901 2911 2912 2912 2913 2916 2916 2923 2927 2927 2927 2924 2924 2924 2925 2936 2952 2962 2962 2962 2962 2962 2988 2990 3010 3018 3021 3022 3025 3030 3031 3165 3277 3277 3280 3294 3305 3305 3331 3331 3331 3346 3346 3331 3328 3328 3321 3315 3295 3264 3261 3245 3206 3181 3135 3013 2751 0 0 2288 2281 2281 2281 2281 2281 2246 2217 2202 2190 2180 2172 2165 2156 2145 2132 2124 2111 2105 2098 2087 2075 2067 2062 2059 2057 2055 2052 2048 2042 2035 2029 2024 2019 2016 2015 2012 2008 2005 2001 1999 1995 1992 1990 1987 1985 1982 1980 1977 1975 1973 1970 1968 1965 1963 1961 1958 1957 1955 1954 1952 1950 1949 1946 1944 1941 1938 1935 1932 1930 1927 1925 1922 1919 1917 1915 1911 1909 1906 1903 1900 1898 1895 1894 1892 1891 1889 1887 1884 1881 1879 1875 1873 1871 1868 1864 1859 1855 1852 1851 1850 1848 1847 1844 1844 1843 1843 1843 1844 1844 1844 1844 1844 1842 1842 1840 1840 1839 1839 1837 1836 1834 1832 1831 1830 1829 1828 1827 1827 1827 1826 1825 1824 1824 1822 1820 1819 1818 1817 1815 1814 1814 1813 1812 1811 1810 1808 1806 1805 1804 1802 1801 1799 1797 1797 1796 1795 1795 1795 1795 1794 1794 1793 1793 1793 1793 1794 1795 1797 1798 1799 1799 1801 1804 1806 1807 1809 1809 1810 1811 1811 1811 1811 1810 1810 1810 1810 1810 1810 1810 1810 1810 1810 1810 1810 1810 1811 1811 1812 1812 1813 1813 1813 1813 1813 1814 1814 1814 1815 1815 1817 1818 1820 1820 1821 1823 1825 1827 1827 1827 1828 1829 1831 1831 1831 1830 1829 1829 1828 1824 1820 1819 1818 1814 1813 1811 1810 1809 1809 1810 1811 1811 1814 1814 1814 1816 1816
1816 1818 1818 1818 1822 1822 1822 1821 1818 1815 1815 1814 1814 1811 1807 1804 1800 1799 1799 1799 1800 1802 1802 1802 1801 1800 1799 1798 1798 1798 1798 1796 1796 1792 1786 1782 1781 1781 1779 1775 1770 1769 1767 1766 1766 1766 1766 1766 1766 1746 1720 1714 1685 1666 1666 1660 1660 1660 0 0 0 0 0 0 0 0 0 0 0 0 0 0 0 0 0 0 0 0 0 0 0 0 0 0 0 0 0 0 0 0 0 1643 1673 1673 1674 1674 1682 1696 1696 1696 1698 1698 1698 1700 1705 1705 1705 1705 1705 1708 1708 1708 1708 1708 1708 1728 1738 1738 1738 1729 1719 1719 1719 1765 0 0 0 0 0 0 0 0 0 0 0 0 0 0 0 0 0 0 1636 1623 1609 1609 1609 1610 1610 1611 1611 1611 1611 1611 1611 1611 1611 1612 1612 1613 1614 1614 1615 1616 1616 1616 1617 1617 1618 1619 1620 1621 1622 1622 1622 1622 1622 1622 1623 1624 1625 1626 1627 1629 1629 1630 1631 1634 1636 1636 1637 1639 1639 1641 1641 1643 1644 1646 1647 1648 1649 1649 1650 1652 1653 1654 1655 1656 1657 1658 1658 1659 1660 1660 1661 1661 1662 1662 1663 1667 1667 1670 1670 1675 1681 1700 0 0 0 0 0 0 0 0 2471 2481 2499 2516 2517 2518 2522 2526 2533 2546 2551 2552 2554 2561 2569 2578 2590 2596 2604 2604 2604 2602 2602 2602 2621 2623 2624 2627 2627 2633 2644 2654 2663 2671 2678 2684 2687 2687 2687 2685 2682 2636 2543 2541 2541 2543 2543 2529 0 0 0 0 0 0 0 0 0 0 0 0 0 2531 2545 2626 2730 2770 2772 2800 2814 2814 2816 2816 2829 2849 2859 2861 2862 2864 2871 2878 2878 2878 2874 2874 2874 2882 2896 2896 2896 2892 2892 2892 2900 2910 2918 2918 2918 2914 2914 2914 2925 2936 2947 2947 2947 2947 2947 2971 2973 2978 2980 2981 2981 2995 3003 3011 3035 3106 3122 3176 3203 3251 3285 3318 3318 3318 3290 3290 3290 3297 3299 3299 3299 3284 3262 3232 3204 3181 3158 3120 2970 2661 0 0 2289 2286 2283 2283 2283 2272 2230 2211 2198 2190 2180 2171 2166 2159 2154 2138 2124 2111 2105 2098 2089 2080 2067 2062 2058 2055 2054 2052 2047 2041 2035 2029 2023 2017 2015 2012 2010 2007 2003 1999 1996 1994 1992 1988 1987 1983 1981 1979 1976 1974 1971 1969 1967 1965 1963 1960 1958 1956 1954 1953 1951 1949 1948 1944 1942 1940 1938 1935 1933 1930 1928 1925 1923 1920 1917 1915 1912 1910 1907 1904 1902 1900 1898 1896 1894 1891 1889 1887 1884 1882 1879 1875 1873 1872 1869 1867 1862 1859 1857 1853 1850 1848 1847 1844 1843 1842 1842 1842 1841 1841 1841 1841 1840 1839 1838 1838 1838 1838 1837 1836 1834 1832 1829 1828 1826 1825 1825 1825 1824 1823 1822 1821 1821 1821 1820 1819 1817 1816 1815 1814 1813 1813 1813 1811 1810 1809 1807 1805 1805 1803 1802 1801 1799 1797 1797 1796 1795 1795 1794 1794 1793 1793 1790 1790 1790 1791 1791 1792 1794 1795 1797 1798 1799 1801 1804 1805 1807 1807 1808 1808 1809 1809 1809 1808 1808 1808 1808 1808 1808 1809 1809 1809 1810 1810 1810 1810 1811 1811 1811 1812 1812 1812 1812 1813 1813 1813 1813 1813 1814 1815 1816 1818 1820 1820 1821 1823 1825 1826 1827 1827 1827 1829 1831 1831 1831 1830 1829 1829 1828 1824 1821 1819 1819 1819 1819 1818 1818 1813 1813 1813 1815 1816 1816 1818 1819 1819 1820
1812 1813 1815 1815 1815 1815 1816 1815 1815 1810 1806 1804 1802 1800 1799 1798 1797 1797 1797 1797 1797 1797 1797 1795 1794 1793 1792 1792 1792 1793 1793 1793 1793 1788 1783 1781 1781 1781 1779 1775 1770 1768 1767 1767 1767 1769 1769 1769 1769 1763 1756 1730 1686 1666 1666 1660 1660 1660 1653 1622 0 0 0 0 0 0 0 0 0 0 0 0 0 0 0 0 0 0 0 0 0 0 0 0 0 0 0 0 0 0 0 0 1683 1683 1679 1679 1679 1696 1708 1708 1708 1695 1695 1695 1705 1705 1705 1705 1705 1708 1708 1708 1710 1710 1710 1728 1738 1738 1738 1737 1720 1720 1720 1765 0 0 0 0 0 0 0 0 0 0 0 0 0 0 0 0 0 0 1645 1623 1609 1609 1609 1609 1610 1611 1612 1612 1612 1611 1611 1611 1611 1611 1612 1613 1613 1614 1614 1615 1616 1616 1617 1617 1618 1619 1620 1621 1621 1621 1622 1622 1622 1622 1623 1624 1625 1626 1627 1628 1629 1629 1630 1632 1634 1635 1636 1637 1638 1639 1641 1642 1644 1645 1647 1648 1648 1649 1650 1651 1653 1654 1655 1656 1657 1658 1658 1660 1660 1661 1661 1661 1662 1662 1663 1667 1671 1672 1673 1675 1681 0 0 0 0 0 0 0 0 2468 2471 2481 2499 2518 2521 2522 2523 2525 2532 2545 2551 2551 2552 2560 2568 2578 2583 2587 2589 2593 2593 2595 2596 2596 2600 2614 2617 2617 2620 2628 2634 2640 2647 2657 2662 2671 2676 2676 2676 2673 2659 2636 2616 2556 2556 2556 2543 2529 0 0 0 0 0 0 0 0 0 0 0 0 0 0 0 2541 2599 2726 2769 2775 2783 2799 2806 2810 2824 2843 2853 2853 2854 2855 2856 2862 2862 2862 2857 2857 2857 2871 2880 2880 2880 2875 2875 2875 2880 2893 2905 2905 2905 2904 2904 2904 2916 2920 2930 2938 2940 2941 2943 2947 2956 2956 2960 2961 2961 2961 2961 2961 2961 2984 3029 3073 3130 3239 3243 3243 3243 3232 3232 3232 3246 3261 3276 3276 3276 3261 3232 3229 3204 3128 3104 3052 2906 2634 0 0 2290 2287 2283 2283 2283 2244 2217 2210 2196 2189 2178 2171 2166 2159 2154 2143 2127 2111 2105 2098 2090 2080 2067 2062 2058 2055 2052 2049 2046 2040 2034 2028 2022 2015 2012 2010 2009 2005 2002 1999 1995 1992 1990 1988 1985 1982 1980 1978 1976 1973 1970 1968 1966 1963 1961 1959 1957 1956 1954 1952 1950 1948 1946 1943 1941 1940 1938 1935 1933 1930 1928 1926 1923 1920 1918 1915 1913 1910 1907 1906 1903 1902 1899 1896 1895 1892 1889 1887 1884 1882 1880 1876 1874 1874 1872 1868 1863 1862 1860 1857 1853 1852 1848 1844 1843 1842 1842 1841 1841 1840 1839 1839 1837 1836 1835 1835 1834 1834 1834 1832 1832 1829 1828 1826 1824 1824 1824 1823 1821 1820 1820 1819 1819 1818 1817 1817 1816 1815 1814 1813 1813 1812 1811 1810 1809 1807 1806 1805 1803 1802 1801 1800 1798 1797 1797 1796 1795 1794 1794 1793 1793 1791 1790 1790 1790 1790 1790 1790 1791 1793 1795 1797 1798 1801 1802 1804 1804 1805 1806 1807 1807 1807 1807 1807 1807 1807 1807 1807 1807 1807 1808 1808 1809 1809 1810 1810 1811 1811 1811 1811 1811 1811 1811 1812 1812 1812 1812 1813 1814 1814 1816 1818 1820 1820 1821 1823 1824 1826 1826 1826 1827 1828 1829 1830 1830 1830 1829 1829 1828 1825 1821 1821 1821 1821 1823 1824 1824 1824 1820 1820 1819 1819 1820 1822 1822 1822 1820
1812 1812 1812 1811 1808 1808 1808 1809 1809 1809 1799 1795 1795 1795 1795 1796 1796 1796 1796 1796 1795 1795 1793 1791 1787 1785 1785 1785 1785 1785 1786 1786 1786 1784 1781 1780 1779 1779 1779 1775 1770 1768 1768 1768 1768 1769 1770 1770 1770 1768 1763 1754 1722 1702 1671 1669 1669 1668 1653 1628 0 0 0 0 0 0 0 0 0 0 0 0 0 0 0 0 0 0 0 0 0 0 0 0 0 0 0 0 0 0 0 1680 1682 1682 1680 1680 0 1718 1718 1718 1712 1695 1695 1695 1705 1705 1706 1707 1712 1720 1720 1720 1712 1712 1712 1728 1736 1737 1737 1737 1734 1734 1734 1781 0 0 0 0 0 0 0 0 0 0 0 0 0 0 0 0 0 0 0 1623 1609 1609 1608 1608 1609 1609 1611 1611 1611 1611 1611 1611 1611 1611 1612 1612 1613 1614 1614 1615 1615 1616 1617 1617 1618 1619 1619 1620 1621 1621 1622 1622 1622 1622 1623 1624 1625 1626 1627 1628 1628 1629 1630 1632 1633 1634 1636 1637 1638 1639 1641 1642 1643 1644 1646 1647 1648 1648 1649 1650 1652 1654 1655 1656 1656 1657 1658 1661 1661 1661 1662 1662 1662 1663 1666 1672 1673 1675 1676 1682 0 0 0 0 0 0 0 0 2458 2468 2471 2476 2494 2518 2519 2522 2523 2524 2530 2542 2549 2550 2552 2559 2566 2572 2574 2576 2578 2581 2584 2585 2588 2589 2594 2601 2605 2609 2616 2619 2624 2624 2632 2642 2649 2657 2661 2665 2665 2665 2659 2636 2616 2593 2543 2529 2517 0 0 0 0 0 0 0 0 0 0 0 0 0 0 0 0 0 0 2567 2718 2753 2766 2771 2794 2804 2816 2828 2837 2837 2837 2837 2837 2840 2841 2841 2841 2841 2846 2861 2867 2867 2867 2861 2861 2861 2874 2885 2894 2894 2894 2897 2897 2897 2905 2909 2923 2936 2937 2938 2943 2944 2949 2950 2951 2951 2951 2944 2944 2944 2944 2956 2986 3026 3059 3059 3059 3079 3079 3079 3171 3197 3211 3234 3236 3236 3236 3216 3175 3151 3151 3123 3050 3014 2906 2634 0 0 2293 2292 2282 2282 2282 2236 2208 2200 2193 2184 2176 2170 2166 2159 2154 2143 2127 2113 2104 2098 2090 2080 2071 2064 2058 2055 2052 2047 2042 2038 2033 2028 2021 2015 2012 2010 2007 2005 2002 1999 1995 1992 1989 1987 1983 1980 1978 1976 1974 1972 1970 1967 1964 1962 1960 1959 1957 1955 1954 1952 1950 1948 1946 1943 1941 1940 1938 1936 1933 1930 1928 1926 1923 1920 1918 1915 1913 1910 1908 1906 1904 1902 1899 1897 1895 1892 1890 1888 1884 1882 1880 1877 1876 1875 1873 1871 1866 1864 1861 1859 1858 1856 1850 1846 1846 1843 1842 1841 1841 1839 1838 1838 1836 1834 1831 1830 1830 1829 1829 1828 1828 1827 1825 1824 1823 1823 1822 1821 1820 1818 1817 1817 1817 1816 1815 1814 1814 1814 1812 1812 1812 1811 1810 1809 1808 1806 1805 1804 1803 1802 1799 1799 1797 1796 1796 1795 1794 1794 1793 1792 1791 1790 1790 1789 1789 1788 1788 1789 1790 1791 1794 1795 1796 1799 1801 1802 1803 1804 1805 1806 1806 1806 1806 1806 1806 1806 1806 1806 1806 1807 1807 1808 1808 1809 1809 1809 1809 1810 1810 1810 1810 1810 1811 1811 1811 1811 1812 1813 1813 1814 1816 1818 1820 1821 1822 1823 1824 1824 1825 1825 1826 1828 1828 1830 1830 1830 1829 1828 1828 1826 1823 1823 1823 1825 1828 1828 1828 1826 1826 1826 1825 1825 1825 1825 1825 1822 1820
1807 1807 1807 1805 1805 1803 1803 1803 1801 1801 1799 1794 1794 1794 1794 1794 1794 1794 1794 1794 1794 1792 1790 1786 1782 1780 1778 1778 1778 1780 1780 1780 1780 1779 1776 1776 1776 1775 1775 1774 1770 1768 1768 1768 1768 1769 1770 1770 1770 1768 1765 1757 1753 1742 1711 1692 1690 1687 1658 1640 0 0 0 0 0 0 0 0 0 0 0 0 0 0 0 0 0 0 0 0 0 0 0 0 0 0 0 0 0 0 0 0 1680 1692 1692 0 0 0 1720 1720 1715 1695 1695 1695 1706 1707 1713 1713 1717 1720 1720 1720 1720 1720 1727 1730 1736 1738 1738 1743 1743 1743 1777 1818 0 0 0 0 0 0 0 0 0 0 0 0 0 0 0 0 0 0 0 0 1619 1612 1609 1609 1609 1610 1611 1611 1611 1611 1611 1611 1611 1611 1612 1612 1613 1613 1614 1615 1615 1616 1617 1617 1618 1619 1619 1620 1621 1621 1622 1622 1622 1622 1623 1624 1625 1626 1627 1628 1628 1629 1630 1631 1632 1633 1635 1636 1638 1639 1641 1641 1642 1644 1645 1647 1648 1648 1649 1650 1652 1654 1655 1656 1656 1657 1659 1661 1661 1661 1662 1662 1662 1663 1666 1672 1676 1684 1691 0 0 0 0 0 0 0 0 0 2458 2467 2468 2471 2489 2518 2519 2520 2522 2522 2528 2533 2537 2540 2540 2547 2556 2564 2565 2565 2566 2573 2578 2579 2582 2586 2592 2597 2600 2605 2609 2613 2615 2616 2620 2628 2633 2640 2648 2652 2652 2652 2651 2636 2616 2597 2531 0 0 0 0 0 0 0 0 0 0 0 0 0 0 0 0 0 0 0 0 0 0 2636 2726 2765 2782 2787 2802 2807 2818 2818 2818 2818 2818 2818 2820 2821 2822 2828 2836 2843 2849 2852 2853 2853 2855 2859 2872 2878 2882 2882 2882 2884 2884 2889 2900 2907 2913 2930 2931 2932 2934 2935 2940 2945 2949 2949 2949 2933 2933 2933 2936 2954 2977 2990 3009 3009 3009 2996 2996 2996 3041 3098 3161 3213 3213 3213 3184 3139 3139 3127 3124 3116 3049 3001 2901 2634 0 0 2294 2292 2279 2279 2279 2220 2208 2199 2192 2179 2173 2168 2164 2159 2152 2143 2127 2113 2104 2098 2089 2080 2072 2066 2061 2056 2052 2046 2040 2034 2030 2025 2020 2015 2012 2010 2007 2005 2001 1998 1995 1992 1988 1985 1982 1978 1977 1974 1973 1970 1968 1965 1963 1961 1959 1958 1956 1955 1954 1952 1950 1948 1945 1943 1941 1939 1938 1936 1933 1930 1928 1926 1923 1920 1918 1915 1913 1910 1908 1906 1904 1902 1900 1897 1895 1892 1890 1888 1885 1883 1881 1879 1876 1875 1873 1871 1868 1867 1864 1861 1859 1857 1855 1853 1852 1850 1844 1841 1841 1839 1838 1838 1836 1834 1831 1830 1829 1828 1826 1824 1824 1824 1824 1822 1821 1821 1820 1819 1818 1816 1815 1815 1815 1814 1813 1812 1812 1811 1811 1811 1809 1809 1808 1807 1806 1806 1804 1803 1802 1801 1799 1799 1797 1796 1795 1794 1793 1792 1792 1791 1790 1790 1790 1788 1788 1788 1788 1788 1788 1789 1791 1793 1794 1797 1799 1800 1801 1802 1803 1804 1805 1805 1805 1805 1805 1805 1805 1805 1805 1806 1806 1806 1807 1808 1809 1809 1809 1810 1810 1810 1810 1810 1810 1810 1811 1811 1811 1813 1813 1814 1816 1817 1819 1821 1822 1823 1824 1824 1824 1824 1825 1825 1827 1827 1828 1828 1828 1827 1827 1827 1827 1827 1827 1829 1830 1830 1830 1826 1826 1826 1826 1826 1827 1827 1826 1823 1819
1799 1796 1794 1794 1794 1794 1794 1795 1795 1794 1793 1793 1793 1793 1794 1794 1793 1792 1791 1790 1790 1789 1786 1784 1780 1777 1775 1774 1774 1774 1774 1775 1775 1775 1772 1772 1772 1772 1772 1770 1769 1767 1767 1767 1768 1768 1768 1768 1768 1768 1765 1758 1754 1750 1742 1737 1726 1710 1672 1640 1632 0 0 0 0 0 0 0 0 0 0 0 0 0 0 0 0 0 0 0 0 0 0 0 0 0 0 0 0 0 0 0 0 0 0 0 0 0 0 1718 1715 1715 1715 1730 1736 1736 1736 1728 1727 1722 1720 1720 1720 1720 1730 1732 1734 1736 1742 1742 1744 0 0 0 0 0 0 0 0 0 0 0 0 0 0 0 0 0 0 0 0 0 0 0 0 1627 1617 1610 1610 1610 1610 1611 1611 1611 1611 1612 1612 1612 1612 1612 1613 1613 1614 1615 1616 1616 1617 1617 1618 1619 1619 1620 1621 1621 1622 1622 1622 1622 1623 1624 1624 1626 1626 1628 1628 1628 1629 1631 1632 1633 1634 1636 1637 1638 1640 1641 1642 1644 1645 1647 1647 1648 1649 1650 1652 1654 1656 1656 1656 1658 1659 1661 1661 1661 1662 1662 1662 1663 1666 1675 1682 1686 0 0 0 0 0 0 0 0 0 0 2454 2456 2460 2466 2477 2488 2508 2508 2511 2511 2517 2522 2523 2523 2523 2529 2539 2547 2553 2553 2555 2561 2570 2572 2575 2580 2584 2587 2591 2595 2600 2602 2607 2607 2611 2615 2619 2625 2631 2638 2638 2638 2638 2633 2613 2597 0 0 0 0 0 0 0 0 0 0 0 0 0 0 0 0 0 0 0 0 0 0 0 0 2555 2639 2707 2745 2775 2800 2800 2800 2800 2800 2802 2804 2806 2808 2811 2815 2815 2818 2822 2825 2832 2840 2847 2858 2867 2869 2869 2869 2869 2869 2871 2882 2892 2899 2899 2905 2905 2905 2911 2912 2920 2934 2940 2940 2940 2928 2928 2928 2935 2953 2974 2980 2980 2980 2970 2970 2970 2982 3011 3025 3032 3090 3141 3141 3141 3122 3122 3109 3109 3109 3039 2993 2900 2634 0 0 2305 2292 2290 2290 2266 2219 2206 2199 2190 2177 2170 2165 2161 2153 2145 2134 2121 2113 2104 2094 2088 2080 2072 2066 2061 2056 2052 2045 2039 2032 2027 2023 2019 2014 2012 2009 2007 2004 2001 1998 1995 1991 1987 1984 1981 1978 1975 1973 1971 1969 1967 1964 1962 1960 1958 1955 1954 1953 1952 1951 1949 1948 1945 1943 1941 1939 1938 1936 1933 1930 1927 1926 1923 1920 1918 1915 1913 1910 1908 1906 1904 1902 1900 1897 1895 1892 1890 1888 1885 1883 1881 1880 1878 1875 1874 1871 1869 1868 1866 1864 1861 1860 1860 1859 1856 1854 1849 1844 1842 1839 1838 1838 1836 1834 1831 1830 1829 1828 1826 1824 1824 1824 1823 1822 1820 1820 1819 1818 1816 1815 1814 1813 1813 1812 1811 1811 1811 1810 1809 1809 1809 1808 1807 1806 1805 1804 1804 1801 1801 1800 1798 1798 1796 1795 1794 1793 1793 1791 1791 1791 1790 1789 1789 1788 1788 1787 1787 1787 1787 1787 1789 1791 1793 1795 1797 1799 1799 1801 1801 1803 1803 1803 1804 1804 1804 1804 1804 1805 1805 1805 1805 1806 1806 1807 1808 1808 1808 1809 1810 1810 1810 1810 1809 1809 1810 1810 1811 1812 1813 1814 1816 1817 1819 1821 1822 1823 1823 1824 1824 1824 1824 1825 1825 1827 1827 1827 1827 1827 1827 1827 1827 1827 1828 1829 1830 1830 1830 1826 1826 1826 1826 1827 1828 1828 1827 1823 1818
1787 1784 1783 1783 1783 1784 1785 1788 1789 1790 1790 1791 1791 1791 1791 1790 1788 1787 1786 1786 1785 1785 1782 1780 1777 1774 1772 1770 1770 1770 1770 1770 1769 1769 1769 1770 1770 1770 1770 1769 1767 1766 1766 1766 1766 1766 1766 1766 1766 1766 1765 1758 1754 1750 1745 1740 1735 1711 1684 1650 1641 1623 1623 0 0 0 0 0 0 0 0 0 0 0 0 0 0 0 0 0 0 0 0 0 0 0 0 0 0 0 0 0 0 0 0 0 0 0 0 1712 1716 1716 1738 1738 1738 1738 1736 1728 1719 1719 1715 1715 1715 1717 1731 1734 1736 1737 1742 1744 1770 0 0 0 0 0 0 0 0 2393 2408 2408 0 0 0 0 0 0 0 0 0 0 0 0 0 0 1625 1614 1610 1610 1610 1611 1611 1612 1612 1613 1613 1613 1613 1613 1613 1613 1614 1615 1616 1617 1617 1618 1618 1619 1619 1620 1621 1621 1622 1622 1622 1622 1623 1623 1624 1625 1626 1626 1627 1628 1629 1631 1632 1633 1634 1636 1637 1638 1640 1641 1642 1643 1645 1646 1647 1648 1649 1650 1652 1655 1656 1657 1657 1658 1660 1661 1662 1662 1663 1663 1663 1666 1679 1696 1710 0 0 0 0 0 0 0 0 0 0 0 0 2434 2455 2463 2473 2474 2479 2482 2486 2497 2505 2509 2509 2510 2510 2517 2527 2535 2540 2541 2544 2549 2559 2564 2566 2569 2570 2572 2576 2579 2584 2591 2595 2598 2602 2606 2607 2612 2618 2622 2627 2627 2627 2620 2601 2593 0 0 0 0 0 0 0 0 0 0 0 0 0 0 0 0 0 0 0 0 0 0 0 0 0 2503 2569 2677 2726 2754 2762 2782 2782 2786 2786 2792 2797 2797 2801 2802 2802 2803 2803 2805 2811 2825 2835 2835 2835 2835 2835 2835 2853 2854 2857 2866 2879 2879 2880 2882 2887 2890 2890 2892 2895 2911 2927 2927 2927 2920 2920 2920 2933 2950 2960 2962 2962 2960 2954 2954 2954 2981 2981 2981 2979 2979 2979 3015 3047 3048 3060 3060 3060 3042 3018 2983 2900 2634 0 0 2305 2302 2288 2284 2253 2218 2206 2198 2189 2175 2167 2162 2156 2147 2140 2130 2120 2112 2104 2094 2087 2080 2073 2066 2061 2056 2051 2044 2038 2031 2027 2022 2018 2014 2012 2009 2006 2003 2000 1998 1994 1990 1985 1982 1979 1977 1975 1972 1970 1967 1966 1963 1962 1960 1956 1955 1953 1952 1950 1949 1948 1947 1945 1942 1941 1939 1938 1935 1932 1929 1927 1925 1923 1920 1918 1915 1912 1910 1908 1906 1904 1902 1900 1897 1894 1892 1890 1888 1885 1884 1882 1880 1878 1876 1874 1872 1869 1868 1866 1864 1862 1861 1861 1860 1857 1855 1853 1851 1849 1844 1842 1839 1837 1836 1834 1833 1830 1828 1826 1824 1824 1824 1822 1820 1820 1819 1818 1816 1815 1813 1813 1812 1811 1810 1810 1809 1809 1808 1808 1808 1807 1807 1806 1805 1804 1803 1803 1801 1801 1799 1798 1797 1796 1795 1794 1792 1792 1791 1790 1790 1789 1789 1788 1788 1787 1787 1787 1787 1787 1787 1788 1790 1792 1793 1796 1796 1798 1800 1800 1801 1802 1802 1802 1803 1803 1803 1804 1804 1804 1805 1805 1806 1806 1807 1807 1808 1808 1809 1809 1809 1809 1809 1809 1809 1809 1809 1810 1812 1812 1814 1815 1816 1819 1820 1821 1822 1822 1823 1824 1824 1824 1824 1824 1825 1825 1825 1825 1825 1826 1827 1827 1827 1828 1829 1829 1829 1828 1823 1823 1823 1824 1827 1828 1828 1827 1823 1818
1774 1774 1774 1775 1775 1775 1778 1780 1783 1786 1787 1790 1790 1790 1789 1787 1784 1782 1782 1782 1781 1781 1779 1777 1774 1772 1768 1766 1766 1766 1766 1765 1765 1765 1766 1767 1767 1767 1767 1767 1766 1764 1764 1764 1763 1762 1762 1762 1762 1762 1761 1757 1753 1750 1745 1740 1735 1720 1710 1706 1691 1676 1662 1661 1655 0 0 0 0 0 0 0 0 0 0 0 0 0 0 0 0 0 0 0 0 0 0 0 0 0 0 0 0 0 0 0 0 0 0 1703 1704 1716 1738 1738 1738 1738 1736 1728 1719 1713 1711 1711 1711 1720 1731 1734 1736 1737 1744 1757 1790 0 0 0 0 0 0 0 2436 2436 2436 2429 2420 2416 2413 2397 2375 0 0 0 0 0 0 0 0 0 1641 1621 1611 1611 1611 1611 1611 1612 1613 1613 1613 1613 1613 1613 1613 1613 1614 1615 1616 1617 1617 1618 1618 1619 1619 1620 1620 1621 1622 1622 1622 1622 1623 1623 1624 1624 1624 1626 1627 1628 1629 1631 1632 1633 1634 1636 1637 1638 1639 1640 1642 1643 1644 1646 1647 1648 1649 1650 1652 1655 1656 1659 1659 1660 1660 1662 1663 1663 1664 1664 1667 1676 1693 0 0 0 0 0 1914 1938 1978 0 0 0 0 0 0 0 0 0 2452 2460 2463 2465 2485 2489 2496 2497 2498 2500 2501 2509 2518 2523 2525 2525 2530 2536 2546 2552 2553 2553 2557 2557 2558 2562 2564 2567 2574 2578 2587 2591 2596 2604 2607 2609 2609 2609 2606 2595 2565 0 0 0 0 0 0 0 0 0 0 0 0 0 0 0 0 0 0 0 0 0 0 0 0 0 0 0 0 2586 2663 2702 2702 2749 2753 2759 2768 2776 2784 2788 2790 2790 2790 2790 2790 2792 2795 2800 2818 2818 2818 2822 2822 2822 2833 2835 2841 2849 2854 2854 2855 2860 2876 2876 2878 2878 2880 2885 2894 2907 2907 2913 2914 2919 2932 2936 2939 2945 2945 2945 2942 2942 2942 2950 2956 2956 2956 2955 2951 2950 2950 2950 2991 2991 2991 2986 2942 2914 2830 2572 0 0 2305 2302 2299 2275 2231 2211 2206 2198 2187 2173 2167 2159 2152 2145 2138 2129 2120 2112 2104 2094 2087 2080 2073 2066 2061 2056 2048 2044 2037 2031 2026 2021 2018 2014 2011 2008 2006 2003 1999 1996 1992 1988 1983 1981 1978 1976 1973 1971 1967 1966 1964 1962 1960 1958 1956 1953 1951 1950 1949 1948 1947 1946 1944 1942 1939 1939 1937 1934 1931 1929 1927 1925 1922 1920 1917 1915 1912 1910 1908 1906 1904 1902 1900 1897 1894 1892 1890 1888 1887 1884 1882 1881 1878 1876 1875 1873 1872 1871 1869 1866 1864 1862 1862 1860 1858 1855 1854 1854 1853 1849 1848 1842 1839 1839 1838 1835 1834 1833 1830 1827 1825 1824 1822 1820 1819 1819 1817 1816 1814 1812 1811 1810 1810 1809 1808 1808 1807 1807 1807 1807 1807 1806 1805 1804 1804 1802 1801 1800 1800 1799 1798 1797 1795 1794 1793 1792 1792 1791 1790 1789 1789 1788 1788 1788 1787 1786 1786 1786 1786 1787 1788 1789 1791 1793 1795 1796 1797 1798 1798 1800 1800 1801 1801 1802 1802 1802 1802 1802 1802 1804 1804 1805 1805 1806 1807 1807 1808 1808 1809 1809 1809 1809 1809 1809 1809 1809 1810 1811 1812 1814 1815 1816 1818 1819 1820 1821 1821 1821 1821 1822 1822 1822 1822 1823 1824 1824 1825 1825 1826 1827 1827 1827 1827 1827 1826 1824 1822 1819 1819 1819 1822 1827 1828 1828 1827 1823 1817
1774 1774 1774 1774 1774 1775 1776 1777 1780 1784 1785 1786 1786 1786 1785 1783 1781 1779 1778 1778 1778 1777 1776 1774 1772 1769 1765 1764 1764 1763 1762 1762 1762 1762 1764 1764 1765 1765 1765 1764 1764 1760 1758 1757 1757 1757 1757 1757 1756 1754 1753 1751 1751 1749 1745 1740 1735 1720 1710 1709 1694 1692 1687 1681 1662 1645 1644 0 0 0 0 0 0 0 0 0 0 0 0 0 0 0 0 0 0 0 0 0 0 0 0 0 0 0 0 0 0 0 0 1683 1703 1716 1736 1736 1736 1724 1715 1713 1710 1710 1711 1711 1711 1720 1731 1739 1746 1754 1770 1790 0 0 0 0 0 0 0 2425 2436 2436 2436 2429 2425 2421 2419 2410 2394 2387 2366 0 0 0 0 0 0 0 0 1627 1615 1612 1611 1611 1611 1612 1613 1613 1613 1613 1613 1613 1613 1614 1614 1615 1616 1617 1617 1618 1619 1619 1619 1621 1621 1621 1622 1622 1622 1622 1623 1623 1624 1624 1624 1626 1627 1628 1629 1631 1632 1633 1634 1636 1637 1638 1639 1640 1642 1643 1644 1646 1647 1649 1649 1651 1653 1655 1657 1659 1660 1660 1662 1663 1665 1672 1674 1678 1679 1685 0 0 0 0 1887 1905 1926 1944 1978 2014 2020 2033 0 0 0 0 0 0 2396 2422 2444 2461 2474 2488 2490 2490 2492 2493 2497 2500 2507 2509 2510 2511 2517 2526 2533 2542 2543 2544 2544 2547 2549 2551 2552 2553 2554 2560 2570 2578 2586 2595 2595 2595 2594 2593 2583 2551 2496 0 0 0 0 0 0 0 0 0 0 0 0 0 0 0 0 0 0 0 0 0 0 0 0 0 0 0 0 0 0 2640 2644 2676 2706 2729 2743 2760 2765 2772 2773 2774 2776 2778 2780 2780 2783 2783 2797 2803 2803 2806 2806 2806 2810 2814 2825 2832 2835 2836 2837 2848 2861 2863 2863 2863 2861 2861 2861 2886 2895 2895 2898 2915 2917 2917 2919 2919 2919 2922 2922 2926 2926 2926 2935 2935 2935 2921 2913 2903 2900 2895 2891 2887 2881 2860 2858 2821 2762 2570 0 2315 2302 2299 2296 2259 2222 2206 2201 2197 2187 2173 2164 2157 2152 2145 2138 2129 2120 2112 2105 2096 2087 2079 2075 2066 2061 2053 2047 2041 2035 2029 2024 2021 2017 2013 2011 2007 2004 2001 1998 1994 1991 1987 1982 1979 1977 1974 1972 1969 1966 1964 1962 1961 1960 1958 1955 1953 1951 1949 1948 1946 1946 1943 1943 1940 1939 1937 1936 1933 1931 1929 1926 1924 1922 1920 1917 1914 1912 1910 1908 1906 1904 1902 1900 1896 1894 1892 1890 1889 1887 1885 1883 1881 1879 1877 1875 1875 1873 1872 1871 1869 1866 1864 1863 1862 1859 1858 1856 1856 1855 1855 1855 1850 1845 1844 1844 1842 1839 1837 1835 1833 1828 1824 1822 1820 1819 1819 1815 1815 1813 1812 1810 1809 1809 1808 1807 1806 1806 1806 1806 1806 1805 1805 1805 1804 1803 1802 1801 1800 1800 1798 1798 1796 1795 1794 1793 1792 1791 1790 1790 1789 1789 1788 1788 1787 1787 1786 1786 1786 1786 1786 1787 1789 1790 1793 1793 1795 1796 1797 1798 1798 1799 1800 1800 1801 1801 1801 1801 1801 1802 1802 1803 1804 1805 1805 1806 1806 1807 1807 1808 1808 1808 1808 1808 1808 1809 1809 1809 1810 1812 1814 1814 1816 1817 1818 1820 1820 1821 1821 1820 1820 1821 1821 1822 1823 1823 1823 1824 1824 1825 1826 1826 1826 1826 1823 1821 1820 1818 1816 1816 1816 1818 1823 1823 1823 1822 1813 1811
1773 1773 1773 1773 1773 1773 1773 1775 1776 1779 1781 1783 1783 1783 1780 1780 1780 1778 1777 1777 1775 1775 1774 1773 1772 1767 1762 1761 1761 1761 1758 1758 1758 1761 1762 1762 1763 1763 1762 1761 1760 1757 1752 1752 1752 1752 1753 1753 1753 1747 1746 1744 1743 1742 1738 1734 1729 1720 1710 1709 1700 1697 1688 1688 1664 1659 1645 1644 0 0 0 0 0 0 0 0 0 0 0 0 0 0 0 0 0 0 0 0 0 0 0 0 0 0 0 0 0 0 0 1678 1703 1709 1709 1709 1706 1701 1701 1701 1703 1708 1709 1712 1717 1726 1731 1741 1757 1769 1796 1812 0 0 0 0 0 0 2405 2425 2433 2433 2433 2429 2425 2421 2419 2414 2404 2392 2382 2359 0 0 0 0 0 0 0 0 1623 1615 1615 1613 1613 1614 1613 1613 1613 1613 1613 1613 1614 1614 1614 1615 1616 1617 1617 1618 1619 1619 1620 1621 1621 1621 1622 1622 1622 1623 1623 1623 1624 1624 1624 1626 1627 1628 1629 1631 1632 1633 1634 1636 1637 1638 1639 1640 1642 1643 1644 1646 1647 1649 1651 1652 1654 1655 1657 1659 1662 1662 1662 1664 1667 1675 1676 1688 0 0 0 0 0 1901 1903 1917 1943 1961 1990 2014 2020 2020 2020 0 0 0 0 0 0 2398 2429 2461 2474 2484 2485 2486 2488 2490 2492 2493 2497 2500 2501 2505 2508 2518 2525 2532 2536 2538 2538 2539 2542 2542 2542 2544 2544 2545 2556 2563 2567 2575 2580 2580 2580 2573 2558 2518 2484 2444 0 0 0 0 0 0 0 0 0 0 0 0 0 0 0 0 0 0 0 0 0 0 0 0 0 0 0 0 0 0 0 0 2595 2624 2678 2711 2736 2748 2748 2753 2761 2764 2765 2767 2768 2768 2780 2792 2795 2797 2797 2798 2798 2798 2810 2822 2824 2825 2826 2836 2846 2851 2851 2851 2845 2845 2845 2860 2872 2881 2893 2905 2905 2905 2898 2898 2898 2901 2911 2911 2912 2913 2912 2909 2908 2903 2901 2896 2890 2887 2884 2878 2876 2859 2831 2784 2720 2521 0 2304 2299 2296 2289 2239 2203 2196 2196 2194 2185 2171 2163 2157 2151 2145 2137 2129 2120 2112 2105 2096 2087 2079 2076 2071 2061 2053 2045 2039 2034 2029 2024 2020 2016 2013 2010 2007 2003 2000 1996 1992 1988 1985 1980 1977 1975 1974 1971 1967 1965 1963 1961 1959 1958 1956 1954 1952 1950 1949 1947 1945 1944 1943 1941 1939 1937 1935 1934 1932 1929 1928 1926 1923 1921 1918 1915 1913 1911 1910 1908 1906 1904 1902 1899 1896 1894 1892 1891 1889 1887 1885 1883 1881 1880 1878 1876 1875 1875 1873 1871 1871 1869 1867 1865 1865 1864 1863 1860 1858 1858 1857 1857 1857 1856 1852 1847 1847 1844 1844 1841 1839 1835 1833 1829 1821 1819 1819 1815 1815 1813 1812 1810 1809 1809 1807 1807 1806 1806 1806 1805 1805 1805 1805 1804 1803 1802 1802 1801 1800 1800 1798 1797 1796 1795 1794 1793 1792 1791 1790 1789 1789 1788 1788 1788 1787 1787 1786 1786 1786 1786 1786 1787 1788 1789 1791 1792 1793 1794 1795 1796 1797 1798 1798 1799 1799 1799 1800 1800 1801 1801 1802 1802 1802 1803 1804 1805 1806 1806 1807 1807 1807 1808 1808 1808 1808 1808 1809 1809 1810 1812 1814 1814 1814 1816 1818 1820 1820 1820 1820 1819 1819 1819 1819 1821 1821 1822 1822 1822 1823 1824 1825 1825 1824 1824 1822 1821 1819 1817 1815 1815 1815 1815 1815 1816 1815 1814 1812 1806
1773 1772 1772 1772 1771 1772 1772 1772 1773 1774 1777 1778 1778 1778 1777 1777 1776 1775 1775 1774 1773 1773 1773 1771 1769 1766 1762 1759 1759 1758 1756 1756 1756 1759 1760 1760 1760 1759 1756 1754 1753 1751 1748 1747 1747 1747 1747 1747 1747 1744 1744 1737 1736 1735 1731 1730 1720 1715 1713 1711 1700 1697 1694 1690 1677 1659 1645 1644 1634 1627 0 0 0 0 0 0 0 0 0 0 0 0 0 0 0 0 0 0 0 0 0 0 0 0 0 0 0 0 0 1678 1712 1704 1704 1704 1680 1680 1680 1690 1695 1708 1710 1719 1726 1729 1731 1742 1758 1770 1796 1831 0 0 0 0 0 0 2416 2416 2416 2415 2415 2415 2419 2419 2419 2418 2410 2394 2388 2374 2338 0 0 0 0 0 0 0 1636 1619 1615 1615 1614 1614 1613 1613 1613 1613 1613 1614 1614 1614 1615 1616 1616 1617 1618 1618 1619 1620 1620 1621 1621 1621 1622 1622 1623 1623 1623 1623 1624 1624 1624 1626 1628 1629 1630 1631 1632 1633 1634 1636 1637 1638 1639 1641 1642 1643 1644 1646 1647 1649 1651 1652 1654 1655 1658 1659 1662 1664 1667 1667 1669 1675 1680 0 0 0 0 0 1897 1908 1930 1937 1950 1975 1991 2014 2019 2019 2019 2019 2019 0 0 0 0 0 0 2434 2465 2469 2475 2477 2482 2485 2490 2491 2492 2494 2496 2499 2503 2512 2518 2522 2526 2529 2529 2531 2533 2533 2533 2532 2532 2532 2542 2552 2556 2556 2560 2564 2564 2564 2542 2508 2479 2477 2477 2469 0 0 0 0 0 0 0 0 0 0 0 0 0 0 0 0 0 0 0 0 0 0 0 0 0 0 0 0 0 0 0 0 2552 2622 2655 2721 2733 2744 2758 2758 2758 2754 2754 2754 2764 2779 2788 2792 2794 2794 2796 2796 2797 2808 2818 2822 2823 2824 2831 2832 2838 2838 2838 2838 2838 2842 2853 2864 2877 2886 2889 2889 2889 2887 2887 2887 2892 2898 2898 2898 2892 2892 2892 2892 2892 2890 2883 2878 2876 2873 2873 2857 2820 2777 2620 0 0 2304 2299 2289 2277 2229 2191 2190 2190 2185 2184 2167 2159 2155 2150 2145 2137 2129 2119 2112 2105 2096 2086 2079 2076 2071 2064 2053 2045 2039 2034 2029 2024 2020 2016 2012 2009 2006 2003 2000 1996 1990 1986 1982 1978 1975 1972 1971 1969 1967 1964 1962 1959 1958 1957 1955 1953 1951 1950 1949 1946 1945 1944 1941 1940 1938 1936 1934 1933 1930 1928 1927 1924 1922 1920 1918 1915 1913 1911 1909 1908 1905 1904 1901 1899 1897 1895 1893 1891 1889 1887 1885 1883 1882 1881 1880 1878 1877 1876 1874 1873 1872 1870 1870 1869 1868 1866 1864 1863 1862 1860 1859 1858 1858 1858 1856 1854 1853 1852 1850 1849 1846 1843 1838 1835 1829 1822 1819 1815 1815 1813 1812 1810 1809 1809 1807 1806 1806 1806 1806 1805 1805 1805 1805 1804 1803 1802 1802 1801 1800 1800 1798 1797 1796 1795 1794 1793 1792 1791 1790 1789 1789 1788 1788 1788 1787 1787 1786 1786 1786 1786 1787 1787 1788 1788 1790 1791 1793 1793 1795 1795 1797 1797 1797 1797 1798 1798 1799 1799 1800 1800 1801 1801 1802 1802 1803 1804 1805 1805 1806 1806 1807 1807 1808 1808 1808 1808 1808 1809 1810 1812 1813 1814 1814 1815 1816 1818 1818 1818 1818 1818 1818 1818 1818 1819 1819 1819 1820 1822 1823 1824 1824 1824 1824 1823 1822 1821 1819 1817 1814 1813 1813 1812 1810 1810 1810 1810 1809 1806
1773 1772 1772 1772 1771 1771 1771 1771 1771 1772 1772 1772 1772 1772 1772 1772 1773 1773 1773 1771 1771 1769 1769 1769 1766 1764 1761 1758 1757 1755 1754 1754 1754 1755 1755 1755 1755 1754 1752 1749 1746 1743 1742 1742 1742 1743 1743 1743 1742 1739 1735 1734 1730 1729 1727 1722 1717 1712 1709 1708 1699 1697 1694 1690 1677 1656 1645 1644 1634 1632 1629 0 0 0 0 0 0 0 0 0 0 0 0 0 0 0 0 0 0 0 0 0 0 0 0 0 0 0 0 1709 1712 1699 1699 1699 1679 1679 1679 1680 1695 1708 1710 1726 1727 1728 1731 1742 1760 1779 1798 1831 0 0 0 0 0 2387 2413 2413 2413 2410 2409 2409 2409 2413 2413 2413 2412 2403 2388 2374 2356 2324 0 0 0 0 0 0 1646 1624 1616 1616 1614 1614 1614 1614 1613 1614 1614 1614 1614 1614 1615 1616 1617 1617 1618 1619 1619 1620 1620 1621 1621 1622 1622 1623 1623 1623 1624 1624 1624 1625 1625 1626 1628 1629 1630 1631 1633 1634 1635 1636 1637 1638 1640 1641 1642 1643 1645 1646 1647 1650 1651 1652 1654 1656 1658 1660 1663 1668 1670 1673 1674 1677 1692 0 0 0 1898 1907 1917 1930 1945 1958 1969 1982 1991 2014 2017 2017 2017 2017 2017 2056 0 0 0 0 0 0 2418 2420 2423 2459 2480 2480 2482 2489 2492 2494 2495 2497 2501 2504 2505 2509 2509 2511 2513 2514 2524 2524 2524 2523 2523 2523 2529 2535 2541 2542 2542 2546 2546 2546 2529 2504 2480 2480 2480 2480 2480 2488 2490 2490 2490 2478 2471 2471 0 0 0 0 0 0 2460 2460 2460 2450 0 0 0 0 0 0 0 0 0 0 0 0 0 0 0 0 2623 2690 2732 2742 2753 2753 2753 2747 2746 2746 2746 2764 2779 2788 2792 2792 2792 2792 2792 2793 2805 2814 2816 2816 2818 2819 2826 2833 2833 2834 2834 2834 2842 2846 2852 2860 2872 2879 2883 2883 2883 2883 2883 2886 2886 2886 2886 2886 2888 2889 2889 2889 2872 2872 2865 2865 2865 2845 2815 2724 2567 0 0 2304 2299 2289 2271 2216 2186 2186 2179 2179 2179 2164 2152 2151 2147 2143 2137 2127 2117 2109 2102 2091 2084 2078 2076 2071 2064 2056 2045 2039 2034 2029 2024 2020 2016 2012 2009 2005 2003 1999 1995 1990 1985 1982 1978 1974 1971 1970 1968 1966 1964 1961 1959 1958 1955 1954 1953 1951 1950 1947 1946 1945 1943 1941 1940 1937 1936 1933 1931 1930 1927 1926 1924 1922 1919 1917 1914 1913 1910 1909 1907 1905 1904 1901 1899 1897 1896 1894 1891 1889 1887 1885 1884 1883 1881 1880 1879 1877 1876 1875 1875 1873 1872 1870 1869 1869 1867 1865 1863 1863 1862 1862 1862 1862 1860 1857 1857 1856 1855 1855 1854 1852 1848 1843 1839 1836 1830 1825 1821 1818 1818 1817 1811 1809 1809 1807 1806 1806 1806 1806 1805 1805 1805 1805 1804 1803 1802 1802 1801 1800 1800 1798 1797 1796 1795 1794 1792 1792 1791 1790 1790 1789 1788 1788 1788 1787 1787 1786 1786 1786 1786 1787 1787 1788 1788 1789 1790 1791 1793 1794 1795 1795 1796 1796 1797 1797 1798 1798 1798 1799 1800 1800 1800 1801 1802 1803 1804 1804 1805 1805 1806 1806 1807 1808 1808 1808 1808 1808 1808 1810 1812 1812 1812 1813 1813 1815 1815 1817 1817 1817 1817 1817 1818 1818 1818 1818 1818 1818 1820 1823 1823 1823 1823 1823 1823 1822 1821 1819 1817 1813 1813 1813 1811 1810 1810 1810 1810 1808 1805
1769 1769 1767 1767 1767 1769 1769 1769 1769 1770 1770 1770 1770 1768 1768 1768 1769 1769 1769 1768 1767 1766 1765 1764 1762 1760 1759 1757 1755 1751 1750 1750 1750 1750 1750 1750 1750 1749 1748 1745 1740 1739 1739 1739 1739 1739 1739 1738 1735 1731 1728 1728 1727 1726 1726 1721 1715 1711 1706 1705 1699 1695 1690 1681 1678 1659 1648 1648 1645 1645 1633 1618 0 0 0 0 0 0 0 0 0 0 0 0 0 0 0 0 0 0 0 0 0 0 0 0 0 0 1720 1719 1715 1714 1714 1699 1679 1679 1679 1680 1695 1722 1723 1723 1723 1732 1732 1741 1761 1779 1801 1831 0 0 0 0 2343 2395 2413 2413 2413 2409 2407 2407 2407 2413 2413 2413 2412 2403 2391 2378 2367 2343 0 0 0 0 0 0 0 1635 1621 1616 1615 1614 1614 1613 1613 1614 1614 1614 1614 1615 1615 1616 1617 1617 1618 1619 1619 1620 1621 1621 1622 1622 1622 1623 1623 1624 1624 1625 1626 1627 1627 1628 1629 1629 1631 1632 1633 1634 1635 1636 1637 1638 1640 1641 1642 1644 1645 1646 1648 1651 1651 1653 1654 1657 1658 1662 1666 1674 1675 1680 1689 1690 0 0 0 1890 1898 1929 1938 1954 1963 1973 1982 1983 1991 1995 2011 2011 2013 2017 2017 2056 2119 2153 0 0 0 0 0 0 0 0 0 2478 2481 2485 2492 2492 2493 2496 2501 2502 2502 2502 2496 2496 2496 2500 2514 2520 2520 2520 2520 2520 2521 2525 2527 2533 2534 2536 2536 2536 2516 2495 2487 2487 2486 2487 2488 2498 2498 2499 2499 2502 2509 2516 2516 2516 2509 2491 2486 2478 2472 2472 2472 2450 2436 0 0 0 0 0 0 0 0 0 0 0 0 0 0 0 2623 2689 2731 2741 2749 2749 2749 2742 2735 2735 2735 2753 2772 2783 2786 2786 2786 2784 2784 2784 2792 2805 2807 2808 2809 2809 2812 2821 2825 2827 2828 2834 2834 2834 2838 2838 2847 2864 2877 2877 2877 2868 2868 2868 2875 2877 2878 2878 2887 2887 2887 2878 2849 2849 2845 2844 2844 2815 2800 2722 2514 0 2306 2303 2299 2289 2271 2216 2186 2179 2175 2172 2169 2162 2150 2145 2142 2139 2132 2116 2108 2102 2097 2090 2083 2077 2074 2070 2064 2056 2050 2042 2036 2031 2024 2021 2016 2013 2009 2005 2003 1998 1995 1989 1985 1982 1978 1974 1971 1969 1967 1966 1963 1961 1959 1957 1955 1954 1952 1951 1949 1947 1946 1945 1943 1941 1940 1937 1935 1932 1931 1928 1926 1924 1922 1920 1918 1916 1914 1912 1910 1909 1907 1905 1904 1901 1899 1897 1896 1894 1892 1890 1888 1886 1884 1883 1882 1881 1879 1878 1877 1876 1875 1874 1873 1872 1869 1869 1867 1865 1864 1864 1864 1864 1864 1864 1862 1861 1859 1857 1856 1856 1855 1852 1852 1850 1848 1845 1841 1839 1834 1830 1821 1820 1818 1813 1811 1808 1807 1807 1807 1807 1807 1807 1806 1805 1804 1803 1802 1802 1801 1801 1800 1799 1798 1796 1795 1794 1793 1792 1791 1790 1790 1790 1789 1789 1788 1787 1787 1787 1787 1787 1787 1787 1788 1788 1788 1789 1790 1791 1792 1794 1795 1795 1795 1795 1796 1796 1796 1796 1797 1797 1797 1799 1799 1800 1801 1802 1803 1803 1803 1804 1805 1805 1806 1806 1806 1807 1807 1808 1808 1810 1810 1810 1811 1811 1811 1814 1814 1814 1814 1814 1814 1814 1816 1817 1818 1818 1818 1818 1819 1822 1822 1822 1823 1822 1822 1822 1821 1819 1817 1813 1812 1812 1811 1810 1809 1809 1809 1808 1805
1758 1758 1758 1759 1763 1768 1768 1768 1768 1769 1769 1769 1768 1765 1765 1765 1765 1766 1766 1766 1764 1761 1761 1760 1759 1759 1757 1754 1753 1748 1747 1747 1746 1746 1746 1745 1745 1744 1744 1742 1739 1738 1736 1736 1736 1736 1736 1733 1728 1724 1723 1722 1722 1722 1721 1719 1713 1706 1705 1699 1697 1695 1690 1683 1678 1665 1656 1650 1649 1649 1638 1620 1595 0 0 0 0 0 0 0 0 0 0 0 0 0 0 0 0 0 0 0 0 0 0 0 0 0 1720 1722 1719 1716 1714 1704 1679 1679 1679 1680 1705 1732 1732 1732 1732 1732 1732 1737 1763 1785 1801 1834 0 0 0 0 2352 2399 2411 2411 2411 2408 2407 2407 2407 2412 2412 2412 2410 2403 2390 2382 2370 2357 2341 0 0 0 0 0 0 1635 1622 1617 1615 1614 1614 1614 1614 1614 1614 1614 1614 1615 1615 1616 1617 1618 1618 1619 1619 1620 1621 1621 1622 1622 1623 1623 1624 1624 1624 1625 1627 1627 1628 1629 1629 1630 1631 1632 1633 1634 1635 1636 1637 1638 1640 1641 1642 1643 1645 1646 1649 1651 1651 1653 1655 1658 1661 1663 1671 1678 1679 1690 1702 0 0 0 0 1890 1904 1929 1939 1969 1978 1985 1990 1990 1985 1985 1986 1986 2013 2013 2022 2080 2119 2149 2167 0 0 0 0 0 0 0 0 0 0 2460 2471 2488 2493 2496 2496 2496 2496 2493 2484 2484 2484 2489 2513 2519 2519 2519 2519 2519 2521 2523 2527 2527 2528 2528 2527 2520 2511 2495 2487 2487 2486 2487 2488 2498 2504 2505 2511 2519 2529 2539 2539 2539 2539 2536 2522 2493 2490 2478 2469 2446 2436 0 0 0 0 0 0 0 0 0 0 0 0 0 0 0 2623 2687 2727 2734 2737 2737 2737 2732 2729 2729 2729 2747 2765 2775 2777 2777 2777 2770 2770 2770 2781 2795 2799 2799 2801 2801 2812 2821 2823 2824 2826 2830 2830 2830 2831 2831 2831 2845 2869 2869 2869 2865 2865 2865 2869 2870 2870 2877 2879 2879 2879 2861 2849 2849 2845 2840 2808 2782 2763 2618 0 0 2306 2305 2301 2288 2269 2216 2185 2179 2170 2163 2161 2158 2150 2138 2132 2129 2124 2111 2104 2098 2093 2088 2082 2077 2072 2068 2062 2056 2050 2044 2038 2031 2024 2021 2017 2013 2010 2005 2002 1998 1994 1989 1985 1982 1977 1974 1971 1969 1967 1965 1963 1961 1959 1957 1955 1953 1951 1950 1948 1946 1945 1943 1942 1940 1938 1936 1934 1932 1930 1928 1926 1923 1921 1919 1917 1915 1913 1911 1910 1909 1907 1905 1904 1901 1900 1898 1897 1895 1893 1891 1889 1887 1885 1884 1882 1881 1879 1878 1877 1877 1875 1874 1873 1872 1870 1869 1868 1865 1865 1864 1864 1864 1864 1864 1863 1862 1862 1861 1858 1856 1856 1855 1852 1850 1848 1847 1844 1843 1841 1834 1832 1830 1823 1818 1816 1816 1816 1813 1811 1810 1810 1810 1809 1808 1805 1804 1803 1802 1801 1801 1801 1800 1800 1798 1796 1794 1793 1792 1792 1792 1790 1790 1789 1789 1789 1788 1788 1788 1788 1788 1789 1789 1789 1789 1789 1789 1790 1791 1792 1793 1793 1793 1794 1794 1794 1795 1795 1796 1796 1796 1797 1797 1799 1799 1801 1801 1802 1802 1802 1803 1804 1805 1805 1806 1806 1807 1807 1808 1808 1809 1809 1809 1810 1810 1810 1812 1812 1812 1811 1811 1811 1813 1815 1817 1817 1817 1817 1818 1819 1822 1822 1822 1822 1822 1821 1821 1820 1819 1817 1813 1812 1811 1811 1809 1808 1806 1806 1806 1805
1755 1755 1755 1755 1760 1764 1765 1766 1766 1767 1767 1766 1766 1764 1763 1761 1761 1761 1761 1761 1761 1758 1756 1756 1756 1756 1753 1749 1748 1745 1744 1744 1743 1743 1743 1741 1740 1740 1739 1738 1736 1734 1732 1732 1732 1731 1731 1729 1724 1719 1718 1718 1718 1718 1718 1718 1693 1685 1681 1681 1685 1685 1683 1683 1678 1677 1660 1658 1655 1650 1639 1623 1603 0 0 0 0 0 0 0 0 0 0 0 0 0 0 0 0 0 0 0 0 0 0 0 0 0 1720 1722 1725 1725 1725 1704 1694 1694 1694 1710 1727 1733 1733 1733 1732 1731 1731 1731 1763 1785 1801 1834 0 0 0 0 2352 2399 2406 2406 2406 2404 2404 2404 2407 2412 2412 2412 2410 2401 2388 2382 2372 2360 2359 0 0 0 0 0 0 0 1650 1628 1617 1614 1614 1614 1614 1614 1614 1614 1615 1615 1615 1616 1617 1618 1618 1619 1620 1620 1621 1621 1622 1623 1623 1624 1624 1624 1625 1625 1627 1628 1628 1629 1630 1630 1631 1632 1633 1634 1636 1636 1636 1638 1640 1641 1642 1643 1645 1646 1651 1654 1655 1655 1655 1666 1677 1687 1700 1701 1705 1723 0 0 0 0 1871 1890 1904 1929 1942 1969 1978 1991 1991 1991 1991 1986 1986 1986 2013 2017 2055 2098 2125 2147 2164 0 0 0 0 0 0 0 0 0 0 0 2434 2452 2480 2488 2488 2488 2484 2481 2476 2476 2476 2488 2510 2514 2514 2515 2515 2517 2520 2523 2526 2526 2526 2521 2519 2516 2508 2495 2491 2486 2486 2486 2491 2498 2505 2513 2521 2530 2546 2552 2553 2553 2553 2551 2550 2547 2509 2478 2469 2446 2421 0 0 0 0 0 0 0 0 0 0 0 0 0 0 0 2634 2687 2712 2722 2729 2729 2729 2724 2724 2724 2727 2745 2754 2759 2761 2762 2762 2763 2764 2764 2774 2787 2792 2795 2796 2800 2812 2821 2823 2824 2824 2828 2828 2828 2826 2826 2826 2834 2861 2863 2863 2863 2863 2863 2863 2863 2864 2868 2868 2868 2868 2861 2849 2845 2840 2816 2798 2768 2715 2571 0 2323 2307 2305 2301 2287 2264 2216 2181 2178 2169 2159 2155 2151 2147 2137 2124 2120 2115 2107 2100 2094 2090 2087 2080 2075 2071 2066 2060 2056 2050 2044 2038 2031 2024 2021 2017 2013 2009 2005 2002 1997 1992 1988 1984 1981 1977 1973 1971 1968 1966 1963 1962 1960 1958 1956 1954 1953 1950 1948 1946 1945 1943 1942 1940 1938 1936 1935 1932 1931 1929 1927 1924 1922 1920 1918 1916 1915 1913 1911 1910 1908 1906 1905 1904 1902 1900 1898 1897 1895 1893 1891 1890 1888 1886 1884 1883 1881 1880 1879 1878 1877 1876 1875 1873 1873 1871 1869 1868 1867 1866 1866 1866 1865 1865 1865 1865 1864 1863 1863 1862 1859 1857 1855 1854 1853 1851 1849 1848 1845 1845 1843 1841 1837 1831 1830 1823 1823 1821 1821 1816 1815 1814 1814 1812 1810 1809 1808 1806 1804 1803 1802 1802 1801 1800 1799 1797 1795 1795 1795 1794 1793 1791 1791 1790 1790 1789 1789 1789 1789 1789 1789 1789 1790 1790 1789 1790 1790 1790 1791 1791 1792 1793 1793 1793 1793 1793 1794 1794 1795 1795 1796 1796 1797 1798 1799 1800 1800 1800 1801 1801 1801 1803 1804 1805 1806 1806 1806 1807 1809 1809 1809 1809 1809 1809 1809 1809 1810 1810 1810 1810 1810 1810 1812 1815 1817 1817 1817 1817 1817 1818 1822 1822 1822 1821 1820 1819 1818 1818 1818 1816 1813 1811 1810 1809 1809 1808 1804 1804 1804 1804
1752 1752 1752 1752 1755 1761 1763 1763 1764 1764 1764 1764 1763 1760 1760 1757 1757 1757 1757 1757 1757 1755 1754 1754 1754 1752 1748 1743 1742 1741 1740 1740 1740 1740 1740 1736 1734 1732 1731 1730 1729 1727 1727 1727 1727 1728 1728 1728 1722 1715 1713 1713 1713 1712 1712 1705 1693 1685 1681 1681 1685 1685 1683 1683 1680 1678 1666 1666 1665 1665 1640 1628 1604 0 0 0 0 0 0 0 0 0 0 0 0 0 0 0 0 0 0 0 0 0 0 0 0 0 0 1716 1725 1725 1725 1698 1694 1694 1694 1727 1728 1728 1728 1728 1726 1711 1711 1711 1763 1785 1802 1834 0 0 0 0 2352 2394 2394 2394 2392 2392 2392 2403 2408 2408 2408 2404 2390 2387 2385 2382 2373 2362 2359 2312 0 0 0 0 0 0 0 1636 1619 1614 1614 1614 1614 1614 1614 1614 1615 1615 1616 1616 1617 1618 1618 1619 1620 1620 1621 1621 1622 1623 1623 1624 1624 1625 1626 1626 1627 1628 1628 1629 1630 1630 1632 1632 1634 1635 1636 1636 1637 1638 1640 1641 1642 1645 1645 1647 1652 1656 1658 1661 1666 1676 1686 1708 1732 1734 0 0 0 0 1848 1856 1879 1880 1904 1929 1942 1969 1978 1995 1995 1995 1993 1986 1986 1986 2013 2059 2071 2098 2125 2147 2150 0 0 0 0 0 0 0 0 0 0 0 0 0 2429 2458 2467 2470 2472 2473 2473 2474 2475 2487 2506 2506 2507 2509 2510 2517 2517 2520 2523 2523 2523 2519 2519 2516 2508 2498 2492 2489 2486 2486 2492 2493 2505 2513 2524 2533 2546 2552 2554 2554 2554 2552 2551 2550 2539 2501 2469 2446 2421 0 0 0 0 0 0 0 0 0 0 0 0 0 0 2573 2658 2686 2698 2704 2717 2717 2717 2718 2718 2718 2724 2738 2744 2744 2748 2754 2758 2760 2762 2764 2769 2775 2780 2785 2787 2799 2810 2818 2820 2821 2821 2824 2824 2824 2816 2816 2816 2830 2848 2853 2853 2853 2853 2853 2857 2857 2857 2855 2852 2852 2852 2861 2899 2899 2899 2815 2795 2752 2643 0 0 2319 2307 2305 2301 2287 2264 2216 2181 2167 2166 2156 2152 2146 2141 2132 2121 2112 2108 2102 2095 2091 2087 2084 2079 2073 2069 2063 2059 2055 2050 2044 2038 2031 2024 2021 2016 2013 2009 2005 2000 1995 1991 1988 1984 1980 1976 1973 1970 1968 1966 1963 1961 1958 1957 1954 1953 1952 1950 1947 1946 1944 1943 1941 1939 1937 1936 1934 1931 1930 1928 1926 1923 1921 1919 1918 1916 1914 1912 1910 1909 1908 1906 1904 1903 1902 1900 1898 1897 1895 1893 1892 1890 1888 1886 1885 1883 1882 1881 1880 1878 1877 1876 1875 1874 1873 1871 1870 1869 1869 1868 1868 1867 1866 1866 1866 1866 1865 1864 1864 1863 1862 1861 1859 1857 1856 1855 1852 1850 1850 1849 1849 1848 1847 1844 1843 1839 1836 1833 1830 1825 1821 1819 1818 1815 1814 1813 1811 1808 1806 1804 1803 1803 1803 1802 1801 1801 1799 1798 1797 1795 1793 1792 1791 1790 1790 1790 1789 1789 1789 1790 1790 1791 1791 1791 1791 1790 1790 1790 1791 1791 1792 1792 1792 1793 1793 1793 1793 1793 1795 1795 1795 1796 1797 1798 1798 1799 1799 1799 1800 1800 1801 1802 1804 1805 1805 1806 1806 1808 1809 1809 1809 1809 1809 1808 1808 1809 1808 1808 1809 1809 1809 1810 1811 1813 1815 1816 1817 1817 1817 1818 1821 1821 1821 1820 1818 1817 1817 1817 1816 1816 1813 1811 1809 1809 1809 1807 1801 1801 1801 1805
1752 1752 1752 1752 1755 1761 1761 1761 1761 1761 1760 1760 1759 1757 1757 1755 1755 1754 1754 1753 1753 1753 1753 1752 1751 1751 1745 1741 1737 1736 1736 1736 1736 1736 1734 1731 1727 1725 1724 1724 1724 1723 1723 1724 1723 1723 1720 1720 1716 1711 1700 1695 1694 1694 1693 1693 1692 1685 1681 1681 1685 1687 1687 1687 1685 1682 1681 1678 1668 1668 1667 1666 1638 0 0 0 0 0 0 0 0 0 0 0 0 0 0 0 0 0 0 0 0 0 0 0 0 0 0 0 1722 1722 1722 1686 1686 1686 1695 1727 1728 1728 1727 1724 1722 1699 1699 1699 1741 1784 1804 1836 0 0 0 0 0 2377 2387 2389 2390 2390 2391 2400 2402 2402 2402 2388 2382 2382 2378 2378 2373 2360 2359 2312 0 0 0 0 0 0 0 1647 1620 1614 1614 1614 1614 1614 1614 1614 1615 1615 1615 1616 1617 1617 1618 1619 1620 1620 1621 1621 1622 1623 1623 1624 1624 1625 1626 1626 1627 1628 1629 1630 1631 1631 1632 1634 1634 1635 1636 1637 1637 1638 1640 1641 1643 1645 1645 1647 1654 1659 1667 1675 1685 1698 0 0 0 0 0 0 0 1874 1879 1880 1884 1884 1894 1920 1942 1969 1978 2000 2000 2000 1994 1994 1994 2022 2038 2060 2071 2098 2125 2130 2133 0 0 0 0 0 0 0 0 0 0 0 0 0 0 0 2428 2446 2464 2470 2471 2473 2473 2485 2492 2495 2498 2499 2507 2514 2517 2517 2519 2519 2519 2519 2518 2516 2508 2503 2497 2496 2492 2492 2492 2493 2496 2513 2524 2533 2546 2552 2555 2555 2556 2555 2555 2555 2552 2549 2508 2474 2421 0 0 0 0 0 0 0 0 0 0 0 0 0 0 2602 2658 2678 2678 2688 2700 2706 2706 2708 2712 2715 2720 2735 2737 2739 2741 2746 2754 2759 2759 2760 2764 2767 2768 2774 2775 2792 2810 2810 2810 2806 2803 2803 2802 2799 2799 2799 2809 2821 2829 2829 2829 2829 2830 2850 2850 2850 2839 2838 2838 2838 2852 2870 2899 2899 2899 2709 2625 2540 0 0 0 2317 2305 2305 2300 2284 2264 2216 2177 2172 2166 2156 2150 2143 2139 2130 2119 2109 2103 2097 2092 2087 2084 2081 2076 2071 2066 2060 2057 2053 2048 2042 2035 2029 2023 2020 2015 2011 2009 2005 1999 1995 1990 1987 1984 1978 1973 1972 1970 1967 1966 1963 1960 1958 1956 1954 1953 1951 1949 1947 1946 1943 1942 1940 1938 1936 1934 1932 1930 1928 1926 1924 1922 1920 1919 1917 1915 1913 1912 1910 1908 1907 1905 1904 1903 1902 1900 1898 1897 1895 1893 1892 1890 1889 1887 1886 1884 1883 1882 1880 1879 1878 1877 1875 1874 1873 1872 1870 1870 1869 1869 1868 1868 1867 1867 1867 1866 1866 1865 1864 1863 1863 1863 1863 1862 1861 1856 1854 1854 1854 1854 1853 1852 1852 1850 1847 1843 1839 1836 1835 1833 1831 1826 1822 1821 1821 1821 1817 1813 1810 1809 1809 1808 1806 1804 1803 1802 1801 1799 1799 1798 1795 1795 1791 1791 1791 1791 1791 1791 1791 1791 1792 1792 1792 1792 1791 1791 1791 1791 1791 1791 1792 1792 1792 1792 1792 1793 1793 1793 1794 1795 1795 1796 1797 1798 1798 1798 1798 1799 1799 1800 1801 1802 1803 1804 1805 1806 1806 1808 1809 1809 1809 1809 1808 1808 1807 1807 1807 1807 1808 1808 1809 1810 1810 1811 1811 1812 1813 1815 1817 1818 1819 1820 1820 1820 1817 1816 1816 1816 1816 1816 1813 1809 1809 1808 1808 1802 1800 1800 1800 1805
1752 1752 1752 1752 1754 1760 1761 1761 1761 1760 1758 1758 1757 1755 1754 1753 1751 1750 1750 1750 1750 1750 1750 1750 1750 1749 1744 1740 1734 1730 1730 1730 1729 1729 1729 1725 1721 1718 1718 1718 1721 1721 1722 1722 1721 1713 1695 1695 1693 1690 1689 1689 1689 1692 1692 1693 1693 1693 1691 1690 1690 1689 1689 1689 1686 1683 1681 1681 1681 1684 1684 1684 1684 0 0 0 0 0 0 0 0 0 0 0 0 0 0 0 0 0 0 0 0 0 0 0 0 0 0 0 0 1675 1675 1680 1680 1686 1694 1724 1724 1724 1720 1718 1699 1699 1699 1699 1741 1784 1806 1838 0 0 0 0 0 0 0 0 2377 2385 2391 2399 2400 2400 2400 2374 2374 2374 2374 2374 2373 2357 2337 2311 0 0 0 0 0 0 0 0 1634 1616 1614 1613 1613 1614 1614 1614 1615 1615 1615 1616 1617 1617 1618 1619 1620 1620 1620 1621 1622 1623 1623 1624 1624 1625 1626 1626 1627 1627 1629 1630 1631 1631 1632 1634 1636 1638 1638 1638 1639 1640 1640 1644 1647 1649 1650 1653 1655 1659 1672 1686 0 0 0 0 0 0 0 0 0 1913 1913 1913 1894 1894 1894 1920 1930 1948 1978 2000 2001 2022 2022 2022 2022 2022 2039 2060 2071 2083 2099 2105 2117 0 0 0 0 0 0 2144 2138 2144 0 0 0 0 0 0 0 0 0 2451 2469 2470 2472 2472 2478 2482 2485 2492 2501 2509 2510 2510 2512 2515 2517 2517 2517 2516 2510 2506 2503 2503 2502 2502 2496 2496 2496 2503 2524 2530 2535 2545 2554 2555 2556 2556 2556 2563 2563 2563 2558 2526 2487 0 0 0 0 0 0 0 0 0 0 0 0 0 2507 2606 2655 2658 2662 2672 2682 2692 2698 2707 2711 2712 2717 2722 2727 2732 2736 2740 2746 2753 2753 2753 2754 2754 2755 2762 2763 2781 2796 2796 2796 2791 2786 2779 2779 2779 2779 2782 2793 2799 2799 2799 2784 2781 2781 2764 2759 2759 2759 2781 2804 2838 2852 2870 2899 2899 2899 2709 2621 0 0 0 2315 2309 2305 2305 2296 2280 2252 2211 2177 2172 2166 2156 2147 2140 2135 2129 2119 2107 2100 2094 2088 2084 2080 2077 2074 2068 2062 2057 2053 2051 2045 2039 2032 2028 2023 2019 2015 2011 2008 2001 1998 1993 1989 1985 1981 1977 1973 1970 1969 1967 1965 1962 1960 1958 1956 1954 1952 1951 1949 1947 1945 1943 1940 1939 1936 1935 1933 1930 1928 1926 1924 1923 1921 1919 1918 1916 1915 1913 1911 1910 1908 1907 1905 1904 1903 1901 1899 1897 1896 1894 1893 1892 1890 1889 1887 1886 1884 1884 1883 1881 1880 1879 1878 1876 1876 1874 1872 1871 1871 1870 1870 1869 1869 1868 1867 1867 1867 1866 1865 1865 1865 1864 1863 1863 1863 1862 1860 1859 1858 1857 1856 1856 1856 1854 1854 1851 1846 1843 1839 1837 1837 1834 1832 1829 1827 1826 1825 1821 1815 1814 1813 1812 1811 1809 1807 1805 1802 1802 1802 1800 1800 1799 1799 1795 1793 1793 1792 1792 1792 1792 1792 1793 1794 1794 1794 1792 1792 1792 1792 1793 1793 1792 1792 1793 1792 1792 1793 1793 1793 1794 1795 1795 1796 1797 1798 1798 1798 1798 1799 1799 1800 1801 1802 1803 1804 1805 1806 1806 1808 1809 1809 1809 1809 1808 1808 1806 1806 1806 1806 1807 1808 1808 1807 1806 1806 1806 1807 1810 1812 1815 1816 1818 1818 1818 1817 1816 1814 1814 1814 1814 1814 1812 1811 1808 1807 1804 1798 1798 1798 1798 1802
1755 1755 1754 1755 1755 1760 1760 1760 1760 1759 1757 1756 1754 1753 1752 1751 1749 1748 1746 1746 1746 1748 1748 1748 1746 1746 1741 1737 1732 1726 1724 1722 1722 1722 1721 1719 1716 1715 1715 1715 1717 1717 1717 1713 1695 1695 1693 1686 1686 1685 1685 1686 1688 1690 1692 1693 1693 1693 1691 1690 1690 1689 1689 1689 1686 1683 1681 1681 1681 1684 1686 1686 1686 1681 1651 1594 1594 1594 0 0 0 0 0 0 0 0 0 0 0 0 0 0 0 0 0 0 0 0 0 0 0 0 0 0 0 0 0 0 1685 1696 1696 1697 1697 1699 1699 1701 1741 1784 1809 1838 0 0 0 0 0 0 0 0 0 0 0 0 0 2387 2376 2370 2368 2368 2368 2366 2366 2355 2333 0 0 0 0 0 0 0 0 0 1642 1619 1614 1613 1613 1614 1614 1614 1615 1615 1615 1616 1617 1617 1618 1618 1619 1619 1620 1621 1622 1623 1623 1624 1624 1624 1625 1625 1627 1627 1629 1630 1631 1631 1633 1634 1636 1638 1640 1640 1640 1641 1642 1646 1650 1656 1657 1657 1659 1661 0 0 0 0 0 0 1878 1881 1900 1930 1955 1955 1955 1926 1904 1904 1904 1919 1925 1934 1945 1974 2000 2022 2045 2050 2050 2051 2053 2065 2068 2081 2099 2105 2117 0 0 0 0 0 2149 2142 2137 2142 2147 2147 0 0 0 0 0 0 0 0 0 2462 2463 2464 2467 2472 2475 2483 2493 2498 2500 2501 2502 2506 2509 2514 2514 2514 2510 2506 2503 2503 2502 2502 2497 2497 2497 2499 2502 2503 2507 2519 2546 2550 2551 2554 2554 2560 2579 2579 2579 2577 2550 2532 0 0 0 0 0 0 0 0 0 0 0 0 2530 2606 2622 2638 2650 2660 2671 2679 2693 2702 2703 2704 2707 2709 2715 2722 2728 2732 2739 2743 2743 2743 2742 2742 2742 2748 2748 2762 2779 2779 2779 2769 2765 2765 2765 2765 2769 2769 2769 2769 2765 2751 2748 2725 2724 2721 2715 2707 2707 2707 2749 2833 2852 2870 2870 2870 2860 2709 2577 0 0 2318 2312 2310 2309 2303 2291 2265 2234 2208 2177 2172 2166 2156 2147 2140 2135 2128 2118 2107 2097 2091 2085 2083 2079 2075 2072 2066 2061 2055 2051 2046 2042 2037 2032 2028 2023 2018 2015 2010 2007 2001 1996 1992 1988 1984 1980 1976 1971 1970 1968 1966 1964 1962 1960 1957 1956 1953 1952 1950 1948 1947 1945 1942 1940 1937 1935 1933 1931 1929 1927 1925 1924 1923 1920 1918 1917 1914 1913 1912 1911 1908 1907 1906 1905 1903 1902 1900 1899 1897 1896 1894 1893 1892 1890 1889 1887 1886 1885 1884 1883 1881 1880 1879 1878 1876 1876 1875 1873 1872 1871 1871 1870 1870 1869 1869 1868 1868 1868 1866 1866 1865 1865 1864 1864 1863 1863 1863 1861 1860 1860 1859 1858 1857 1857 1855 1855 1853 1850 1847 1845 1843 1840 1838 1835 1833 1831 1830 1829 1826 1823 1820 1819 1817 1814 1812 1811 1811 1808 1804 1803 1802 1801 1801 1801 1801 1801 1799 1798 1796 1795 1794 1794 1794 1795 1795 1795 1795 1794 1794 1794 1794 1794 1794 1793 1793 1793 1793 1793 1793 1794 1794 1795 1795 1798 1799 1799 1799 1799 1799 1799 1799 1800 1801 1802 1803 1804 1805 1806 1807 1808 1809 1810 1810 1810 1809 1808 1804 1804 1803 1803 1804 1804 1804 1804 1804 1804 1805 1807 1810 1812 1814 1815 1817 1817 1817 1817 1816 1814 1814 1814 1814 1814 1812 1812 1810 1806 1803 1797 1796 1796 1797 1802
1758 1758 1758 1756 1756 1756 1759 1759 1759 1759 1755 1752 1752 1750 1748 1748 1747 1746 1745 1744 1744 1744 1744 1744 1742 1741 1740 1735 1730 1722 1718 1717 1715 1715 1713 1712 1709 1709 1709 1709 1709 1709 1708 1692 1687 1687 1686 1686 1686 1685 1685 1686 1688 1690 1692 1693 1693 1693 1691 1690 1690 1689 1689 1689 1686 1683 1679 1679 1679 1684 1686 1686 1686 1681 1651 1612 1612 1612 1616 0 0 0 0 0 0 0 0 0 0 0 0 0 0 0 0 0 0 0 0 0 0 0 0 0 0 0 0 0 0 0 1696 1697 1702 1704 1704 1724 1753 1784 1818 1842 0 0 0 0 0 0 0 0 0 0 0 0 0 0 0 0 0 0 0 0 0 0 0 0 0 0 0 0 0 0 0 0 1642 1619 1612 1612 1612 1613 1614 1615 1615 1615 1616 1616 1616 1617 1617 1618 1619 1619 1620 1621 1622 1623 1623 1624 1624 1624 1625 1625 1627 1627 1629 1630 1631 1631 1633 1634 1636 1638 1641 1641 1642 1644 1646 1646 1652 1661 1663 1664 1665 0 0 0 0 0 1907 1908 1910 1911 1931 1935 1955 1955 1955 1946 1913 1913 1913 0 0 0 0 0 0 2022 2045 2063 2063 2065 2068 2068 2068 2081 2099 2105 2117 0 0 0 0 0 2126 2126 2126 2126 2129 2138 2191 2210 2210 2214 2221 0 0 0 0 0 2442 2454 2458 2461 2467 2471 2476 2488 2490 2491 2492 2495 2498 2501 2505 2506 2506 2506 2503 2503 2502 2502 2498 2498 2498 2499 2500 2501 2501 2502 2507 2516 2539 2550 2550 2560 2579 2579 2579 2577 2550 2545 2539 2535 2522 2512 2512 2509 2509 2505 2498 2498 2498 2500 2530 2602 2619 2627 2639 2654 2667 2677 2687 2687 2688 2691 2691 2691 2700 2706 2719 2729 2731 2731 2731 2730 2727 2724 2724 2724 2731 2744 2752 2752 2752 2745 2745 2745 2746 2752 2755 2752 2748 2748 2733 2670 2670 2670 2690 2690 2690 2688 2688 2688 2733 2833 2852 2861 2861 2861 2812 2713 2575 0 0 2318 2312 2310 2309 2303 2289 2257 2216 2204 2177 2172 2169 2159 2147 2140 2134 2127 2114 2105 2097 2090 2085 2083 2079 2075 2070 2065 2060 2055 2049 2044 2039 2035 2031 2027 2023 2018 2015 2010 2006 2001 1995 1991 1987 1984 1980 1974 1971 1969 1967 1964 1962 1960 1958 1957 1954 1953 1951 1949 1948 1946 1944 1941 1939 1936 1934 1932 1930 1927 1926 1925 1923 1922 1920 1918 1916 1914 1912 1911 1910 1908 1906 1906 1904 1903 1902 1900 1898 1897 1896 1894 1893 1891 1890 1889 1887 1887 1885 1884 1883 1881 1880 1879 1878 1876 1876 1875 1873 1873 1872 1872 1871 1870 1870 1869 1869 1869 1868 1867 1866 1866 1865 1865 1865 1864 1864 1863 1861 1861 1861 1860 1858 1858 1857 1856 1855 1853 1851 1850 1848 1846 1843 1841 1838 1837 1834 1833 1832 1830 1829 1829 1828 1828 1826 1822 1820 1819 1815 1811 1809 1808 1808 1806 1806 1806 1805 1804 1801 1799 1797 1797 1797 1797 1797 1797 1797 1797 1796 1795 1795 1795 1795 1795 1795 1795 1793 1793 1793 1793 1794 1795 1796 1797 1798 1799 1799 1799 1799 1799 1799 1799 1802 1802 1803 1804 1807 1808 1808 1808 1810 1810 1810 1810 1810 1810 1808 1804 1803 1802 1800 1800 1800 1800 1800 1802 1802 1805 1807 1810 1812 1814 1815 1817 1817 1817 1817 1816 1814 1814 1814 1813 1813 1813 1812 1812 1806 1797 1796 1796 1796 1796 1796
1762 1762 1762 1755 1753 1753 1753 1755 1755 1755 1754 1751 1751 1745 1745 1745 1745 1744 1744 1743 1742 1741 1740 1738 1736 1736 1735 1733 1728 1722 1717 1716 1715 1715 1711 1705 1703 1702 1702 1701 1701 1695 1687 1687 1686 1686 1685 1686 1686 1686 1687 1688 1689 1690 1692 1692 1692 1692 1688 1687 1687 1687 1687 1687 1685 1682 1678 1674 1674 1674 1677 1681 1681 1681 1662 1661 1660 1660 1660 1682 0 0 0 0 0 0 0 0 0 0 0 0 0 0 0 0 0 0 0 0 0 0 0 0 0 0 0 0 0 0 0 1697 1702 1726 1727 1756 1775 1806 1835 1863 0 0 0 0 0 0 0 0 0 0 0 0 0 0 0 0 0 0 0 0 0 0 0 0 0 0 0 0 0 0 0 0 1662 1628 1614 1614 1614 1615 1616 1616 1616 1615 1615 1615 1616 1617 1617 1618 1619 1619 1620 1621 1622 1622 1623 1623 1623 1624 1624 1625 1626 1627 1628 1630 1631 1633 1634 1635 1637 1639 1641 1643 1644 1645 1648 1656 1657 0 0 0 0 0 0 0 1889 1904 1908 1912 1916 1930 1931 1936 1955 1962 1962 1962 1946 1936 1924 0 0 0 0 0 0 0 2045 2063 2075 2075 2075 2076 2076 2081 2100 2114 2120 0 0 0 0 0 2092 2092 2092 2113 2123 2123 2191 2202 2202 2202 2199 2199 0 0 0 0 2388 2427 2452 2455 2456 2459 2462 2471 2483 2483 2484 2485 2486 2488 2494 2501 2501 2501 2501 2501 2500 2498 2498 2498 2498 2499 2500 2501 2501 2501 2500 2501 2501 2503 2522 2560 2573 2577 2577 2573 2550 2545 2539 2535 2532 2531 2531 2530 2523 2519 2518 2517 2517 2518 2537 2580 2608 2619 2634 2647 2658 2671 2672 2672 2672 2672 2672 2677 2686 2696 2710 2715 2716 2716 2716 2715 2716 2716 2716 2716 2723 2729 2729 2729 2720 2706 2706 2704 2703 2703 2703 2696 2696 2696 2660 2584 2577 2577 2577 2614 2650 2664 2664 2667 2733 2817 2851 2851 2851 2827 2784 2714 2567 0 0 2327 2312 2309 2307 2300 2289 2246 2200 2185 2177 2172 2169 2160 2149 2140 2133 2125 2112 2104 2097 2090 2085 2082 2079 2075 2069 2065 2060 2055 2049 2042 2037 2032 2029 2025 2021 2017 2014 2010 2006 2001 1995 1991 1987 1984 1979 1973 1969 1968 1965 1963 1960 1959 1956 1955 1952 1951 1949 1948 1946 1945 1943 1940 1938 1936 1933 1931 1929 1927 1925 1924 1922 1920 1919 1917 1915 1913 1912 1911 1909 1908 1906 1905 1904 1903 1902 1900 1898 1897 1895 1894 1893 1891 1890 1889 1888 1887 1886 1884 1883 1882 1880 1879 1878 1877 1876 1875 1874 1873 1872 1872 1871 1871 1870 1869 1869 1869 1869 1868 1867 1867 1866 1866 1865 1864 1864 1863 1862 1861 1861 1860 1860 1859 1858 1857 1855 1853 1851 1850 1849 1847 1845 1842 1841 1839 1838 1836 1833 1831 1831 1831 1831 1831 1831 1829 1826 1824 1824 1822 1818 1815 1813 1809 1809 1809 1808 1808 1806 1802 1801 1801 1801 1802 1802 1802 1801 1800 1798 1798 1798 1797 1797 1796 1796 1796 1794 1793 1793 1793 1794 1796 1796 1798 1799 1800 1800 1800 1800 1800 1800 1801 1802 1803 1804 1808 1810 1810 1811 1811 1811 1810 1810 1810 1810 1810 1809 1804 1803 1802 1800 1800 1800 1800 1800 1802 1802 1806 1810 1813 1814 1814 1815 1817 1817 1817 1817 1816 1816 1816 1814 1814 1813 1812 1812 1810 1804 1800 1798 1796 1796 1796 1796
1764 1764 1764 1755 1747 1747 1747 1750 1750 1750 1750 1747 1747 1742 1740 1740 1740 1740 1740 1740 1740 1736 1734 1732 1731 1731 1730 1729 1725 1719 1717 1715 1714 1712 1709 1705 1701 1698 1690 1683 1683 1683 1683 1683 1684 1685 1685 1686 1686 1687 1688 1688 1689 1690 1690 1690 1690 1688 1685 1684 1683 1683 1682 1682 1682 1681 1677 1672 1671 1671 1671 1671 1672 1672 1671 1663 1660 1660 1660 1682 1682 0 0 0 0 0 0 0 0 0 0 0 0 0 0 0 0 0 0 0 0 0 0 0 0 0 0 0 0 0 0 0 1745 1748 1759 1761 1792 1818 1852 0 0 0 0 0 0 0 0 0 0 0 0 0 0 0 0 0 0 0 0 0 0 2148 2145 2135 2135 2133 2107 0 0 0 0 0 1663 1629 1615 1615 1615 1615 1616 1616 1616 1615 1615 1615 1616 1617 1617 1618 1619 1619 1620 1621 1622 1622 1623 1623 1623 1624 1624 1625 1627 1627 1628 1630 1631 1633 1636 1636 1638 1638 1640 1643 1644 1653 1657 0 0 0 0 0 0 0 0 1859 1897 1908 1910 1914 1919 1931 1936 1936 1941 1955 1968 1981 1981 1981 1956 0 0 0 0 0 0 0 0 2063 2075 2098 2098 2102 2105 2105 2114 2120 2123 0 0 0 0 0 2085 2066 2066 2066 2096 2123 2190 2199 2199 2199 2191 2186 2186 0 0 0 2360 2377 2408 2425 2439 2445 2451 2458 2474 2474 2474 2474 2474 2475 2480 2488 2495 2496 2497 2497 2496 2491 2491 2491 2498 2498 2499 2500 2500 2500 2500 2495 2485 2485 2485 2488 2488 2492 2497 2507 2521 2535 2535 2535 2532 2531 2531 2530 2523 2519 2518 2518 2518 2532 2551 2578 2608 2616 2631 2639 2643 2650 2658 2658 2658 2656 2656 2656 2674 2687 2693 2695 2696 2696 2696 2696 2698 2704 2710 2710 2720 2720 2720 2712 2702 2697 2697 2672 2628 2617 2612 2607 2579 2574 2524 0 0 0 0 0 2537 2612 2657 2662 2733 2809 2841 2841 2841 2805 2774 2716 2538 0 2359 2330 2324 2314 2307 2300 2280 2221 2185 2185 2175 2172 2169 2160 2149 2140 2133 2122 2111 2104 2097 2090 2086 2082 2079 2075 2069 2063 2057 2054 2048 2041 2036 2030 2026 2024 2019 2015 2012 2010 2006 1999 1994 1990 1987 1983 1979 1973 1968 1964 1962 1962 1960 1957 1955 1953 1951 1949 1948 1945 1944 1943 1941 1940 1938 1935 1933 1930 1929 1927 1925 1923 1922 1920 1918 1916 1915 1913 1912 1911 1909 1907 1906 1904 1904 1902 1902 1899 1898 1897 1895 1894 1893 1891 1890 1888 1888 1887 1886 1884 1883 1882 1880 1879 1878 1877 1876 1876 1874 1873 1873 1873 1872 1872 1870 1870 1870 1870 1869 1868 1867 1867 1867 1866 1866 1865 1864 1863 1863 1862 1861 1860 1860 1860 1859 1859 1856 1854 1852 1851 1849 1847 1846 1844 1843 1841 1840 1838 1836 1834 1834 1833 1833 1833 1832 1831 1831 1829 1827 1827 1824 1823 1821 1816 1816 1815 1814 1810 1810 1810 1810 1807 1806 1805 1804 1803 1803 1803 1804 1804 1804 1804 1803 1801 1800 1800 1799 1799 1798 1796 1796 1796 1797 1800 1800 1800 1802 1802 1803 1803 1803 1804 1804 1808 1808 1809 1811 1813 1813 1813 1812 1812 1812 1814 1816 1816 1816 1811 1805 1802 1800 1800 1800 1800 1800 1802 1806 1810 1816 1818 1818 1818 1818 1818 1818 1818 1817 1817 1817 1816 1816 1815 1813 1812 1812 1810 1802 1802 1799 1798 1798 1796 1781
1764 1764 1764 1754 1745 1745 1745 1747 1747 1747 1746 1743 1740 1739 1736 1735 1735 1735 1735 1735 1735 1732 1728 1725 1722 1722 1722 1722 1722 1717 1714 1713 1711 1710 1699 1692 1686 1684 1680 1679 1679 1679 1682 1682 1683 1685 1685 1686 1686 1687 1688 1688 1688 1688 1687 1687 1686 1685 1683 1683 1681 1680 1680 1680 1679 1679 1675 1671 1669 1669 1669 1671 1672 1672 1671 1666 1664 1660 1660 1660 1660 1655 0 0 0 0 0 0 0 0 0 0 0 0 0 0 0 0 0 0 0 0 0 0 0 0 0 0 0 0 0 0 1760 1771 1774 1789 1796 1821 0 0 0 0 0 2197 2244 0 0 0 0 0 0 0 0 0 0 0 0 0 0 0 2151 2148 2145 2135 2135 2133 2105 2072 0 0 0 0 0 1640 1620 1615 1615 1616 1616 1616 1616 1615 1615 1615 1616 1617 1617 1618 1619 1619 1620 1621 1622 1623 1623 1623 1623 1624 1624 1625 1627 1627 1628 1631 1632 1635 1638 1639 1639 1641 1641 1643 1650 0 0 0 0 0 0 0 0 0 1866 1866 1902 1910 1916 1918 1931 1931 1931 1932 1932 1932 1962 1989 1989 1989 1982 0 0 0 0 0 0 0 0 2040 2070 2102 2114 2116 2117 2118 2117 2116 2114 2114 0 0 0 0 2062 2062 2062 2063 2092 2141 2190 2198 2198 2198 2186 2173 2173 2173 0 0 0 2361 2371 2393 2411 2419 2439 2450 2461 2461 2461 2464 2464 2465 2472 2477 2484 2490 2490 2490 2488 2488 2488 2489 2496 2498 2499 2500 2499 2498 2498 2495 2485 2485 2485 2486 2486 2486 2472 2472 2472 2487 2513 2531 2531 2531 2531 2530 2523 2519 2519 2519 2519 2536 2551 2576 2599 2614 2629 2630 2630 2633 2641 2641 2643 2646 2646 2654 2671 2676 2677 2678 2678 2678 2680 2681 2683 2690 2699 2700 2700 2699 2681 2654 2653 2636 2636 2549 0 0 0 0 0 0 0 0 0 0 0 0 0 2571 2624 2651 2738 2805 2821 2821 2821 2794 2774 2716 2518 0 2359 2333 2325 2315 2307 2300 2263 2200 2185 2184 2174 2171 2169 2160 2149 2140 2132 2122 2111 2104 2097 2090 2086 2082 2079 2075 2067 2060 2054 2050 2045 2039 2034 2029 2024 2020 2016 2014 2011 2007 2003 1999 1993 1989 1987 1983 1979 1973 1968 1964 1962 1958 1957 1956 1953 1951 1949 1947 1946 1944 1943 1941 1940 1938 1936 1934 1933 1930 1928 1927 1925 1923 1922 1919 1917 1916 1914 1912 1912 1910 1909 1907 1905 1904 1903 1901 1900 1899 1898 1896 1895 1894 1892 1891 1890 1888 1888 1887 1885 1884 1883 1882 1880 1879 1878 1877 1876 1876 1875 1874 1874 1873 1873 1872 1871 1871 1871 1870 1869 1868 1868 1868 1867 1866 1866 1865 1864 1863 1863 1862 1862 1861 1861 1860 1860 1859 1857 1855 1853 1851 1851 1849 1847 1846 1844 1843 1842 1841 1839 1837 1836 1835 1835 1834 1834 1833 1832 1832 1831 1831 1829 1828 1825 1822 1820 1820 1820 1820 1819 1818 1816 1814 1811 1811 1811 1811 1811 1811 1810 1809 1808 1807 1807 1807 1806 1806 1804 1804 1802 1800 1799 1799 1799 1801 1801 1802 1803 1804 1804 1806 1806 1806 1806 1809 1810 1810 1811 1813 1813 1813 1814 1814 1814 1818 1823 1823 1823 1819 1813 1808 1806 1805 1804 1804 1804 1805 1810 1815 1822 1822 1822 1822 1820 1820 1819 1818 1818 1818 1818 1818 1818 1815 1809 1809 1806 1804 1804 1804 1804 1804 1804 1800 1770
1764 1764 1764 1754 1744 1744 1743 1743 1743 1743 1741 1741 1737 1737 1735 1732 1731 1730 1730 1730 1729 1728 1722 1716 1714 1714 1714 1714 1714 1714 1713 1710 1709 1708 1697 1688 1678 1677 1677 1678 1678 1678 1680 1682 1682 1683 1685 1686 1686 1687 1688 1688 1688 1685 1684 1684 1683 1682 1681 1680 1680 1680 1677 1677 1677 1676 1674 1671 1669 1669 1669 1671 1671 1671 1672 1672 1672 1661 1660 1650 1650 1648 1645 0 0 0 0 0 0 0 0 0 0 0 0 0 0 0 0 0 0 0 0 0 0 0 0 0 0 0 0 0 0 1771 1774 1795 1797 1829 0 0 0 0 2164 2197 2254 2258 2258 0 0 0 0 0 0 0 0 0 0 0 0 0 2151 2148 2145 2135 2135 2133 2072 2064 0 0 0 0 0 0 1635 1620 1620 1616 1616 1615 1615 1615 1615 1615 1616 1617 1617 1618 1619 1620 1620 1621 1622 1622 1623 1623 1624 1625 1627 1628 1628 1628 1629 1631 1638 1638 1641 1642 1642 1642 1642 1643 0 0 0 0 0 0 0 0 0 1903 1903 1903 1907 1910 1916 1933 1933 1933 1930 1930 1930 1932 1962 1990 2010 2010 2010 0 0 0 0 0 0 0 0 0 2066 2102 2114 2117 2118 2118 2117 2115 2100 2100 2090 0 0 2041 2016 2016 2016 2062 2092 2142 2190 2198 2198 2198 2177 2173 2161 2161 2161 0 0 2339 2347 2378 2395 2397 2406 2419 2452 2452 2452 2450 2450 2450 2468 2474 2478 2480 2480 2480 2479 2479 2479 2486 2493 2497 2497 2498 2498 2498 2498 2498 2485 2485 2485 2486 2486 2486 2472 2472 2472 2487 2492 2497 2502 2503 2505 2514 2514 2519 2521 2521 2536 2536 2551 2573 2591 2612 2626 2626 2627 2629 2629 2633 2634 2639 2641 2651 2659 2661 2662 2670 2670 2670 2668 2668 2668 2674 2674 2674 2674 2672 2585 0 0 0 0 0 0 0 0 0 0 0 0 0 0 0 0 0 0 2571 2624 2646 2738 2804 2810 2810 2810 2794 2767 2714 2515 0 2342 2333 2325 2315 2299 2275 2226 2192 2185 2184 2174 2170 2164 2157 2148 2138 2132 2122 2111 2105 2097 2090 2086 2082 2078 2074 2063 2057 2051 2048 2043 2037 2032 2027 2023 2018 2015 2012 2009 2004 2000 1996 1993 1989 1985 1982 1977 1973 1968 1964 1962 1958 1955 1953 1952 1949 1947 1946 1944 1944 1942 1939 1938 1937 1936 1934 1932 1930 1928 1926 1924 1922 1921 1919 1917 1915 1913 1912 1911 1910 1909 1906 1905 1903 1903 1901 1900 1898 1897 1896 1894 1893 1892 1891 1889 1888 1887 1886 1885 1883 1883 1882 1880 1879 1878 1877 1877 1876 1875 1874 1874 1874 1873 1873 1872 1872 1871 1870 1870 1870 1868 1868 1868 1867 1866 1865 1865 1864 1864 1864 1862 1862 1861 1861 1860 1859 1858 1856 1855 1853 1853 1851 1850 1847 1845 1844 1843 1841 1841 1839 1839 1837 1837 1836 1836 1835 1834 1833 1833 1832 1832 1832 1832 1829 1825 1825 1825 1825 1825 1821 1820 1818 1815 1815 1815 1816 1816 1816 1814 1814 1813 1813 1813 1813 1815 1815 1815 1811 1807 1803 1803 1803 1803 1803 1804 1804 1804 1806 1806 1806 1806 1806 1806 1810 1810 1811 1811 1813 1815 1815 1816 1816 1816 1822 1828 1829 1829 1829 1823 1821 1818 1817 1816 1812 1812 1812 1814 1821 1826 1826 1826 1822 1820 1820 1820 1818 1818 1818 1816 1816 1815 1805 1805 1802 1801 1802 1806 1811 1814 1814 1814 1800 1770
1758 1758 1758 1748 1744 1744 1742 1739 1738 1736 1735 1735 1735 1735 1734 1730 1729 1725 1724 1723 1723 1720 1714 1707 1702 1702 1702 1702 1707 1707 1707 1707 1700 1684 1672 1672 1672 1676 1678 1678 1678 1680 1680 1682 1682 1683 1684 1684 1684 1685 1685 1684 1684 1683 1681 1681 1678 1678 1677 1677 1677 1677 1674 1674 1673 1673 1672 1671 1669 1669 1669 1670 1670 1671 1672 1673 1673 1673 1660 1650 1650 1648 1644 1632 0 0 0 0 0 0 0 0 0 0 0 0 0 0 0 0 0 0 0 0 0 0 0 0 0 0 0 0 0 0 1774 1800 1834 0 0 0 0 2130 2164 2197 2254 2258 2269 2277 2277 2286 2295 2296 2296 2295 0 0 0 0 0 0 2184 2184 2183 2172 2165 2137 2072 2064 0 0 0 0 0 0 0 1642 1622 1616 1614 1614 1615 1615 1615 1616 1616 1617 1618 1618 1619 1620 1620 1622 1622 1623 1624 1624 1627 1628 1629 1630 1631 1632 1633 1636 1639 1645 1646 1646 1645 1644 1644 0 0 0 0 0 0 0 0 0 0 1944 1939 1938 1938 1938 1942 1945 1945 1945 1926 1926 1926 1932 1962 1995 2016 2016 2016 2006 0 0 0 0 0 0 0 0 2058 2093 2114 2118 2118 2118 2112 2108 2100 2100 2090 0 0 2012 2012 2012 2016 2062 2092 2142 2190 2196 2196 2196 2177 2174 2153 2153 2153 2168 0 2264 2315 2320 2329 2341 2389 2397 2417 2436 2441 2441 2441 2441 2444 2453 2462 2466 2466 2466 2466 2468 2473 2481 2485 2486 2487 2487 2490 2495 2498 2498 2498 2498 2493 2493 2492 2486 2472 2472 2472 2487 2492 2497 2502 2503 2505 2514 2514 2517 2517 2526 2530 2536 2551 2567 2583 2607 2623 2623 2623 2625 2623 2623 2625 2628 2634 2643 2647 2653 2661 2663 2664 2664 2664 2651 2635 2624 2624 2606 2600 2543 0 0 0 0 0 0 0 0 0 0 0 0 0 0 0 0 0 0 0 2570 2620 2633 2738 2794 2804 2804 2804 2789 2766 2684 2501 0 2340 2333 2325 2314 2277 2232 2208 2192 2188 2184 2173 2167 2159 2152 2142 2137 2129 2123 2113 2105 2097 2090 2086 2081 2076 2073 2063 2055 2050 2045 2040 2035 2031 2026 2020 2017 2013 2011 2007 2003 1999 1993 1991 1988 1985 1981 1976 1972 1968 1964 1962 1958 1955 1953 1951 1948 1946 1945 1944 1943 1942 1939 1937 1937 1935 1934 1932 1930 1927 1925 1923 1921 1919 1918 1916 1914 1913 1912 1910 1909 1908 1906 1905 1903 1902 1901 1900 1898 1896 1895 1894 1893 1891 1891 1889 1888 1887 1886 1884 1883 1882 1881 1880 1878 1878 1877 1877 1876 1876 1875 1874 1874 1874 1873 1872 1872 1872 1871 1871 1870 1870 1869 1869 1868 1868 1867 1867 1866 1865 1864 1864 1864 1862 1861 1860 1860 1858 1858 1856 1855 1853 1853 1850 1848 1846 1845 1844 1843 1842 1841 1841 1840 1840 1839 1839 1837 1836 1835 1834 1833 1833 1833 1833 1831 1830 1829 1829 1828 1825 1822 1820 1819 1818 1818 1818 1818 1818 1818 1818 1818 1817 1818 1818 1819 1821 1821 1821 1818 1815 1813 1812 1812 1812 1812 1813 1815 1815 1815 1814 1808 1806 1806 1806 1811 1811 1814 1814 1817 1817 1817 1822 1822 1827 1832 1835 1835 1835 1834 1831 1829 1827 1825 1825 1824 1822 1822 1822 1828 1828 1828 1826 1823 1821 1821 1820 1817 1817 1815 1814 1810 1801 1801 1801 1798 1798 1802 1803 1813 1815 1815 1815 1801 1770
1757 1757 1756 1746 1740 1740 1740 1735 1732 1730 1730 1730 1732 1732 1732 1730 1728 1723 1718 1716 1716 1714 1709 1699 1694 1694 1694 1695 1696 1696 1696 1673 1657 1657 1657 1664 1672 1676 1678 1678 1678 1678 1678 1679 1680 1681 1681 1681 1681 1681 1681 1680 1680 1678 1678 1677 1675 1675 1674 1674 1674 1673 1670 1670 1670 1670 1670 1670 1669 1669 1669 1670 1670 1671 1672 1673 1674 1674 1674 1660 1648 1641 1639 1631 1605 0 0 0 0 0 0 0 0 0 0 0 0 0 0 0 0 0 0 0 0 0 0 0 0 0 0 0 0 0 0 0 0 0 0 0 2100 2130 2148 2178 2207 2228 2258 2269 2277 2286 2295 2296 2298 2299 2299 2299 0 0 0 0 2251 2241 2238 2231 2183 2137 2072 0 0 0 0 0 0 0 0 0 1633 1614 1614 1614 1614 1616 1616 1616 1616 1617 1618 1618 1619 1620 1621 1622 1623 1623 1624 1626 1629 1630 1630 1631 1632 1633 1636 1642 1643 1647 1648 1652 0 0 0 0 0 0 0 0 0 0 0 0 0 1980 1972 1970 1970 1972 1972 1972 1972 1954 1926 1926 1926 1964 1983 1995 2016 2025 2025 2025 0 0 0 0 0 0 0 0 2057 2084 2102 2107 2112 2112 2112 2108 2104 2100 2100 0 0 2012 2012 2012 2016 2072 2100 2142 2158 2175 2176 2176 2175 2175 2154 2154 2154 2159 0 0 2259 2292 2318 2339 2346 2350 2373 2402 2418 2420 2437 2438 2438 2439 2442 2443 2445 2446 2446 2454 2465 2472 2481 2481 2481 2482 2482 2482 2492 2498 2498 2498 2493 2493 2493 2493 2490 2489 2489 2489 2492 2497 2502 2503 2505 2514 2514 2515 2516 2526 2532 2535 2547 2558 2571 2588 2603 2613 2615 2615 2615 2614 2614 2614 2614 2626 2632 2637 2655 2655 2655 2639 2611 2592 2591 2561 2559 2512 0 0 0 0 0 0 0 0 0 0 0 0 0 0 0 0 0 0 0 0 0 2570 2616 2633 2711 2720 2760 2785 2785 2785 2760 2599 0 0 2327 2323 2322 2295 2241 2217 2205 2192 2192 2184 2174 2166 2156 2147 2142 2136 2129 2123 2113 2105 2097 2090 2085 2080 2075 2068 2059 2053 2048 2042 2038 2034 2029 2024 2020 2016 2011 2009 2007 2002 1997 1992 1989 1986 1983 1978 1975 1971 1968 1964 1962 1958 1954 1953 1950 1947 1945 1943 1942 1942 1941 1939 1937 1935 1935 1933 1931 1930 1927 1925 1923 1921 1919 1917 1915 1914 1912 1912 1910 1909 1907 1905 1904 1902 1901 1900 1898 1897 1896 1895 1894 1893 1891 1891 1889 1888 1887 1886 1884 1883 1881 1880 1879 1878 1878 1877 1876 1876 1876 1875 1874 1874 1874 1873 1873 1872 1872 1872 1871 1870 1870 1869 1869 1869 1868 1868 1868 1867 1865 1865 1864 1864 1862 1862 1861 1860 1859 1858 1857 1857 1855 1853 1852 1850 1848 1846 1845 1845 1844 1843 1842 1842 1841 1841 1841 1840 1840 1839 1837 1836 1836 1836 1836 1836 1836 1835 1833 1831 1828 1826 1824 1823 1823 1822 1820 1819 1819 1819 1820 1821 1822 1824 1824 1825 1825 1825 1825 1824 1822 1822 1822 1823 1825 1826 1826 1826 1826 1826 1825 1822 1806 1806 1806 1813 1815 1816 1817 1823 1830 1831 1831 1837 1844 1844 1844 1846 1844 1844 1844 1845 1845 1845 1843 1840 1830 1830 1830 1832 1832 1832 1827 1824 1824 1823 1820 1817 1817 1815 1814 1810 1801 1801 1801 1798 1802 1802 1803 1815 1821 1821 1821 1816 1791
1756 1756 1754 1739 1738 1738 1738 1732 1726 1724 1724 1724 1726 1726 1726 1725 1723 1720 1711 1710 1709 1709 1705 1695 1686 1684 1677 1675 1674 1673 1661 1657 1655 1655 1657 1664 1672 1679 1679 1679 1678 1678 1678 1678 1678 1678 1678 1678 1678 1678 1678 1678 1678 1676 1675 1675 1673 1672 1672 1672 1671 1671 1669 1668 1668 1668 1668 1668 1668 1669 1669 1669 1669 1669 1669 1669 1674 1674 1674 1672 1658 1639 1635 1622 1605 0 0 0 0 0 0 0 0 0 0 0 0 0 0 0 0 0 0 0 0 0 0 0 0 0 0 0 0 0 0 0 0 0 0 2080 2100 2115 2147 2164 2183 2202 2225 2251 2269 2286 2295 2296 2298 2299 2314 2324 2324 2324 2313 2294 2289 2280 2240 2238 2183 2148 0 0 0 0 0 0 0 0 0 0 1642 1614 1614 1614 1614 1616 1616 1617 1617 1618 1618 1619 1619 1621 1621 1622 1623 1625 1627 1628 1630 1631 1631 1632 1632 1634 1639 1649 1662 1669 1677 1688 0 0 0 0 0 0 0 0 2147 2147 2126 2096 2038 2021 2021 2018 2008 2007 1992 1988 1985 1954 1931 1931 1931 1964 1983 1995 1995 2026 2026 2026 2026 0 0 0 0 0 0 0 2057 2084 2095 2106 2109 2109 2109 2108 2107 2100 0 0 0 0 1995 1995 2059 2094 2112 2142 2145 2151 2163 2169 2163 2163 2154 2154 2154 2156 0 0 2255 2258 2270 2282 2294 2303 2318 0 0 0 2417 2433 2433 2434 2436 2437 2443 2444 2445 2450 2456 2462 2470 2473 2474 2476 2476 2478 2487 2498 2498 2498 2493 2493 2493 2493 2493 2493 2493 2502 2510 2511 2511 2512 2515 2515 2515 2517 2518 2528 2536 2537 2539 2551 2563 2574 2585 2589 2593 2597 2602 2602 2603 2603 2607 2607 2611 2625 2630 2630 2630 2575 0 0 0 0 0 0 0 0 0 0 0 0 0 0 0 0 0 0 0 0 0 0 0 0 0 0 0 2570 2613 2632 2637 2649 2683 2734 2734 2734 2732 2548 0 2318 2316 2315 2314 2274 2229 2210 2203 2196 2192 2183 2173 2164 2154 2147 2140 2136 2129 2123 2113 2104 2096 2089 2083 2077 2072 2064 2059 2052 2045 2039 2034 2029 2026 2021 2017 2013 2010 2008 2005 2001 1997 1992 1986 1983 1979 1976 1973 1969 1968 1964 1962 1958 1954 1952 1950 1947 1945 1943 1942 1942 1941 1939 1937 1935 1934 1932 1931 1928 1926 1924 1923 1921 1919 1917 1915 1913 1912 1911 1910 1908 1906 1904 1903 1902 1900 1899 1898 1897 1896 1895 1894 1893 1891 1890 1889 1888 1887 1885 1883 1882 1881 1879 1879 1878 1877 1876 1876 1876 1875 1875 1874 1874 1874 1873 1873 1873 1872 1872 1871 1871 1870 1870 1869 1869 1869 1868 1868 1867 1866 1865 1865 1864 1863 1862 1861 1860 1859 1858 1858 1857 1856 1854 1853 1851 1849 1848 1848 1847 1846 1844 1843 1842 1842 1842 1842 1841 1841 1840 1839 1839 1837 1837 1837 1836 1836 1836 1834 1832 1830 1829 1827 1827 1826 1825 1824 1823 1823 1823 1823 1824 1825 1825 1829 1830 1831 1831 1831 1830 1830 1830 1830 1832 1833 1833 1833 1835 1835 1835 1829 1826 1825 1825 1825 1826 1827 1831 1834 1835 1838 1840 1842 1846 1850 1850 1851 1854 1856 1861 1861 1861 1861 1860 1853 1851 1845 1845 1845 1844 1844 1844 1843 1843 1843 1842 1823 1817 1817 1815 1814 1810 1801 1801 1801 1799 1803 1807 1807 1816 1828 1828 1828 1821 1816
1750 1750 1739 1732 1732 1732 1732 1730 1719 1716 1716 1716 1717 1717 1717 1717 1716 1713 1711 1709 1708 1708 1704 1692 1679 1679 1671 1640 1640 1640 1640 1645 1648 1655 1657 1664 1677 1679 1679 1679 1678 1678 1678 1678 1678 1677 1677 1677 1677 1677 1677 1677 1676 1675 1673 1672 1670 1670 1670 1670 1669 1669 1667 1667 1667 1667 1667 1667 1667 1666 1664 1664 1664 1664 1665 1666 1666 1672 1672 1672 1664 1644 1635 1610 1605 0 0 0 0 0 0 0 0 0 0 0 0 0 0 0 0 0 0 0 0 0 0 0 0 0 0 0 0 0 0 0 0 0 2075 2087 2100 2111 2138 2161 2175 2182 2199 2216 2230 2254 2274 2281 2292 2299 2314 2324 2324 2324 2324 2314 2310 2280 2240 2238 2228 2228 2228 2217 2217 2217 2210 0 0 0 0 0 0 1615 1615 1615 1616 1616 1616 1617 1618 1618 1618 1619 1620 1622 1622 1623 1624 1625 1627 1629 1631 1633 1633 1633 1634 1635 1639 1650 0 0 0 0 0 0 0 0 0 0 0 2106 2106 2106 2100 2083 2055 2034 2031 2027 2026 2022 2002 2001 2001 1998 1997 1975 1975 1972 1972 0 1987 2012 2024 2042 2052 2052 0 0 0 0 0 0 2057 2084 2095 2105 2109 2109 2109 2108 2107 0 0 0 0 0 0 1995 2059 2094 2112 2132 2145 2151 2154 2165 2154 2154 2151 2141 2141 0 0 0 0 2254 2266 2266 2266 2251 2251 0 0 0 2376 2390 2392 2403 2423 2427 2434 2435 2438 2444 2448 2454 2460 2466 2468 2469 2470 2476 2486 2489 2489 2489 2489 2489 2490 2490 2492 2493 2493 2503 2513 2514 2514 2515 2515 2515 2515 2517 2523 2529 2534 2535 2537 2543 2556 2572 2578 2580 2580 2581 2586 2587 2589 2596 2596 2596 2565 2554 2543 2508 0 0 0 0 0 0 0 0 0 0 0 0 0 0 0 0 0 0 0 0 0 0 0 0 0 0 0 0 0 2507 2606 2620 2626 2634 2637 2663 2667 2667 2667 0 0 2311 2310 2310 2310 2266 2221 2209 2201 2196 2192 2183 2173 2164 2154 2147 2139 2135 2129 2121 2110 2099 2093 2088 2080 2072 2067 2061 2056 2052 2045 2039 2032 2026 2022 2018 2015 2011 2008 2006 2003 2000 1995 1989 1984 1980 1976 1974 1971 1968 1965 1962 1961 1957 1954 1952 1948 1947 1944 1943 1942 1940 1940 1938 1936 1935 1934 1932 1930 1928 1926 1925 1923 1921 1919 1917 1915 1913 1912 1911 1910 1908 1906 1904 1903 1901 1900 1899 1898 1897 1896 1894 1894 1893 1891 1890 1889 1888 1887 1885 1883 1882 1880 1879 1878 1878 1877 1876 1876 1875 1875 1874 1874 1874 1874 1873 1873 1873 1872 1872 1871 1871 1870 1870 1869 1869 1869 1869 1868 1867 1866 1865 1865 1864 1863 1862 1861 1861 1860 1860 1858 1857 1856 1855 1854 1853 1852 1850 1849 1848 1848 1846 1845 1843 1843 1843 1842 1842 1842 1841 1841 1840 1838 1837 1837 1837 1837 1836 1834 1832 1830 1829 1828 1828 1828 1827 1826 1826 1826 1826 1826 1827 1829 1829 1831 1832 1832 1833 1833 1833 1834 1835 1835 1836 1837 1837 1838 1838 1838 1838 1838 1837 1836 1836 1836 1836 1838 1839 1841 1843 1845 1847 1848 1851 1854 1857 1860 1865 1874 1875 1875 1874 1867 1860 1856 1853 1850 1850 1850 1850 1850 1850 1850 1850 1846 1844 1842 1837 1830 1827 1827 1820 1815 1815 1815 1815 1815 1817 1817 1829 1838 1838 1838 1829 1826
