1673 1689 1700 1705 1705 1706 1706 1705 1705 1705 1705 1710 1727 1744 1758 1774 1789 1802 1811 1825 1828 1856 1890 1934 1974 2008 2036 2069 2101 2156 2196 2219 2249 2268 2285 2302 2334 2359 2396 2426 2452 2476 2483 2484 2487 2496 2509 2517 2524 2528 2534 2537 2541 2546 2554 2562 2567 2568 2573 2580 2594 2603 2610 2616 2625 2631 2640 2647 2661 2668 2671 2674 2683 2687 2690 2690 2690 2685 2685 2685 2687 2697 2708 2720 2729 2738 2747 2756 2756 2756 2756 2755 2755 2746 2725 2717 2717 2713 2713 2712 2696 2674 2626 2561 2536 0 0 0 0 0 0 0 0 0 0 0 0 0 2054 2046 2045 2018 2016 2000 1999 1997 1994 1994 1994 2012 2033 2034 2034 2034 2007 2003 1963 1963 1963 1977 2001 2006 2013 2036 2036 2047 0 0 0 0 0 0 0 2668 2852 2993 3161 3225 3366 3486 3543 3571 3576 3577 3577 3581 3585 3599 3612 3613 3619 3619 3624 3624 3624 3626 3626 3626 3624 3619 3618 3618 3618 3623 3625 3631 3636 3643 3650 3652 3654 3660 3667 3673 3674 3674 3678 3679 3680 3685 3690 3696 3699 3700 3704 3708 3708 3708 3707 3703 3701 3698 3696 3695 3693 3692 3689 3687 3687 3687 3686 3686 3686 3686 3688 3691 3694 3696 3696 3698 3699 3700 3703 3706 3710 3713 3715 3717 3718 3720 3721 3730 3736 3744 3746 3750 3753 3758 3763 3768 3769 3769 3769 3769 3768 3768 3768 3768 3768 3768 3767 3766 3765 3765 3764 3764 3763 3762 3756 3748 3742 3737 3733 3726 3719 3716 3716 3714 3716 3716 3717 3722 3728 3735 3745 3749 3749 3749 3735 3669 3313 2819 2548 2478 2444 2413 2397 2392 2389 2386 2384 2382 2379 2375 2366 2360 2356 2351 2347 2346 2344 2341 2337 2334 2331 2330 2328 2326 2322 2318 2313 2309 2305 2303 2299 2298 2296 2294 2294 2293 2293 2293 2293 2293 2294 2294 2295 2296 2299 2300 2300 2302 2303 2304 2304 2304 2304 2303 2302 2300 2297 2294 2292 2287 2283 2269 2223 2200 2172 2141 2121 2104 2090 2079 2072 2067 2063 2061 2057 2056 2052 2049 2046 2044 2041 2039 2035 2027 2022 2015 2007 2002 1990 1980 1966 1949 1942 1936 1931 1928 1924 1919 1914 1911 1907 1905 1903 1899 1894 1890 1887 1883 1880 1877 1875 1872 1871 1869 1867 1866 1864 1863 1862 1861 1860 1860 1859 1859 1859 1859 1859 1859 1860 1861 1861 1862 1862 1862 1862 1862 1862 1862 1862 1862 1861 1861 1860 1859 1857 1857 1855 1854 1853 1852 1850 1847 1844 1841 1839 1837 1833 1829 1826 1823 1821 1818 1815 1812 1809 1806 1803 1802 1800 1798 1796 1796 1795 1795 1795 1795 1795 1796 1799 1803 1805 1807 1810 1814 1818 1820 1822 1824 1826 1827 1829 1830 1830 1830 1831 1831 1831 1831 1831 1830 1830 1830 1830 1829 1829 1828 1827 1826 1825 1824 1823 1821 1820 1818 1817 1815 1814 1813 1812 1810 1808 1806 1806 1805 1803 1802 1800 1798 1797 1795 1794 1794 1794 1793 1793 1793 1794 1794 1797 1801 1807 1811 1822 1825 1828 1831 1833 1836 1838 1839 1840 1841 1842 1842 1843 1842 1842 1842 1842 1841 1840 1840 1839 1838 1837 1835 1835 1834 1833 1833 1832 1831 1831 1830 1830 1830 1830 1831 1833 1833 1835 1835 1842 1869 1886 1897 1914 1926 1938 1951 1961 1968 1978 1981 1981 1981 1977 1976 1972 1970 1965 1960 1955 1948 1944 1940 1935 1930 1925 1921 1918 1917 1916 1915 1912 1910 1908 1908 1907 1906 1903 1899 1897 1896 1894 1893 1892 1889 1886 1884 1884 1884 1884 1884 1884 1880 1878
1673 1689 1694 1694 1699 1702 1705 1705 1705 1705 1705 1710 1718 1733 1752 1774 1793 1813 1823 1826 1828 1856 1890 1934 1974 2008 2036 2070 2113 2154 2193 2219 2249 2268 2282 2302 2334 2363 2386 2413 2437 2460 2473 2478 2483 2496 2510 2518 2524 2528 2534 2540 2545 2550 2557 2564 2567 2570 2577 2588 2599 2608 2610 2616 2623 2631 2640 2650 2662 2668 2671 2674 2676 2683 2690 2690 2690 2685 2685 2685 2688 2703 2717 2722 2729 2738 2747 2756 2758 2760 2760 2768 2768 2768 2748 2746 2746 2748 2758 2766 2766 2766 2766 2766 2751 2724 2700 2688 2662 2600 2540 0 0 0 0 0 0 0 0 0 0 0 0 0 0 2004 2004 2004 2016 2030 2048 2064 2064 2064 2058 2014 1963 1963 1963 1977 1979 1981 1988 1999 2003 2015 2034 2055 2062 2062 0 0 0 0 0 0 0 0 2699 3013 3056 3143 3314 3430 3473 3556 3584 3593 3609 3613 3619 3619 3624 3624 3624 3626 3628 3628 3628 3623 3622 3622 3622 3624 3630 3631 3631 3640 3650 3652 3654 3660 3667 3673 3673 3673 3675 3675 3678 3685 3688 3693 3697 3700 3704 3708 3708 3708 3708 3702 3700 3698 3697 3694 3691 3689 3688 3687 3687 3687 3686 3686 3686 3686 3688 3692 3694 3696 3698 3698 3699 3700 3703 3706 3710 3713 3714 3716 3718 3720 3725 3730 3735 3740 3743 3744 3748 3754 3760 3764 3766 3767 3767 3767 3768 3768 3768 3768 3768 3768 3767 3767 3765 3765 3765 3765 3765 3765 3758 3752 3746 3739 3734 3727 3719 3718 3717 3717 3717 3718 3725 3732 3736 3743 3747 3752 3752 3752 3735 3665 3267 2790 2543 2483 2446 2421 2401 2393 2390 2384 2379 2376 2373 2368 2360 2355 2351 2349 2345 2342 2340 2340 2337 2334 2331 2330 2328 2327 2323 2320 2317 2313 2309 2306 2303 2302 2300 2298 2297 2296 2296 2295 2295 2295 2295 2296 2296 2297 2299 2301 2303 2304 2305 2305 2306 2306 2306 2306 2305 2302 2299 2298 2296 2293 2289 2276 2230 2203 2179 2142 2124 2104 2090 2079 2072 2068 2064 2061 2057 2055 2052 2048 2045 2043 2041 2038 2035 2031 2025 2021 2013 2005 1995 1988 1972 1954 1944 1939 1935 1932 1928 1922 1917 1911 1907 1905 1903 1899 1894 1891 1887 1883 1880 1877 1875 1872 1870 1869 1868 1866 1864 1863 1863 1861 1860 1860 1859 1859 1859 1859 1859 1859 1859 1859 1860 1861 1861 1861 1861 1861 1861 1861 1861 1861 1861 1860 1859 1859 1857 1857 1855 1854 1853 1852 1851 1847 1845 1842 1840 1837 1834 1831 1828 1825 1823 1820 1818 1814 1810 1807 1805 1803 1801 1799 1796 1796 1795 1794 1794 1794 1794 1794 1797 1800 1803 1805 1808 1812 1815 1818 1819 1822 1825 1827 1828 1828 1829 1830 1830 1830 1830 1830 1830 1830 1830 1830 1830 1829 1829 1828 1827 1827 1826 1824 1823 1822 1821 1819 1818 1816 1815 1815 1812 1811 1809 1809 1806 1806 1804 1802 1801 1799 1798 1797 1795 1794 1794 1794 1794 1794 1794 1794 1796 1800 1805 1809 1813 1823 1826 1828 1832 1835 1838 1839 1841 1842 1843 1843 1843 1843 1843 1843 1843 1842 1842 1840 1840 1839 1838 1838 1837 1836 1835 1834 1834 1833 1833 1832 1832 1832 1833 1833 1834 1838 1838 1840 1843 1872 1887 1901 1919 1934 1947 1965 1976 1985 1992 1996 1996 1996 1987 1984 1982 1979 1973 1964 1957 1950 1945 1940 1936 1932 1925 1921 1918 1917 1916 1914 1910 1908 1906 1906 1904 1903 1900 1898 1895 1892 1891 1891 1890 1887 1884 1882 1882 1882 1884 1884 1884 1880 1878
1673 1689 1694 1694 1699 1700 1705 1705 1705 1705 1705 1710 1718 1733 1751 1774 1793 1813 1823 1826 1828 1856 1890 1934 1974 2008 2036 2070 2113 2154 2193 2219 2249 2268 2273 2302 2334 2363 2385 2400 2423 2448 2464 2474 2483 2496 2510 2518 2524 2528 2534 2540 2549 2557 2565 2569 2572 2575 2582 2592 2602 2608 2612 2614 2621 2631 2641 2653 2664 2668 2669 2669 2673 2683 2690 2690 2690 2686 2686 2686 2693 2704 2718 2723 2731 2742 2750 2756 2758 2760 2760 2768 2771 2773 2773 2771 2771 2773 2786 2790 2790 2793 2793 2793 2803 2803 2803 2800 2787 2765 2744 2714 2692 2659 2631 2588 2536 0 0 0 0 0 0 0 0 0 0 2038 2038 2042 2049 2070 2070 2070 2058 2026 1986 1977 1977 1977 1979 1981 1988 1988 1996 1999 2003 2022 2022 2022 2022 1988 1976 1976 1976 0 0 0 0 0 0 0 2534 2694 2867 3022 3165 3209 3354 3495 3591 3614 3615 3624 3624 3626 3628 3628 3628 3628 3628 3632 3634 3634 3632 3634 3634 3634 3641 3642 3650 3657 3665 3671 3671 3671 3672 3673 3677 3682 3688 3692 3696 3700 3703 3708 3708 3708 3708 3703 3701 3700 3697 3694 3691 3689 3687 3687 3687 3687 3687 3687 3687 3688 3689 3692 3694 3698 3698 3699 3699 3700 3703 3706 3710 3713 3713 3714 3715 3720 3725 3730 3733 3736 3740 3744 3748 3754 3758 3762 3764 3764 3764 3764 3767 3768 3768 3768 3768 3768 3767 3767 3766 3766 3766 3767 3767 3767 3763 3757 3749 3740 3734 3728 3720 3718 3718 3718 3718 3723 3730 3738 3742 3744 3748 3752 3752 3752 3729 3614 3113 2748 2539 2485 2450 2425 2409 2401 2390 2380 2375 2372 2369 2367 2360 2353 2346 2345 2345 2342 2337 2335 2334 2331 2329 2328 2328 2327 2324 2322 2318 2314 2312 2309 2306 2304 2302 2301 2300 2299 2299 2298 2297 2297 2297 2297 2298 2298 2300 2302 2304 2305 2306 2306 2306 2306 2307 2306 2306 2305 2304 2301 2299 2297 2296 2283 2237 2211 2183 2142 2126 2105 2090 2080 2072 2070 2066 2061 2057 2055 2052 2048 2046 2043 2041 2038 2035 2033 2028 2025 2024 2010 1999 1992 1978 1961 1951 1944 1941 1939 1934 1929 1921 1912 1908 1906 1903 1899 1895 1891 1887 1884 1880 1877 1875 1872 1870 1869 1868 1866 1865 1864 1863 1862 1860 1860 1859 1859 1859 1858 1858 1858 1858 1859 1859 1860 1860 1860 1860 1860 1861 1861 1861 1861 1861 1860 1859 1859 1857 1857 1855 1854 1853 1853 1851 1848 1845 1842 1841 1838 1836 1834 1830 1828 1825 1822 1818 1814 1810 1808 1806 1804 1802 1800 1798 1796 1795 1794 1794 1794 1794 1794 1795 1797 1801 1804 1806 1810 1813 1815 1818 1820 1823 1825 1826 1828 1829 1829 1830 1830 1830 1830 1830 1830 1830 1830 1830 1829 1829 1828 1827 1827 1826 1824 1824 1822 1821 1820 1819 1817 1816 1816 1814 1813 1811 1810 1808 1807 1805 1803 1802 1800 1798 1797 1795 1795 1794 1794 1794 1794 1794 1794 1795 1798 1803 1806 1811 1817 1823 1826 1832 1834 1837 1839 1841 1842 1843 1844 1845 1845 1845 1845 1844 1844 1843 1842 1842 1841 1840 1839 1838 1837 1837 1836 1836 1836 1835 1835 1835 1834 1834 1835 1836 1840 1840 1840 1844 1877 1895 1912 1930 1941 1956 1973 1988 1996 2005 2011 2011 2011 2002 1995 1989 1986 1979 1969 1959 1952 1946 1943 1938 1932 1928 1923 1920 1917 1915 1913 1909 1907 1905 1904 1904 1902 1900 1898 1895 1891 1889 1889 1889 1886 1882 1881 1881 1881 1885 1885 1885 1880 1880
1682 1692 1694 1694 1699 1700 1705 1705 1705 1705 1705 1713 1718 1733 1749 1772 1793 1813 1823 1826 1826 1835 1856 1899 1954 2000 2029 2070 2113 2147 2182 2216 2239 2258 2261 2293 2333 2363 2384 2396 2422 2441 2458 2471 2483 2496 2510 2518 2523 2526 2530 2540 2549 2557 2565 2574 2577 2579 2586 2594 2602 2608 2611 2614 2621 2631 2649 2661 2666 2668 2668 2669 2672 2677 2683 2686 2686 2688 2689 2689 2700 2711 2719 2727 2733 2742 2750 2756 2758 2760 2761 2768 2772 2773 2773 2773 2773 2782 2796 2804 2804 2804 2804 2804 2809 2822 2825 2826 2826 2830 2830 2830 2828 2816 2790 2758 2724 2678 2640 2629 2583 2497 0 0 0 0 0 0 0 0 2075 2083 2083 2083 2066 2035 2002 1993 1986 1982 1982 1988 1988 1988 1988 1987 1987 1987 1986 1986 1986 1982 1967 1967 1967 1968 1983 1984 2003 2010 0 0 0 0 0 0 0 0 2531 2877 3050 3258 3348 3460 3550 3619 3628 3628 3628 3628 3628 3632 3634 3634 3633 3634 3633 3633 3634 3642 3649 3656 3660 3661 3664 3664 3667 3672 3676 3681 3687 3692 3696 3699 3703 3709 3709 3709 3708 3703 3701 3700 3697 3695 3691 3689 3687 3686 3686 3686 3686 3687 3688 3690 3692 3694 3697 3699 3699 3701 3702 3702 3704 3706 3710 3713 3713 3713 3715 3720 3725 3730 3732 3736 3740 3744 3748 3754 3757 3761 3762 3763 3763 3763 3766 3768 3768 3768 3768 3768 3767 3767 3766 3766 3766 3770 3770 3770 3767 3760 3750 3740 3734 3728 3724 3724 3724 3724 3724 3724 3733 3742 3749 3751 3752 3755 3755 3755 3729 3580 3113 2723 2538 2487 2450 2425 2409 2401 2389 2380 2375 2372 2369 2366 2360 2353 2346 2344 2344 2340 2336 2333 2333 2330 2328 2327 2327 2326 2324 2322 2319 2316 2313 2311 2308 2306 2305 2305 2303 2302 2301 2300 2299 2299 2299 2299 2299 2300 2302 2303 2304 2306 2307 2307 2307 2307 2307 2307 2307 2307 2306 2304 2302 2301 2300 2289 2241 2214 2187 2142 2127 2105 2090 2080 2073 2070 2066 2061 2058 2055 2051 2048 2045 2043 2041 2038 2035 2033 2031 2028 2026 2021 2006 1992 1985 1973 1961 1949 1945 1941 1937 1932 1924 1916 1910 1906 1903 1900 1895 1891 1889 1885 1881 1878 1875 1872 1870 1869 1868 1866 1865 1864 1863 1861 1860 1860 1859 1858 1858 1857 1857 1857 1858 1858 1859 1859 1859 1859 1859 1859 1860 1860 1860 1860 1860 1860 1859 1859 1857 1857 1855 1854 1854 1853 1851 1850 1847 1844 1842 1840 1838 1835 1832 1829 1826 1823 1818 1815 1811 1809 1807 1805 1802 1800 1798 1796 1795 1794 1794 1794 1794 1794 1795 1796 1798 1802 1805 1807 1810 1814 1816 1819 1822 1823 1825 1827 1828 1829 1829 1829 1830 1830 1830 1830 1830 1830 1829 1829 1829 1828 1828 1827 1827 1825 1824 1823 1822 1820 1820 1818 1817 1816 1815 1813 1812 1811 1809 1808 1806 1804 1803 1802 1800 1798 1796 1796 1796 1795 1795 1794 1794 1794 1795 1796 1799 1805 1809 1815 1820 1823 1828 1833 1836 1839 1841 1843 1843 1845 1845 1845 1845 1845 1845 1845 1845 1844 1844 1843 1842 1841 1840 1839 1839 1838 1838 1837 1837 1837 1837 1837 1837 1837 1839 1841 1842 1842 1848 1884 1902 1926 1942 1953 1966 1982 1995 2006 2015 2019 2019 2019 2011 2004 1997 1992 1984 1975 1964 1955 1949 1944 1941 1936 1930 1925 1920 1917 1915 1910 1907 1906 1904 1904 1904 1902 1899 1897 1894 1891 1889 1887 1886 1883 1881 1880 1880 1880 1882 1882 1882 1877 1877
1694 1694 1696 1696 1696 1699 1701 1701 1705 1705 1705 1714 1728 1735 1749 1761 1778 1793 1797 1802 1806 1816 1837 0 0 1988 2024 2054 2100 2132 2160 2197 2228 2232 2257 2286 2328 2354 2374 2393 2417 2433 2447 2462 2478 2493 2504 2509 2514 2524 2528 2536 2549 2557 2565 2574 2577 2580 2586 2594 2602 2608 2610 2614 2621 2633 2650 2661 2666 2668 2669 2669 2672 2676 2683 2687 2688 2688 2690 2698 2706 2715 2720 2727 2733 2742 2750 2756 2758 2760 2761 2768 2778 2778 2779 2780 2780 2789 2796 2810 2825 2825 2825 2826 2826 2830 2830 2832 2832 2832 2836 2836 2836 2829 2811 2790 2780 2777 2777 2777 2777 2777 2754 2724 2695 2658 2609 0 0 0 0 0 0 0 0 0 0 0 0 0 2015 2023 2023 2023 2018 1987 1987 1987 1986 1986 1986 1982 1967 1967 1967 1968 1983 1984 2000 2000 2000 1997 1975 1972 0 0 0 0 0 0 0 0 0 2845 3085 3203 3354 3419 3499 3576 3627 3632 3634 3634 3633 3633 3632 3632 3632 3642 3649 3656 3659 3659 3659 3659 3659 3661 3667 3674 3682 3689 3696 3698 3703 3709 3711 3711 3711 3708 3704 3701 3697 3695 3691 3688 3686 3685 3685 3685 3686 3688 3690 3693 3694 3697 3697 3699 3700 3702 3704 3705 3706 3709 3710 3712 3713 3713 3715 3718 3722 3727 3731 3736 3739 3741 3748 3754 3757 3759 3761 3762 3763 3763 3764 3768 3768 3768 3768 3767 3767 3767 3767 3767 3767 3770 3770 3770 3767 3760 3750 3740 3733 3727 3727 3726 3725 3726 3726 3726 3735 3747 3757 3762 3762 3762 3762 3759 3727 3555 3113 2717 2527 2487 2450 2425 2409 2401 2385 2380 2375 2372 2369 2364 2360 2353 2346 2341 2339 2336 2334 2332 2332 2329 2328 2327 2327 2326 2326 2324 2321 2318 2315 2313 2312 2310 2309 2307 2305 2303 2303 2303 2302 2300 2300 2300 2301 2302 2303 2305 2306 2308 2308 2309 2309 2309 2309 2309 2309 2309 2307 2304 2304 2303 2302 2294 2248 2220 2191 2148 2131 2105 2091 2083 2075 2071 2067 2062 2058 2055 2051 2048 2045 2043 2041 2039 2035 2034 2033 2030 2027 2021 2013 1997 1986 1977 1966 1956 1947 1942 1937 1933 1926 1920 1913 1906 1903 1900 1895 1892 1889 1886 1882 1878 1876 1874 1871 1870 1869 1867 1865 1864 1863 1861 1860 1859 1859 1858 1857 1857 1857 1857 1857 1857 1858 1858 1858 1858 1859 1859 1859 1859 1859 1859 1859 1859 1859 1858 1857 1857 1856 1855 1854 1853 1852 1850 1848 1846 1844 1842 1840 1837 1834 1830 1827 1823 1819 1816 1812 1810 1808 1806 1803 1800 1799 1797 1796 1794 1794 1793 1793 1793 1794 1795 1797 1799 1802 1806 1808 1810 1814 1816 1820 1821 1823 1825 1827 1828 1829 1829 1829 1829 1829 1830 1829 1829 1829 1829 1829 1828 1828 1827 1827 1826 1825 1824 1822 1822 1820 1819 1818 1817 1815 1814 1813 1812 1810 1808 1808 1806 1804 1803 1801 1799 1799 1798 1797 1797 1795 1795 1795 1795 1795 1795 1797 1803 1806 1810 1815 1821 1825 1831 1835 1838 1841 1843 1844 1845 1845 1846 1847 1847 1847 1847 1845 1845 1845 1845 1844 1843 1842 1841 1840 1840 1840 1840 1840 1840 1840 1839 1839 1839 1842 1842 1842 1842 1859 1892 1913 1936 1955 1967 1981 1994 2003 2011 2024 2024 2024 2023 2019 2013 2002 1993 1987 1976 1966 1957 1951 1946 1943 1939 1933 1926 1920 1917 1915 1910 1907 1904 1903 1903 1902 1901 1899 1896 1894 1891 1888 1887 1885 1882 1879 1879 1879 1880 1882 1882 1882 1875 1875
1710 1710 1710 1701 1701 1701 1701 1701 1701 1704 1707 1718 1730 1735 1744 1749 1761 1773 1777 1786 1797 1816 1837 0 0 1982 2015 2047 2074 2104 2131 2175 2217 2222 2254 2282 2315 2340 2360 2377 2395 2415 2437 2457 2473 2487 2496 2503 2509 2517 2522 2533 2544 2554 2565 2574 2577 2580 2586 2594 2601 2606 2609 2617 2626 2637 2650 2661 2666 2668 2669 2669 2672 2676 2682 2688 2690 2693 2697 2704 2715 2718 2725 2732 2742 2749 2756 2760 2761 2761 2763 2768 2778 2780 2783 2785 2788 2791 2796 2810 2826 2830 2832 2835 2835 2835 2835 2835 2835 2835 2840 2842 2842 2842 2828 2820 2820 2820 2833 2850 2854 2861 2861 2861 2845 2804 2779 2765 2705 2603 2537 2536 0 0 0 0 0 0 0 0 0 0 0 2060 2048 2013 1995 1992 1986 1986 1986 1982 1972 1968 1968 1968 1983 1984 2003 2003 2003 1993 1972 1956 1953 1950 1908 1908 1908 1914 0 0 0 0 0 0 0 2768 2849 3043 3136 3343 3476 3570 3609 3622 3627 3629 3629 3638 3645 3653 3656 3656 3656 3656 3659 3661 3667 3668 3674 3676 3687 3690 3700 3709 3711 3711 3711 3708 3704 3700 3697 3694 3691 3688 3686 3685 3685 3685 3686 3690 3693 3697 3697 3698 3698 3701 3702 3704 3704 3705 3706 3709 3710 3710 3712 3713 3715 3716 3719 3723 3729 3735 3739 3741 3748 3754 3756 3759 3761 3762 3762 3763 3763 3766 3768 3768 3768 3767 3767 3766 3766 3766 3767 3770 3770 3770 3767 3760 3750 3739 3732 3728 3728 3728 3728 3728 3728 3733 3738 3749 3759 3763 3764 3764 3763 3759 3722 3553 3111 2716 2514 2485 2445 2418 2407 2386 2383 2380 2377 2373 2369 2364 2360 2353 2346 2341 2335 2333 2332 2331 2330 2329 2328 2327 2326 2326 2326 2324 2322 2319 2318 2316 2314 2314 2312 2310 2308 2306 2305 2305 2304 2303 2303 2303 2303 2304 2304 2306 2306 2309 2310 2310 2310 2310 2311 2311 2311 2309 2307 2304 2304 2303 2303 2294 2257 2227 2200 2159 2132 2106 2092 2085 2075 2071 2067 2062 2058 2055 2051 2047 2045 2043 2041 2039 2036 2034 2033 2030 2027 2021 2014 2004 1990 1979 1968 1960 1951 1945 1939 1933 1927 1921 1916 1911 1904 1900 1896 1892 1889 1886 1883 1879 1877 1874 1872 1870 1869 1867 1866 1864 1863 1861 1860 1859 1858 1857 1857 1856 1856 1856 1856 1857 1857 1857 1857 1857 1857 1858 1858 1858 1858 1859 1858 1858 1858 1858 1857 1856 1856 1855 1854 1853 1852 1850 1848 1846 1844 1843 1841 1838 1835 1830 1827 1825 1821 1818 1813 1811 1809 1807 1804 1801 1799 1797 1796 1794 1793 1792 1792 1792 1792 1793 1795 1797 1798 1801 1805 1809 1812 1815 1818 1820 1822 1824 1826 1827 1828 1829 1829 1829 1829 1829 1829 1829 1829 1829 1829 1828 1828 1827 1827 1826 1825 1824 1824 1822 1821 1820 1819 1817 1816 1815 1814 1813 1811 1810 1808 1807 1806 1804 1802 1800 1800 1799 1799 1798 1797 1796 1795 1795 1795 1795 1796 1801 1804 1804 1808 1817 1824 1829 1833 1837 1841 1843 1844 1845 1845 1847 1847 1847 1847 1847 1847 1846 1846 1846 1846 1845 1844 1844 1843 1842 1842 1842 1842 1842 1841 1842 1842 1845 1845 1846 1846 1846 1861 1896 1919 1943 1962 1979 1998 2008 2017 2032 2032 2032 2027 2023 2021 2018 2008 1997 1991 1977 1966 1959 1952 1948 1944 1939 1934 1927 1920 1917 1915 1910 1907 1904 1903 1901 1901 1900 1899 1896 1894 1890 1888 1886 1883 1880 1878 1877 1877 1877 1879 1879 1879 1871 1871
1716 1716 1716 1706 1706 1704 1701 1702 1704 1704 1710 1721 1730 1732 1735 1738 1739 1756 1760 1786 1797 1816 1837 1875 0 1977 2013 2038 2059 2091 2122 2162 2206 2211 2245 2279 2308 2330 2351 2369 2382 2401 2430 2457 2473 2487 2494 2501 2507 2511 2520 2529 2537 2548 2558 2569 2576 2580 2584 2587 2593 2599 2607 2617 2629 2638 2650 2661 2666 2669 2670 2670 2672 2676 2682 2687 2694 2700 2707 2716 2721 2725 2732 2740 2750 2755 2761 2767 2768 2769 2770 2773 2778 2781 2784 2788 2789 2791 2799 2811 2826 2834 2834 2837 2837 2838 2838 2838 2838 2839 2840 2845 2845 2845 2843 2843 2843 2852 2864 2867 2868 2869 2872 2872 2872 2852 2852 2847 2841 2824 2802 2800 2765 2700 2670 2648 2605 2580 0 0 0 0 0 0 0 0 0 0 0 2012 2003 2000 1997 1991 1990 1986 1986 1986 1995 1995 1995 1969 1969 1953 1950 1950 1908 1878 1878 1878 1895 1920 0 0 0 0 0 0 0 0 0 2548 2880 3024 3049 3178 3369 3457 3587 3633 3638 3653 3653 3653 3652 3652 3652 3657 3657 3668 3668 3673 3682 3683 3689 3695 3701 3705 3705 3705 3704 3700 3696 3691 3688 3686 3685 3685 3685 3685 3687 3691 3693 3697 3697 3699 3700 3704 3704 3705 3705 3705 3706 3707 3709 3709 3712 3713 3713 3714 3714 3718 3724 3730 3735 3740 3745 3749 3754 3759 3761 3761 3762 3763 3763 3765 3766 3766 3767 3766 3766 3766 3766 3766 3766 3768 3768 3768 3764 3756 3747 3738 3732 3729 3728 3728 3729 3732 3737 3741 3745 3754 3762 3765 3765 3765 3764 3759 3692 3548 3111 2710 2514 2480 2440 2412 2393 2386 2382 2380 2377 2373 2368 2363 2360 2353 2346 2340 2335 2333 2332 2331 2329 2329 2328 2327 2327 2326 2326 2324 2322 2320 2320 2318 2316 2315 2314 2312 2310 2309 2308 2307 2307 2306 2305 2305 2305 2305 2306 2307 2308 2311 2312 2313 2313 2314 2314 2314 2312 2311 2308 2305 2305 2304 2303 2294 2261 2236 2208 2163 2135 2110 2095 2086 2075 2071 2066 2062 2058 2054 2050 2048 2045 2043 2041 2039 2036 2033 2033 2030 2026 2021 2015 2008 1998 1986 1976 1968 1955 1948 1941 1935 1929 1923 1919 1912 1906 1902 1897 1894 1889 1887 1884 1881 1878 1875 1873 1871 1869 1867 1866 1864 1862 1860 1859 1858 1857 1856 1855 1855 1855 1855 1855 1855 1856 1856 1856 1856 1857 1857 1858 1858 1858 1858 1858 1858 1858 1858 1857 1856 1856 1855 1854 1853 1852 1850 1848 1846 1845 1843 1841 1838 1835 1832 1828 1825 1823 1819 1816 1812 1809 1807 1804 1802 1799 1798 1796 1795 1793 1792 1791 1791 1791 1792 1793 1795 1797 1800 1804 1807 1810 1813 1816 1818 1820 1822 1824 1826 1826 1827 1828 1828 1829 1829 1829 1829 1829 1829 1829 1828 1828 1827 1827 1826 1825 1825 1824 1823 1822 1820 1820 1818 1817 1816 1815 1813 1811 1811 1809 1808 1807 1805 1804 1802 1801 1799 1799 1799 1798 1796 1795 1795 1795 1795 1796 1797 1801 1803 1806 1813 1822 1828 1832 1837 1840 1842 1844 1845 1847 1847 1848 1849 1849 1849 1849 1848 1848 1847 1847 1847 1846 1845 1845 1845 1844 1844 1844 1843 1843 1843 1844 1846 1847 1849 1851 1852 1863 1899 1919 1947 1968 1988 2012 2021 2039 2039 2039 2037 2030 2026 2025 2020 2013 2004 1998 1987 1973 1962 1954 1951 1944 1940 1934 1927 1920 1917 1915 1912 1907 1904 1903 1901 1899 1898 1897 1896 1894 1890 1888 1886 1883 1880 1877 1876 1876 1876 1875 1873 1873 1870 1870
1716 1716 1716 1706 1703 1703 1703 1704 1704 1707 1715 1726 1730 1731 1731 1732 1739 1756 1760 1786 1804 1816 1833 1874 0 1969 2005 2036 2056 2086 2117 2158 2189 2194 2221 2256 2295 2323 2347 2364 2376 2396 2427 2454 2473 2487 2494 2501 2507 2511 2520 2529 2537 2544 2552 2562 2569 2574 2577 2582 2587 2595 2607 2618 2631 2640 2650 2660 2666 2669 2670 2672 2673 2676 2682 2687 2694 2700 2713 2723 2726 2729 2735 2744 2755 2762 2767 2770 2772 2773 2774 2778 2780 2784 2787 2789 2791 2792 2799 2811 2826 2837 2837 2838 2838 2839 2839 2839 2840 2840 2840 2845 2850 2851 2853 2853 2854 2858 2864 2867 2870 2870 2872 2872 2872 2871 2871 2871 2868 2868 2868 2867 2857 2849 2844 2839 2822 2817 2816 2794 2762 2716 2654 2512 0 0 0 0 0 0 0 0 0 0 2028 2017 2013 2013 2007 2000 1995 1969 1969 1962 1960 1960 1908 1878 1878 1878 1895 1901 1912 1931 1931 1931 1931 1931 0 0 0 0 0 0 0 0 2444 2784 2972 3243 3320 3449 3566 3638 3645 3646 3646 3646 3652 3661 3665 3666 3679 3682 3686 3695 3695 3697 3699 3699 3697 3697 3694 3685 3684 3683 3682 3683 3683 3685 3688 3693 3695 3697 3697 3699 3703 3706 3706 3706 3706 3706 3705 3705 3705 3706 3711 3711 3712 3713 3713 3715 3718 3725 3730 3734 3739 3746 3752 3759 3761 3761 3762 3763 3763 3764 3764 3764 3764 3764 3764 3765 3765 3765 3765 3765 3765 3765 3760 3752 3744 3738 3736 3736 3736 3736 3737 3739 3743 3749 3753 3760 3765 3766 3766 3766 3763 3752 3692 3530 3111 2709 2514 2478 2435 2406 2389 2384 2381 2378 2377 2373 2368 2362 2358 2353 2346 2340 2335 2333 2332 2331 2329 2329 2328 2327 2327 2327 2327 2326 2323 2323 2321 2320 2318 2317 2315 2315 2313 2311 2310 2310 2309 2308 2308 2306 2306 2306 2308 2309 2312 2312 2314 2314 2315 2315 2315 2315 2314 2313 2312 2309 2307 2305 2303 2292 2265 2240 2222 2183 2147 2120 2100 2087 2076 2071 2065 2062 2058 2053 2050 2047 2044 2042 2041 2039 2036 2033 2031 2028 2026 2020 2016 2011 2005 1996 1985 1974 1965 1955 1947 1939 1932 1928 1922 1914 1909 1904 1898 1895 1891 1888 1885 1882 1879 1876 1874 1872 1869 1867 1866 1863 1862 1860 1859 1858 1857 1856 1855 1855 1854 1854 1854 1854 1854 1855 1855 1855 1855 1856 1856 1857 1857 1857 1857 1857 1857 1857 1857 1856 1856 1855 1854 1853 1851 1850 1849 1847 1845 1843 1841 1839 1835 1832 1829 1826 1824 1821 1818 1814 1812 1809 1806 1803 1800 1799 1796 1795 1794 1792 1791 1790 1790 1791 1792 1793 1795 1798 1802 1805 1808 1812 1814 1816 1818 1820 1822 1824 1825 1827 1827 1827 1828 1828 1828 1828 1829 1829 1828 1828 1828 1827 1827 1826 1825 1825 1824 1823 1822 1821 1820 1819 1818 1817 1815 1814 1813 1812 1811 1809 1808 1806 1805 1803 1802 1801 1800 1799 1798 1797 1795 1795 1795 1795 1796 1797 1799 1802 1805 1810 1820 1825 1830 1836 1839 1842 1844 1846 1847 1849 1849 1850 1850 1850 1850 1849 1849 1849 1849 1849 1848 1848 1847 1847 1847 1847 1846 1845 1845 1845 1845 1846 1851 1852 1853 1865 1878 1908 1922 1950 1973 2006 2021 2035 2044 2044 2044 2041 2035 2030 2028 2023 2018 2010 2005 1995 1984 1973 1966 1955 1947 1940 1935 1927 1920 1917 1916 1913 1911 1906 1903 1901 1899 1898 1897 1895 1893 1890 1888 1885 1882 1879 1877 1876 1876 1873 1873 1870 1868 1868 1868
1716 1716 1716 1706 1703 1703 1703 1703 1704 1707 1715 1726 1729 1731 1731 1732 1739 1756 1760 1789 1804 1816 1832 1857 1902 1958 1995 2033 2054 2085 2115 2157 2162 2190 2213 2238 2273 2319 2342 2362 2376 2396 2424 2451 2472 2486 2494 2501 2505 2511 2520 2529 2536 2540 2547 2553 2562 2569 2574 2581 2587 2595 2607 2618 2633 2640 2649 2657 2660 2667 2670 2673 2674 2676 2680 2687 2694 2700 2714 2725 2727 2729 2735 2744 2755 2762 2767 2770 2772 2775 2778 2779 2783 2785 2787 2789 2791 2794 2800 2811 2826 2837 2838 2839 2839 2844 2845 2845 2845 2842 2842 2842 2850 2853 2858 2859 2860 2861 2866 2871 2871 2873 2873 2874 2874 2876 2876 2880 2890 2892 2892 2892 2886 2886 2885 2883 2883 2885 2891 2902 2902 2902 2880 2829 2749 2695 2638 2563 0 0 0 0 0 0 0 0 0 0 2030 2016 1995 1969 1969 1969 1963 1963 1931 1892 1892 1892 1895 1901 1912 1931 1931 1931 1918 1918 1918 1920 1925 1926 1951 1979 1981 1982 0 0 0 0 0 2641 2876 2996 3175 3286 3416 3512 3610 3656 3661 3662 3665 3677 3685 3690 3691 3692 3697 3697 3697 3697 3694 3685 3684 3683 3682 3683 3683 3685 3688 3693 3695 3695 3696 3699 3703 3706 3707 3707 3707 3705 3705 3705 3705 3705 3711 3711 3712 3713 3713 3713 3716 3718 3725 3730 3735 3743 3751 3759 3760 3760 3760 3760 3760 3763 3763 3763 3763 3763 3763 3764 3764 3763 3763 3763 3762 3762 3758 3752 3744 3740 3740 3740 3740 3740 3741 3744 3748 3756 3763 3766 3769 3769 3769 3766 3763 3739 3692 3520 3082 2708 2523 2472 2421 2402 2389 2383 2378 2377 2373 2370 2364 2359 2352 2348 2346 2341 2336 2333 2332 2331 2329 2329 2329 2328 2327 2327 2327 2326 2324 2323 2322 2321 2320 2317 2317 2317 2315 2313 2312 2311 2311 2311 2309 2308 2308 2308 2310 2312 2314 2315 2315 2316 2317 2317 2317 2317 2317 2317 2317 2314 2310 2306 2303 2292 2268 2246 2229 2189 2154 2126 2104 2087 2076 2071 2065 2060 2056 2053 2050 2047 2044 2042 2040 2038 2036 2033 2030 2027 2023 2020 2018 2014 2010 2002 1991 1981 1972 1962 1953 1943 1937 1932 1926 1918 1911 1906 1900 1896 1893 1890 1886 1883 1879 1877 1875 1872 1870 1867 1866 1863 1862 1860 1859 1858 1857 1855 1855 1854 1853 1853 1853 1853 1853 1853 1853 1854 1854 1855 1855 1856 1857 1857 1857 1857 1857 1856 1856 1856 1856 1855 1854 1853 1852 1850 1849 1847 1845 1843 1842 1840 1836 1833 1831 1828 1826 1823 1820 1816 1813 1811 1807 1805 1802 1799 1798 1795 1794 1792 1790 1790 1790 1790 1791 1791 1793 1796 1799 1803 1806 1809 1812 1814 1816 1819 1821 1823 1825 1826 1827 1827 1827 1828 1828 1828 1828 1828 1828 1828 1828 1827 1827 1826 1826 1825 1824 1824 1823 1822 1820 1820 1819 1818 1817 1816 1814 1813 1811 1810 1808 1808 1806 1805 1803 1802 1801 1800 1799 1798 1796 1796 1796 1796 1796 1797 1799 1801 1805 1806 1813 1822 1828 1834 1838 1842 1844 1846 1848 1849 1850 1851 1851 1851 1851 1851 1851 1851 1851 1851 1851 1850 1850 1849 1848 1848 1848 1848 1847 1847 1847 1847 1854 1857 1860 1876 1879 1918 1935 1963 1990 2013 2027 2039 2046 2046 2046 2042 2037 2033 2030 2026 2020 2014 2008 2004 1993 1987 1976 1964 1953 1944 1936 1928 1923 1918 1917 1914 1911 1907 1904 1902 1899 1898 1897 1895 1893 1890 1888 1885 1881 1878 1877 1876 1876 1873 1872 1870 1867 1867 1867
1704 1705 1705 1705 1703 1703 1703 1703 1704 1707 1715 1726 1727 1730 1731 1736 1750 1764 1768 1792 1803 1804 1806 1843 1884 1939 1977 2012 2042 2078 2109 2148 2153 2186 2212 2238 2263 2298 2329 2354 2373 2394 2422 2451 2472 2486 2494 2501 2505 2511 2520 2529 2535 2538 2545 2553 2562 2569 2574 2581 2587 2595 2607 2622 2633 2641 2647 2652 2656 2663 2670 2674 2675 2676 2677 2679 2687 2700 2714 2725 2727 2729 2735 2744 2755 2762 2767 2770 2772 2777 2780 2781 2784 2786 2789 2793 2795 2799 2806 2816 2828 2837 2838 2842 2848 2850 2850 2850 2846 2840 2836 2836 2836 2855 2860 2862 2863 2863 2869 2871 2871 2871 2871 2871 2871 2877 2891 2897 2902 2907 2909 2909 2910 2911 2912 2913 2913 2913 2913 2913 2910 2904 2900 2892 2878 2873 2864 2834 2791 2755 2707 2649 2563 0 0 0 0 0 0 0 0 0 1974 1974 1974 1974 1956 1926 1900 1900 1900 1901 1912 1931 1931 1931 1918 1918 1918 1920 1925 1926 1948 1955 1961 1965 1966 1966 0 0 0 0 0 0 0 2135 2615 2966 2999 3255 3386 3523 3593 3658 3663 3670 3672 3675 3680 3684 3690 3690 3690 3685 3685 3684 3682 3684 3686 3686 3693 3695 3695 3695 3695 3699 3703 3706 3706 3706 3705 3705 3705 3704 3704 3704 3710 3710 3712 3713 3713 3713 3716 3718 3725 3730 3735 3743 3748 3756 3760 3760 3760 3760 3760 3762 3762 3762 3763 3762 3763 3763 3762 3762 3761 3761 3761 3761 3758 3752 3744 3740 3740 3740 3743 3743 3745 3748 3754 3760 3763 3766 3770 3770 3770 3766 3752 3729 3690 3505 3063 2708 2523 2450 2412 2400 2386 2378 2375 2373 2368 2363 2356 2352 2349 2348 2346 2341 2336 2334 2333 2332 2331 2329 2329 2328 2328 2327 2327 2327 2326 2324 2323 2321 2320 2320 2319 2319 2317 2315 2315 2314 2312 2312 2311 2311 2311 2311 2312 2314 2315 2317 2317 2318 2318 2319 2319 2319 2319 2319 2319 2319 2315 2312 2303 2292 2275 2248 2232 2199 2157 2129 2105 2087 2077 2071 2065 2059 2055 2052 2049 2046 2043 2041 2039 2037 2035 2033 2030 2027 2023 2020 2018 2014 2011 2005 1996 1987 1976 1965 1957 1950 1938 1932 1927 1922 1914 1907 1902 1897 1893 1891 1888 1883 1880 1877 1875 1872 1870 1867 1865 1863 1862 1860 1858 1857 1855 1855 1853 1852 1852 1852 1852 1852 1852 1852 1853 1853 1854 1854 1854 1855 1856 1856 1856 1856 1856 1856 1856 1856 1855 1855 1854 1853 1852 1850 1849 1848 1845 1844 1842 1840 1837 1835 1833 1831 1828 1824 1822 1817 1815 1812 1809 1806 1804 1801 1799 1796 1794 1793 1790 1790 1790 1790 1790 1790 1792 1794 1797 1800 1804 1807 1809 1812 1815 1818 1821 1823 1825 1826 1826 1826 1827 1827 1827 1827 1828 1828 1828 1828 1827 1827 1827 1826 1826 1825 1825 1824 1823 1822 1822 1822 1820 1819 1819 1817 1815 1814 1812 1811 1810 1809 1808 1806 1804 1803 1801 1801 1800 1799 1798 1797 1797 1797 1797 1797 1798 1799 1801 1805 1809 1816 1825 1831 1836 1840 1844 1845 1848 1850 1851 1852 1853 1853 1852 1853 1852 1852 1853 1853 1852 1852 1852 1852 1851 1851 1851 1850 1850 1849 1849 1850 1855 1860 1866 1884 1887 1919 1950 1978 2004 2021 2034 2043 2046 2046 2046 2042 2039 2037 2033 2029 2025 2020 2016 2011 2004 1997 1986 1969 1961 1952 1943 1934 1926 1921 1917 1914 1911 1907 1905 1902 1900 1898 1896 1895 1893 1890 1888 1885 1881 1878 1877 1876 1876 1873 1872 1870 1867 1867 1867
1702 1705 1705 1705 1705 1703 1699 1698 1698 1698 1700 1713 1717 1722 1723 1736 1759 1764 1782 1797 1803 1804 1805 1832 1868 1921 1956 1986 2014 2051 2088 2130 2133 2178 2211 2238 2263 2292 2316 2335 2352 2376 2407 2444 2471 2484 2494 2501 2505 2511 2520 2528 2533 2538 2545 2553 2562 2569 2574 2581 2590 2598 2611 2623 2637 2644 2645 2649 2654 2661 2670 2674 2674 2675 2675 2676 2683 2696 2713 2725 2727 2729 2729 2735 2747 2754 2759 2764 2772 2779 2782 2783 2786 2790 2794 2798 2800 2803 2811 2819 2829 2836 2838 2842 2849 2855 2855 2855 2847 2841 2836 2836 2836 2855 2864 2871 2872 2874 2874 2874 2874 2874 2871 2871 2871 2878 2891 2897 2902 2907 2909 2909 2910 2911 2913 2916 2916 2916 2915 2913 2912 2909 2903 2892 2889 2889 2889 2892 2892 2892 2863 2844 2822 2768 0 0 0 0 0 0 0 0 2089 2047 2033 2019 1994 1977 1965 1957 1940 1940 1940 1958 1958 1958 1947 1928 1926 1925 1925 1926 1948 1955 1961 1961 1966 1966 1967 0 0 0 0 0 0 2007 2015 2019 2043 2298 2469 2769 3037 3140 3319 3413 3505 3609 3670 3672 3673 3678 3678 3679 3680 3680 3684 3686 3687 3687 3693 3695 3695 3697 3697 3700 3703 3703 3709 3709 3709 3706 3704 3704 3704 3704 3711 3712 3713 3713 3714 3715 3716 3718 3725 3730 3735 3743 3748 3756 3760 3760 3760 3760 3760 3762 3762 3762 3762 3762 3762 3762 3762 3762 3761 3761 3760 3760 3758 3753 3748 3744 3744 3744 3747 3748 3748 3753 3756 3760 3763 3766 3772 3772 3772 3765 3740 3714 3685 3453 3024 2686 2523 2444 2407 2394 2378 2370 2365 2361 2355 2352 2350 2349 2348 2347 2345 2341 2338 2336 2334 2334 2332 2331 2329 2329 2329 2329 2329 2328 2327 2325 2324 2322 2321 2321 2321 2321 2319 2318 2318 2316 2315 2315 2314 2313 2313 2313 2314 2315 2318 2319 2319 2319 2320 2321 2321 2321 2321 2321 2321 2321 2320 2319 2316 2305 2286 2253 2235 2202 2159 2130 2107 2089 2077 2072 2065 2058 2055 2051 2048 2045 2043 2040 2038 2036 2034 2032 2030 2026 2023 2020 2018 2014 2011 2007 2003 1994 1983 1969 1959 1953 1944 1934 1928 1924 1917 1909 1905 1897 1895 1892 1888 1883 1880 1877 1875 1872 1870 1867 1865 1863 1862 1860 1858 1857 1855 1853 1853 1852 1851 1851 1851 1851 1851 1851 1851 1851 1852 1853 1853 1854 1855 1855 1856 1856 1856 1856 1856 1855 1855 1855 1854 1853 1852 1850 1849 1848 1846 1844 1843 1840 1838 1836 1834 1832 1829 1826 1823 1819 1817 1814 1811 1808 1806 1803 1800 1797 1795 1793 1792 1790 1790 1790 1790 1790 1790 1792 1795 1798 1801 1804 1807 1810 1813 1815 1818 1821 1822 1824 1825 1825 1826 1826 1826 1827 1827 1827 1827 1827 1827 1827 1826 1826 1826 1825 1825 1824 1823 1823 1822 1822 1821 1820 1820 1819 1817 1816 1815 1814 1811 1810 1809 1808 1806 1805 1803 1802 1802 1800 1799 1798 1797 1797 1797 1797 1798 1799 1801 1803 1808 1812 1821 1829 1836 1839 1843 1845 1848 1850 1853 1853 1854 1854 1854 1854 1854 1854 1855 1854 1854 1854 1853 1853 1853 1853 1853 1853 1853 1852 1853 1853 1856 1863 1870 1888 1892 1928 1952 1981 2015 2031 2041 2046 2047 2047 2047 2044 2042 2039 2034 2029 2026 2021 2016 2011 2004 1997 1991 1981 1969 1961 1952 1941 1933 1925 1918 1914 1911 1907 1905 1902 1900 1898 1896 1895 1893 1890 1888 1885 1881 1878 1877 1877 1876 1874 1872 1870 1867 1867 1867
1701 1705 1706 1706 1705 1703 1699 1693 1693 1693 1693 1704 1709 1709 1720 1736 1761 1766 1786 1797 1803 1804 1805 1832 1868 1912 1948 1973 2005 2036 2072 2115 2121 2172 2209 2240 2263 2292 2301 2318 2333 2361 2400 2434 2459 2475 2492 2501 2504 2509 2516 2526 2532 2537 2545 2556 2564 2569 2575 2585 2593 2599 2612 2623 2637 2644 2645 2648 2653 2660 2669 2673 2673 2673 2673 2673 2680 2693 2708 2722 2726 2729 2729 2733 2737 2742 2750 2759 2771 2779 2783 2786 2789 2791 2796 2799 2803 2806 2813 2821 2829 2836 2837 2842 2849 2855 2855 2855 2851 2843 2836 2836 2836 2855 2869 2880 2884 2888 2888 2888 2881 2877 2875 2875 2875 2878 2891 2897 2902 2907 2909 2909 2910 2911 2913 2917 2917 2917 2916 2916 2915 2915 2905 2900 2898 2898 2898 2903 2903 2903 2892 2892 2892 2907 2907 2907 2885 2861 2753 2685 2666 2636 2622 2531 2458 0 0 0 0 0 0 0 0 0 0 0 0 0 0 0 0 0 0 0 1961 1961 1965 1965 1965 1983 1989 1989 1989 1965 1965 1965 1965 0 0 0 0 0 0 0 0 0 0 0 0 0 3375 3582 3652 3675 3676 3679 3679 3684 3686 3687 3693 3695 3695 3697 3697 3700 3703 3703 3710 3710 3710 3707 3706 3706 3706 3706 3711 3712 3713 3714 3714 3715 3716 3718 3726 3733 3738 3744 3748 3756 3760 3762 3763 3763 3762 3762 3762 3762 3762 3762 3762 3762 3761 3761 3761 3760 3760 3760 3757 3753 3751 3748 3748 3748 3752 3753 3756 3757 3758 3760 3760 3767 3772 3772 3772 3758 3726 3688 3623 3276 2870 2610 0 2425 2397 2377 2369 2363 2362 2358 2351 2349 2348 2348 2346 2345 2345 2341 2338 2336 2335 2334 2332 2331 2331 2330 2330 2330 2330 2330 2329 2326 2324 2324 2323 2323 2322 2322 2322 2321 2321 2319 2318 2317 2317 2317 2317 2317 2317 2317 2318 2320 2321 2322 2323 2323 2323 2323 2323 2323 2323 2324 2323 2323 2323 2319 2301 2261 2238 2205 2161 2139 2108 2089 2079 2072 2065 2057 2053 2049 2046 2044 2043 2040 2038 2035 2033 2031 2028 2025 2023 2019 2017 2014 2012 2008 2005 2001 1990 1976 1963 1955 1947 1936 1930 1925 1919 1911 1905 1901 1895 1893 1888 1883 1881 1878 1875 1872 1870 1866 1864 1862 1860 1859 1857 1855 1854 1853 1852 1851 1851 1850 1850 1850 1850 1850 1850 1851 1852 1852 1852 1853 1854 1854 1855 1855 1855 1855 1855 1855 1855 1854 1853 1852 1852 1850 1849 1848 1846 1844 1843 1841 1839 1837 1835 1833 1830 1827 1825 1822 1819 1815 1813 1810 1806 1804 1801 1798 1796 1794 1792 1791 1789 1789 1789 1789 1789 1790 1792 1794 1797 1800 1804 1808 1810 1813 1816 1819 1820 1822 1824 1824 1825 1825 1825 1826 1826 1827 1827 1827 1827 1826 1826 1826 1826 1825 1825 1824 1824 1823 1823 1822 1822 1822 1820 1819 1818 1817 1816 1815 1813 1812 1810 1810 1807 1806 1805 1804 1803 1801 1800 1800 1799 1799 1798 1798 1798 1799 1801 1802 1807 1811 1817 1826 1833 1838 1842 1845 1848 1852 1853 1855 1855 1856 1855 1856 1856 1856 1857 1857 1857 1856 1856 1856 1855 1856 1856 1856 1856 1856 1856 1857 1858 1863 1871 1893 1934 1939 1964 1993 2018 2040 2049 2050 2050 2050 2048 2047 2044 2039 2034 2030 2027 2022 2016 2011 2004 1997 1991 1983 1976 1967 1960 1950 1940 1931 1922 1914 1911 1907 1906 1903 1901 1898 1896 1894 1893 1890 1888 1886 1883 1879 1878 1878 1877 1875 1873 1873 1873 1869 1869
1701 1711 1714 1714 1714 1707 1699 1693 1693 1693 1693 1704 1709 1709 1719 1735 1761 1766 1786 1799 1804 1805 1813 1832 1868 1912 1948 1972 2002 2034 2066 2106 2112 2160 2208 2240 2270 2289 2301 2316 2333 2361 2392 2428 2452 2469 2487 2494 2500 2507 2514 2523 2532 2537 2545 2556 2564 2570 2576 2586 2593 2601 2612 2623 2637 2644 2645 2648 2653 2660 2668 2672 2672 2672 2673 2673 2680 2686 2699 2714 2725 2729 2730 2733 2737 2740 2745 2757 2770 2779 2783 2786 2789 2793 2796 2799 2803 2807 2813 2821 2830 2835 2837 2841 2849 2855 2855 2855 2851 2848 2848 2848 2855 2868 2880 2885 2885 2888 2888 2888 2881 2881 2880 2878 2878 2878 2888 2895 2895 2898 2899 2900 2905 2906 2915 2919 2919 2919 2916 2916 2915 2915 2915 2912 2912 2913 2913 2920 2923 2923 2923 2923 2923 2928 2932 2932 2932 2914 2892 2876 2863 2857 2849 2817 2740 2694 2620 2566 0 0 0 0 0 0 0 0 0 0 0 0 0 0 0 0 0 1975 1967 1967 1967 1981 1981 1981 1968 1943 1922 1916 0 0 0 0 0 0 0 0 0 0 0 0 0 0 0 2764 3019 3186 3392 3503 3633 3668 3684 3684 3685 3685 3688 3688 3695 3699 3700 3701 3710 3710 3710 3710 3710 3711 3712 3713 3713 3714 3714 3714 3714 3719 3720 3723 3731 3738 3738 3744 3748 3756 3761 3764 3765 3765 3765 3763 3762 3761 3761 3761 3761 3759 3759 3759 3759 3758 3758 3757 3754 3753 3751 3751 3751 3752 3758 3762 3762 3762 3758 3758 3758 3767 3772 3772 3772 3752 3715 3630 3462 3107 2749 2548 0 2404 2372 2367 2364 2363 2360 2354 2347 2346 2346 2345 2345 2342 2342 2341 2338 2336 2335 2334 2332 2331 2331 2331 2331 2331 2331 2331 2330 2329 2326 2326 2326 2325 2325 2324 2324 2324 2323 2322 2321 2320 2320 2320 2320 2320 2320 2320 2321 2321 2322 2324 2325 2325 2327 2327 2327 2325 2325 2325 2327 2327 2327 2319 2301 2270 2244 2222 2183 2140 2110 2091 2079 2072 2065 2055 2050 2048 2045 2044 2041 2039 2037 2034 2032 2030 2027 2025 2023 2019 2017 2014 2011 2009 2007 2004 1997 1984 1972 1962 1952 1942 1935 1927 1921 1912 1908 1902 1897 1893 1889 1886 1882 1878 1875 1872 1870 1866 1863 1861 1860 1858 1857 1855 1854 1853 1852 1851 1850 1850 1850 1849 1849 1849 1849 1850 1850 1851 1852 1852 1853 1854 1854 1854 1855 1855 1855 1855 1854 1854 1853 1852 1852 1850 1849 1848 1846 1845 1844 1842 1840 1839 1836 1835 1832 1829 1826 1823 1820 1818 1815 1812 1807 1804 1802 1799 1796 1795 1793 1791 1790 1789 1789 1789 1789 1789 1791 1792 1794 1797 1802 1805 1808 1811 1813 1816 1819 1820 1822 1823 1824 1824 1825 1826 1826 1826 1826 1826 1826 1826 1826 1825 1825 1825 1825 1824 1824 1823 1823 1823 1822 1822 1821 1820 1819 1818 1817 1816 1815 1814 1812 1811 1809 1809 1808 1806 1805 1803 1801 1800 1800 1800 1798 1798 1798 1799 1800 1801 1807 1810 1815 1821 1830 1838 1842 1845 1849 1852 1854 1856 1856 1857 1857 1857 1858 1858 1858 1859 1859 1859 1859 1859 1857 1858 1857 1857 1858 1858 1858 1859 1861 1864 1872 1894 1934 1940 1970 2001 2027 2042 2056 2056 2056 2052 2052 2050 2046 2040 2034 2031 2028 2022 2015 2010 2003 1997 1991 1983 1979 1974 1965 1956 1945 1936 1926 1918 1913 1910 1907 1904 1901 1898 1896 1894 1892 1890 1889 1886 1883 1881 1879 1878 1877 1875 1874 1874 1873 1873 1872
1700 1711 1714 1714 1714 1707 1699 1696 1693 1693 1693 1704 1709 1709 1719 1734 1761 1766 1786 1799 1805 1814 1826 1843 1870 1909 1947 1971 2000 2034 2066 2070 2101 2148 2194 2240 2270 2284 2299 2307 2332 2360 2391 2419 2443 2464 2482 2491 2498 2507 2514 2520 2527 2537 2545 2556 2564 2571 2578 2586 2594 2601 2611 2623 2633 2640 2645 2648 2653 2658 2663 2669 2672 2672 2673 2673 2680 2686 2697 2708 2722 2730 2733 2734 2737 2740 2745 2756 2769 2778 2783 2786 2789 2793 2796 2799 2803 2808 2813 2822 2830 2835 2836 2840 2846 2853 2853 2853 2854 2854 2855 2862 2872 2882 2885 2886 2887 2888 2888 2888 2883 2882 2882 2881 2882 2882 2888 2895 2895 2898 2899 2900 2905 2906 2915 2923 2923 2923 2918 2916 2916 2916 2920 2924 2928 2931 2939 2948 2948 2948 2948 2945 2945 2945 2955 2955 2955 2953 2934 2914 2898 2898 2898 2902 2902 2902 2882 2854 2802 2762 2715 2645 2615 2533 0 0 0 0 0 0 0 0 0 0 0 0 2000 1981 1981 1981 1981 1981 1968 1943 1911 1911 0 0 0 0 0 0 0 0 0 0 0 0 0 0 0 0 0 0 0 0 2750 3021 3139 3290 3411 3558 3628 3664 3695 3697 3699 3700 3710 3710 3710 3710 3710 3713 3715 3716 3716 3716 3715 3715 3715 3719 3722 3731 3735 3738 3738 3744 3748 3754 3761 3764 3765 3765 3765 3763 3761 3761 3760 3759 3759 3756 3756 3756 3756 3756 3756 3756 3754 3752 3751 3751 3751 3757 3764 3765 3765 3765 3758 3758 3758 3770 3774 3774 3774 3742 3694 3592 3291 2961 2676 2514 0 2388 2371 2359 2358 2358 2356 2343 2341 2341 2341 2341 2341 2339 2338 2336 2336 2335 2333 2332 2331 2331 2331 2331 2331 2331 2331 2331 2330 2330 2329 2328 2328 2327 2326 2326 2324 2324 2324 2324 2324 2323 2323 2322 2322 2322 2322 2322 2322 2324 2325 2327 2327 2328 2329 2329 2329 2328 2328 2328 2331 2331 2331 2319 2301 2275 2251 2227 2185 2141 2113 2094 2079 2070 2063 2055 2050 2047 2045 2043 2041 2039 2036 2033 2031 2028 2026 2023 2021 2018 2017 2014 2012 2009 2007 2004 1999 1991 1981 1972 1959 1949 1938 1927 1921 1916 1910 1903 1899 1895 1891 1887 1883 1880 1875 1872 1870 1866 1863 1860 1859 1858 1857 1854 1853 1852 1851 1850 1850 1849 1849 1848 1848 1848 1848 1849 1850 1850 1851 1851 1852 1853 1853 1853 1854 1854 1854 1854 1853 1853 1853 1852 1851 1850 1849 1848 1846 1845 1844 1842 1841 1840 1838 1836 1834 1830 1828 1825 1822 1819 1816 1812 1809 1806 1803 1800 1798 1795 1793 1791 1790 1789 1788 1788 1788 1789 1790 1792 1793 1795 1799 1803 1806 1809 1812 1814 1817 1819 1819 1822 1822 1823 1824 1825 1826 1826 1826 1826 1826 1826 1825 1825 1825 1825 1825 1825 1824 1823 1823 1823 1823 1822 1822 1821 1820 1819 1819 1817 1816 1815 1814 1813 1812 1810 1809 1808 1807 1804 1802 1801 1800 1800 1799 1799 1799 1799 1801 1801 1801 1808 1813 1818 1826 1836 1842 1845 1849 1852 1854 1856 1857 1858 1859 1859 1859 1860 1861 1861 1861 1861 1860 1860 1860 1860 1860 1860 1860 1860 1862 1862 1864 1864 1872 1894 1935 1940 1973 2008 2037 2051 2059 2059 2059 2057 2054 2052 2046 2040 2034 2033 2028 2022 2014 2007 2002 1993 1987 1983 1979 1975 1970 1962 1950 1940 1931 1923 1916 1912 1908 1905 1901 1899 1896 1894 1892 1890 1888 1886 1883 1881 1880 1879 1877 1875 1875 1875 1875 1877 1877
1699 1711 1714 1714 1714 1707 1699 1697 1697 1697 1705 1710 1714 1715 1719 1733 1752 1756 1779 1799 1805 1814 1826 1845 1870 1906 1940 1969 1997 2034 2058 2062 2097 2134 2183 2227 2270 2284 2290 2307 2329 2358 2385 2414 2439 2460 2475 2490 2496 2507 2514 2520 2527 2537 2544 2554 2563 2571 2578 2586 2595 2603 2610 2618 2627 2635 2645 2648 2653 2653 2658 2666 2670 2673 2676 2678 2680 2686 2697 2708 2720 2730 2734 2736 2738 2739 2745 2756 2764 2774 2781 2785 2788 2793 2796 2799 2803 2808 2815 2824 2830 2835 2836 2840 2845 2848 2849 2849 2850 2851 2858 2869 2879 2885 2885 2886 2887 2889 2889 2889 2885 2885 2885 2882 2885 2885 2888 2895 2895 2898 2899 2900 2905 2906 2915 2921 2921 2921 2922 2922 2922 2925 2927 2929 2930 2937 2943 2948 2957 2958 2958 2958 2958 2958 2964 2964 2964 2959 2959 2947 2931 2923 2923 2918 2918 2916 2899 2899 2899 2899 2899 2897 2855 2755 2744 2721 2667 2625 2536 0 0 0 0 0 0 0 0 0 0 1988 1981 1981 1968 1943 1911 0 0 0 0 0 0 0 0 0 0 0 0 0 0 0 0 0 0 0 0 0 0 0 0 0 2761 3029 3246 3270 3425 3507 3608 3688 3710 3710 3710 3710 3710 3713 3715 3718 3718 3718 3715 3715 3715 3719 3726 3731 3735 3738 3738 3740 3748 3754 3760 3764 3765 3765 3765 3763 3761 3758 3757 3757 3755 3754 3754 3753 3754 3755 3755 3754 3754 3752 3751 3751 3751 3758 3764 3769 3769 3769 3762 3762 3762 3775 3775 3775 3773 3731 3664 3467 3114 2788 2556 0 2402 2381 2365 2354 2352 2351 2347 2336 2335 2335 2334 2334 2333 2332 2331 2330 2329 2329 2329 2328 2328 2328 2330 2331 2331 2331 2331 2331 2331 2330 2330 2330 2330 2330 2329 2328 2328 2326 2326 2326 2326 2326 2326 2326 2325 2325 2325 2325 2325 2327 2328 2329 2330 2331 2332 2332 2332 2333 2333 2333 2333 2333 2331 2318 2300 2275 2251 2232 2193 2146 2123 2097 2080 2070 2063 2055 2050 2046 2045 2042 2039 2037 2035 2032 2030 2027 2025 2023 2020 2018 2016 2014 2012 2009 2007 2004 1999 1996 1988 1980 1969 1955 1941 1930 1924 1918 1912 1907 1904 1898 1894 1889 1885 1880 1876 1872 1870 1866 1863 1860 1859 1858 1856 1854 1853 1852 1850 1850 1849 1849 1848 1847 1847 1847 1847 1848 1848 1849 1849 1850 1850 1851 1853 1853 1853 1853 1853 1853 1853 1853 1853 1852 1851 1850 1849 1848 1847 1846 1844 1843 1841 1840 1838 1837 1834 1832 1829 1826 1823 1820 1816 1813 1811 1808 1804 1801 1798 1796 1793 1792 1790 1789 1788 1788 1788 1788 1790 1791 1792 1794 1797 1799 1802 1806 1810 1812 1815 1817 1819 1821 1822 1823 1823 1824 1825 1825 1825 1825 1825 1825 1825 1825 1825 1825 1825 1824 1824 1824 1824 1823 1823 1822 1822 1821 1821 1820 1819 1819 1817 1817 1816 1815 1814 1812 1811 1810 1808 1806 1804 1803 1801 1800 1799 1799 1799 1800 1801 1801 1801 1803 1811 1818 1821 1829 1840 1845 1849 1852 1855 1856 1858 1859 1859 1860 1861 1862 1864 1864 1864 1864 1863 1863 1863 1863 1863 1863 1863 1864 1864 1864 1864 1864 1872 1894 1938 1944 1976 2012 2038 2051 2059 2059 2059 2057 2055 2052 2046 2040 2037 2034 2028 2022 2014 2007 2002 1993 1987 1983 1979 1975 1970 1964 1955 1943 1934 1928 1922 1917 1913 1906 1904 1901 1898 1896 1892 1890 1888 1886 1883 1881 1880 1880 1877 1875 1875 1875 1875 1877 1877
1698 1704 1709 1709 1709 1702 1698 1698 1698 1703 1714 1721 1721 1722 1722 1733 1741 1749 1764 1790 1802 1814 1826 1845 1870 1906 1936 1960 1995 2034 2057 2060 2083 2126 2166 2209 2239 2267 2287 2307 2329 2355 2377 2406 2436 2455 2475 2479 2495 2507 2514 2519 2527 2537 2541 2549 2562 2571 2578 2586 2595 2602 2609 2615 2625 2634 2643 2647 2652 2652 2655 2663 2669 2673 2677 2684 2687 2692 2697 2708 2720 2730 2734 2736 2739 2740 2747 2756 2761 2771 2778 2781 2788 2793 2795 2799 2803 2809 2817 2826 2831 2836 2836 2840 2844 2844 2845 2845 2848 2853 2858 2869 2879 2885 2885 2885 2887 2889 2889 2889 2890 2889 2887 2887 2888 2888 2888 2895 2898 2903 2903 2903 2905 2910 2915 2921 2921 2921 2922 2922 2922 2925 2927 2929 2930 2937 2943 2948 2957 2963 2963 2964 2967 2967 2967 2965 2964 2962 2959 2959 2951 2942 2937 2933 2924 2918 2917 2916 2916 2916 2916 2913 2905 2880 2878 2861 2827 2794 2745 2743 2733 2647 2586 2501 2427 2286 0 0 0 0 0 0 0 0 0 0 0 0 0 0 0 0 0 0 0 0 0 0 0 0 0 0 0 0 0 0 0 0 0 0 0 0 0 0 0 2760 2991 3166 3248 3438 3554 3627 3706 3713 3715 3718 3718 3718 3714 3714 3714 3720 3727 3731 3735 3735 3735 3736 3742 3752 3758 3761 3761 3761 3761 3757 3757 3756 3756 3755 3753 3753 3753 3753 3754 3755 3755 3753 3753 3751 3751 3751 3751 3758 3764 3770 3770 3771 3772 3772 3775 3775 3775 3759 3738 3702 3630 3401 3013 2656 0 0 2390 2372 2362 2349 2347 2342 2336 2330 2328 2328 2327 2327 2324 2324 2323 2323 2324 2324 2324 2324 2324 2325 2326 2328 2331 2331 2331 2331 2331 2331 2332 2332 2332 2331 2331 2330 2329 2329 2328 2328 2328 2329 2329 2329 2329 2329 2329 2330 2330 2330 2331 2333 2333 2335 2335 2336 2336 2336 2336 2337 2336 2336 2331 2318 2300 2275 2251 2232 2212 2168 2133 2100 2080 2070 2063 2056 2050 2046 2044 2041 2038 2037 2034 2031 2029 2026 2023 2022 2020 2018 2016 2014 2012 2009 2007 2005 2001 1996 1990 1983 1974 1963 1948 1935 1928 1923 1917 1913 1909 1905 1899 1893 1887 1883 1878 1874 1870 1866 1863 1860 1859 1858 1856 1854 1853 1852 1850 1849 1848 1848 1847 1847 1846 1846 1846 1846 1847 1847 1848 1849 1850 1851 1852 1852 1853 1853 1853 1853 1853 1853 1852 1851 1851 1849 1849 1848 1847 1846 1845 1844 1842 1840 1839 1837 1835 1833 1829 1827 1824 1820 1817 1815 1812 1808 1805 1802 1799 1797 1795 1792 1790 1789 1788 1787 1787 1787 1788 1789 1790 1792 1795 1796 1798 1803 1807 1810 1813 1815 1817 1819 1821 1823 1823 1823 1824 1824 1825 1825 1825 1825 1825 1825 1825 1825 1825 1824 1824 1824 1824 1824 1824 1823 1823 1822 1822 1821 1820 1820 1820 1819 1817 1815 1814 1813 1813 1811 1810 1808 1805 1804 1802 1801 1800 1800 1800 1800 1801 1801 1801 1803 1810 1817 1820 1825 1834 1844 1850 1853 1856 1857 1858 1860 1861 1862 1863 1865 1865 1867 1867 1867 1866 1866 1866 1865 1865 1865 1865 1865 1865 1865 1865 1865 1873 1893 1940 1976 1980 2015 2039 2051 2059 2059 2059 2057 2055 2052 2046 2041 2037 2034 2028 2022 2014 2007 2002 1993 1987 1983 1979 1975 1970 1964 1956 1946 1939 1930 1924 1918 1914 1909 1906 1904 1900 1898 1895 1892 1889 1886 1883 1881 1880 1880 1876 1873 1873 1873 1875 1877 1877
1698 1699 1705 1705 1705 1700 1699 1699 1699 1707 1716 1723 1724 1725 1725 1733 1737 1745 1746 1764 1787 1803 1826 1845 1861 1890 1919 1942 1978 2013 2045 2048 2076 2106 2137 2177 2210 2244 2274 2291 2321 2346 2369 2402 2430 2451 2470 2474 2495 2507 2514 2519 2528 2540 2540 2549 2558 2569 2578 2586 2595 2602 2608 2615 2625 2634 2638 2644 2650 2651 2653 2658 2665 2672 2679 2685 2693 2694 2700 2708 2720 2730 2734 2737 2740 2742 2749 2756 2761 2767 2774 2778 2786 2791 2795 2798 2803 2809 2817 2826 2833 2836 2837 2841 2844 2844 2845 2845 2848 2854 2858 2869 2879 2884 2885 2885 2885 2889 2890 2891 2891 2891 2891 2892 2892 2892 2897 2899 2902 2906 2909 2910 2910 2912 2916 2918 2918 2918 2920 2921 2923 2925 2927 2929 2930 2937 2943 2948 2957 2963 2963 2964 2967 2967 2967 2964 2959 2959 2959 2959 2955 2946 2941 2935 2929 2924 2922 2922 2922 2922 2922 2922 2918 2914 2895 2872 2855 2846 2846 2846 2844 2844 2819 2775 2696 2620 2603 2595 2555 2513 0 0 0 0 0 0 0 0 0 0 0 0 0 0 0 0 0 0 0 0 0 0 0 0 0 0 0 0 0 0 0 0 0 0 0 0 0 0 0 2664 2953 3144 3316 3404 3562 3674 3708 3711 3711 3711 3711 3719 3730 3731 3732 3733 3735 3736 3738 3750 3750 3752 3754 3757 3757 3757 3757 3756 3755 3755 3753 3753 3753 3753 3754 3755 3755 3753 3753 3751 3751 3751 3752 3758 3764 3770 3780 3784 3784 3784 3783 3775 3762 3727 3692 3664 3588 3288 2913 2602 0 2388 2370 2359 2342 2335 2331 2330 2325 2322 2322 2322 2322 2322 2318 2317 2317 2317 2319 2319 2319 2319 2320 2322 2324 2326 2327 2330 2330 2331 2331 2331 2332 2333 2333 2333 2332 2331 2331 2330 2330 2330 2330 2330 2331 2331 2331 2331 2332 2333 2334 2334 2335 2336 2338 2339 2340 2340 2340 2340 2340 2340 2339 2339 2332 2318 2300 2275 2250 2234 2214 2171 2134 2104 2084 2073 2063 2056 2050 2046 2043 2039 2037 2035 2032 2031 2028 2026 2023 2022 2020 2018 2016 2014 2012 2009 2007 2005 2001 1996 1991 1986 1977 1965 1953 1941 1933 1926 1922 1919 1914 1910 1903 1896 1890 1885 1882 1876 1872 1867 1863 1860 1859 1858 1856 1854 1853 1852 1850 1849 1848 1848 1846 1846 1845 1845 1845 1845 1846 1847 1847 1848 1849 1850 1851 1852 1852 1852 1852 1852 1852 1852 1851 1851 1850 1849 1848 1848 1847 1846 1845 1844 1842 1841 1839 1838 1837 1834 1831 1828 1825 1822 1820 1817 1813 1811 1807 1803 1800 1798 1796 1793 1792 1790 1788 1787 1787 1787 1787 1787 1787 1788 1791 1794 1796 1799 1804 1808 1812 1815 1816 1819 1821 1822 1822 1823 1824 1824 1824 1824 1825 1825 1825 1825 1825 1825 1825 1824 1824 1824 1824 1824 1824 1823 1823 1823 1822 1822 1822 1821 1820 1819 1818 1817 1816 1815 1814 1813 1811 1809 1807 1806 1804 1803 1803 1801 1801 1801 1801 1801 1801 1803 1807 1814 1820 1824 1832 1841 1849 1854 1859 1859 1861 1863 1865 1866 1867 1868 1868 1869 1869 1869 1869 1869 1869 1868 1868 1869 1868 1868 1868 1866 1866 1866 1873 1890 1940 1976 1980 2015 2039 2051 2059 2059 2059 2057 2055 2052 2046 2042 2037 2034 2028 2021 2014 2007 2002 1995 1989 1983 1979 1975 1970 1964 1957 1949 1941 1934 1927 1919 1915 1911 1908 1907 1905 1901 1898 1895 1892 1886 1883 1881 1880 1879 1876 1872 1871 1869 1869 1869 1872
1696 1697 1702 1702 1702 1699 1699 1699 1701 1708 1718 1723 1725 1725 1727 1733 1735 1740 1743 1751 1776 1795 1813 1829 1844 1873 1903 1936 1968 2008 2044 2048 2067 2088 2120 2156 2190 2230 2264 2283 2306 2336 2366 2397 2424 2441 2459 2463 2477 2491 2503 2519 2528 2540 2540 2544 2552 2562 2572 2583 2594 2602 2606 2614 2625 2633 2638 2642 2647 2651 2653 2658 2662 2671 2680 2686 2696 2702 2704 2710 2720 2730 2733 2736 2740 2747 2756 2760 2761 2767 2773 2778 2785 2789 2794 2798 2804 2809 2817 2826 2833 2836 2839 2844 2844 2844 2845 2845 2848 2854 2857 2863 2873 2879 2879 2880 2886 2891 2891 2892 2892 2892 2893 2894 2895 2898 2900 2901 2903 2907 2909 2911 2913 2914 2916 2918 2918 2918 2919 2921 2923 2924 2924 2925 2927 2930 2932 2936 2944 2950 2957 2963 2969 2969 2969 2956 2956 2956 2955 2955 2955 2946 2941 2936 2936 2934 2934 2932 2929 2926 2924 2924 2923 2914 2897 2887 2887 2887 2893 2899 2899 2899 2897 2889 2884 2877 2875 2862 2821 2793 2747 2670 2636 2537 0 0 0 0 0 0 0 0 0 0 0 0 0 0 0 0 0 0 0 0 0 0 0 0 0 0 0 0 0 0 0 0 0 0 0 0 0 0 0 0 2777 2979 3099 3291 3415 3593 3675 3713 3730 3731 3732 3733 3734 3736 3738 3745 3747 3751 3754 3757 3757 3757 3757 3756 3755 3755 3753 3753 3753 3754 3756 3756 3756 3755 3753 3753 3752 3752 3753 3754 3762 3770 3780 3790 3790 3790 3783 3769 3737 3696 3511 3367 3284 3008 2715 2511 0 2363 2350 2341 2326 2322 2321 2319 2319 2320 2319 2319 2319 2317 2314 2313 2313 2313 2314 2314 2315 2315 2316 2318 2321 2322 2324 2327 2328 2329 2329 2331 2332 2333 2333 2333 2333 2333 2333 2333 2332 2332 2332 2333 2334 2334 2334 2334 2335 2337 2337 2338 2340 2341 2343 2344 2344 2344 2343 2342 2342 2342 2342 2342 2333 2319 2303 2275 2250 2234 2217 2185 2146 2122 2094 2077 2063 2056 2050 2045 2042 2039 2037 2034 2032 2029 2027 2025 2023 2021 2020 2017 2015 2014 2012 2010 2008 2006 2003 1998 1995 1991 1982 1972 1959 1948 1938 1932 1926 1923 1918 1914 1907 1902 1896 1890 1885 1881 1874 1870 1864 1861 1859 1858 1856 1855 1853 1852 1850 1849 1848 1847 1846 1845 1844 1844 1844 1844 1844 1845 1846 1847 1849 1850 1851 1851 1851 1851 1851 1851 1851 1851 1851 1851 1850 1849 1848 1848 1847 1846 1845 1844 1842 1841 1839 1838 1837 1835 1833 1830 1827 1824 1821 1819 1816 1812 1809 1807 1802 1800 1797 1794 1793 1790 1789 1788 1787 1786 1786 1786 1786 1787 1789 1792 1794 1798 1801 1806 1809 1812 1814 1816 1819 1820 1822 1823 1823 1823 1824 1824 1824 1824 1824 1824 1824 1824 1824 1824 1824 1824 1824 1824 1824 1824 1824 1824 1823 1823 1822 1822 1821 1821 1819 1818 1817 1816 1816 1814 1813 1811 1809 1808 1806 1805 1804 1804 1803 1802 1802 1802 1802 1803 1806 1812 1817 1822 1827 1839 1849 1854 1859 1859 1861 1864 1866 1867 1869 1870 1871 1871 1871 1872 1872 1872 1871 1871 1871 1871 1871 1871 1870 1868 1868 1868 1874 1889 1940 1976 1983 2015 2039 2050 2056 2058 2058 2058 2055 2052 2046 2042 2037 2031 2026 2019 2014 2009 2004 1997 1991 1985 1979 1974 1969 1964 1959 1952 1945 1937 1929 1923 1918 1913 1910 1908 1907 1904 1901 1897 1893 1887 1883 1881 1880 1879 1875 1871 1869 1867 1864 1864 1864
1693 1693 1693 1693 1695 1696 1698 1701 1708 1711 1720 1725 1726 1726 1727 1733 1735 1739 1742 1750 1771 1789 1802 1818 1837 1865 1898 1933 1966 2004 2008 2045 2062 2080 2114 2156 2186 2222 2250 2268 2296 2327 2355 2385 2411 2428 2440 2445 2462 2478 2494 2507 2528 2537 2538 2540 2542 2550 2563 2576 2586 2595 2603 2614 2623 2633 2637 2642 2643 2648 2652 2658 2662 2671 2680 2689 2698 2705 2708 2714 2721 2730 2732 2736 2740 2747 2756 2760 2760 2766 2773 2778 2785 2788 2794 2798 2805 2810 2817 2826 2833 2836 2839 2844 2844 2845 2846 2848 2851 2854 2857 2859 2865 2872 2875 2879 2886 2891 2891 2892 2892 2893 2893 2895 2897 2900 2901 2903 2905 2907 2910 2912 2913 2914 2916 2917 2917 2917 2918 2919 2922 2922 2923 2924 2926 2927 2927 2928 2934 2942 2952 2963 2963 2963 2963 2951 2951 2951 2954 2954 2954 2946 2941 2941 2941 2942 2942 2942 2932 2926 2925 2925 2924 2915 2905 2905 2905 2909 2920 2931 2931 2931 2919 2919 2919 2919 2919 2919 2886 2863 2860 2849 2842 2826 2777 2758 2714 2518 0 0 0 0 0 0 0 0 0 0 0 0 0 0 0 0 0 0 0 0 0 0 0 0 0 0 0 0 0 0 0 0 0 0 0 0 0 0 0 0 2582 2864 3240 3531 3730 3731 3733 3735 3735 3737 3738 3741 3747 3751 3754 3757 3757 3757 3757 3756 3755 3756 3756 3756 3756 3757 3757 3757 3757 3757 3757 3753 3752 3752 3753 3754 3762 3770 3777 3791 3791 3791 3775 3750 3712 3632 3392 3096 2940 2749 2546 0 0 2338 2327 2318 2310 2310 2310 2309 2308 2308 2308 2306 2306 2305 2305 2305 2305 2305 2305 2306 2306 2307 2311 2314 2316 2319 2320 2323 2325 2327 2327 2328 2330 2333 2333 2333 2333 2333 2334 2334 2335 2335 2335 2337 2337 2337 2338 2338 2338 2339 2340 2341 2342 2345 2346 2346 2347 2347 2347 2347 2347 2347 2347 2347 2336 2320 2309 2278 2250 2234 2219 2197 2158 2126 2098 2078 2063 2053 2049 2045 2042 2039 2036 2034 2031 2029 2027 2024 2023 2021 2020 2017 2015 2014 2012 2010 2008 2008 2006 2000 1998 1994 1989 1977 1963 1956 1947 1940 1935 1929 1921 1916 1909 1904 1899 1893 1888 1884 1878 1871 1866 1863 1860 1859 1857 1855 1854 1852 1850 1849 1847 1846 1845 1845 1844 1844 1843 1843 1843 1843 1845 1846 1848 1848 1850 1850 1850 1850 1850 1850 1850 1850 1850 1849 1849 1848 1847 1847 1847 1846 1845 1844 1842 1841 1841 1839 1839 1837 1834 1832 1829 1826 1823 1821 1818 1815 1812 1808 1804 1801 1799 1796 1794 1791 1789 1788 1787 1786 1786 1786 1785 1785 1786 1789 1792 1795 1800 1803 1807 1810 1813 1814 1818 1819 1820 1822 1822 1822 1823 1824 1824 1824 1824 1824 1824 1824 1824 1824 1824 1824 1824 1824 1824 1824 1824 1824 1824 1824 1823 1823 1822 1821 1820 1820 1819 1817 1817 1816 1815 1814 1811 1809 1808 1807 1807 1806 1805 1804 1804 1803 1803 1803 1806 1808 1813 1821 1826 1833 1844 1854 1859 1859 1861 1864 1867 1869 1870 1871 1872 1873 1873 1874 1874 1873 1873 1873 1873 1873 1873 1873 1873 1872 1872 1872 1876 1889 1928 1976 1985 2013 2038 2050 2053 2057 2057 2057 2056 2052 2047 2042 2037 2028 2021 2016 2014 2009 2004 1999 1993 1986 1979 1974 1969 1964 1959 1954 1948 1941 1935 1928 1921 1916 1914 1911 1907 1904 1902 1900 1895 1887 1883 1881 1880 1879 1874 1870 1865 1861 1858 1858 1858
1691 1684 1684 1684 1689 1696 1701 1707 1711 1711 1720 1725 1726 1726 1727 1730 1734 1737 1739 1749 1771 1788 1800 1815 1833 1859 1889 1929 1964 1997 2001 2027 2053 2079 2114 2156 2184 2214 2233 2257 2290 2321 2349 2372 2398 2420 2426 2439 2459 2474 2492 2506 2518 2528 2529 2532 2536 2550 2563 2576 2584 2590 2598 2610 2623 2633 2637 2640 2642 2648 2652 2658 2662 2671 2681 2692 2701 2705 2708 2714 2721 2730 2731 2736 2740 2747 2756 2760 2760 2766 2771 2778 2785 2788 2794 2798 2805 2808 2815 2823 2828 2833 2839 2844 2844 2845 2846 2848 2852 2855 2857 2859 2864 2870 2873 2879 2886 2891 2891 2892 2892 2893 2894 2897 2899 2901 2903 2905 2907 2909 2910 2912 2913 2914 2915 2915 2917 2917 2918 2919 2921 2922 2923 2923 2925 2926 2927 2928 2934 2942 2952 2962 2962 2962 2960 2951 2951 2951 2947 2947 2946 2938 2936 2936 2936 2942 2942 2942 2932 2925 2925 2923 2923 2923 2922 2922 2922 2929 2938 2938 2938 2933 2929 2929 2925 2925 2925 2924 2910 2901 2901 2901 2902 2902 2902 2880 2855 2843 2838 2816 2745 2680 2642 2581 2527 0 0 0 0 0 0 0 0 0 0 0 0 0 0 0 0 0 0 0 0 0 0 0 0 0 0 0 0 0 0 0 0 0 0 0 2812 3264 3662 3733 3735 3738 3738 3738 3739 3745 3747 3752 3757 3760 3760 3761 3761 3761 3761 3761 3761 3760 3758 3758 3760 3760 3761 3764 3764 3764 3754 3754 3754 3754 3762 3770 3780 3789 3789 3789 3769 3723 3572 3372 3082 2854 2691 2546 0 0 2326 2316 2313 2309 2302 2299 2299 2299 2299 2299 2299 2299 2298 2298 2298 2298 2299 2299 2300 2301 2305 2306 2308 2311 2312 2313 2314 2316 2319 2321 2322 2325 2327 2330 2332 2333 2333 2333 2334 2334 2337 2338 2339 2339 2339 2340 2340 2341 2342 2342 2345 2345 2345 2347 2348 2349 2350 2350 2350 2351 2351 2351 2351 2349 2337 2323 2314 2287 2256 2236 2219 2200 2160 2128 2099 2078 2063 2053 2049 2046 2042 2038 2035 2033 2031 2028 2025 2024 2022 2020 2018 2017 2015 2013 2011 2010 2008 2008 2006 2004 1999 1995 1989 1982 1971 1964 1956 1947 1939 1931 1923 1917 1909 1904 1900 1896 1889 1884 1879 1873 1868 1865 1862 1860 1859 1857 1855 1852 1851 1849 1847 1846 1845 1844 1843 1843 1843 1843 1843 1843 1844 1845 1847 1847 1848 1849 1849 1850 1850 1850 1850 1850 1849 1849 1848 1848 1847 1847 1846 1845 1845 1844 1843 1842 1841 1839 1839 1837 1835 1833 1830 1828 1825 1823 1820 1817 1813 1809 1805 1803 1799 1797 1795 1792 1790 1789 1787 1786 1785 1785 1785 1785 1785 1786 1789 1792 1797 1801 1804 1807 1810 1812 1815 1818 1820 1820 1821 1822 1823 1823 1823 1824 1824 1824 1824 1824 1824 1824 1824 1824 1824 1824 1824 1824 1825 1825 1824 1824 1824 1824 1824 1822 1822 1821 1820 1819 1819 1817 1816 1815 1813 1811 1810 1809 1807 1807 1806 1805 1805 1805 1805 1805 1806 1807 1808 1818 1826 1829 1838 1847 1855 1859 1861 1864 1868 1870 1871 1872 1873 1875 1876 1876 1876 1876 1875 1875 1875 1876 1876 1877 1877 1877 1877 1877 1880 1889 1926 1975 1997 2008 2031 2050 2053 2057 2058 2058 2058 2054 2047 2040 2034 2027 2019 2016 2014 2010 2004 1999 1993 1986 1979 1974 1969 1965 1961 1956 1951 1945 1938 1930 1924 1920 1916 1912 1908 1905 1904 1901 1895 1889 1884 1881 1879 1876 1874 1869 1865 1861 1858 1858 1858
1691 1684 1684 1684 1689 1696 1702 1709 1711 1711 1720 1725 1725 1725 1726 1728 1731 1737 1740 1750 1771 1787 1798 1815 1830 1843 1866 1914 1951 1981 1985 2010 2039 2076 2109 2148 2182 2204 2222 2254 2290 2321 2347 2371 2392 2415 2420 2439 2458 2474 2487 2497 2507 2519 2525 2531 2536 2550 2563 2576 2582 2585 2593 2605 2622 2630 2635 2637 2639 2644 2652 2658 2663 2673 2681 2692 2701 2705 2708 2714 2721 2724 2727 2730 2734 2740 2746 2751 2759 2766 2771 2778 2785 2788 2794 2800 2804 2808 2813 2818 2824 2830 2837 2842 2844 2845 2846 2848 2852 2855 2856 2859 2864 2868 2873 2878 2886 2890 2890 2891 2891 2893 2894 2897 2899 2902 2905 2907 2909 2911 2911 2912 2914 2915 2916 2917 2917 2917 2918 2919 2919 2921 2921 2921 2921 2923 2924 2927 2932 2941 2949 2959 2959 2959 2959 2950 2950 2949 2947 2947 2943 2934 2934 2934 2934 2942 2942 2942 2932 2925 2925 2925 2931 2934 2934 2937 2939 2942 2944 2944 2944 2934 2929 2929 2929 2929 2927 2925 2920 2920 2920 2924 2924 2924 2918 2904 2904 2904 2906 2906 2906 2898 2887 2845 2820 2777 2753 2750 2674 2597 2518 0 0 0 0 0 0 0 0 0 0 0 0 0 0 0 0 0 0 0 0 0 0 0 0 0 0 0 0 0 2812 3264 3662 3742 3742 3742 3741 3741 3741 3745 3750 3754 3761 3761 3762 3763 3763 3763 3764 3764 3764 3763 3763 3763 3763 3763 3769 3774 3774 3774 3764 3755 3755 3755 3768 3771 3781 3788 3788 3788 3762 3609 3358 3064 2801 2616 0 0 0 2307 2306 2306 2305 2305 2297 2291 2291 2290 2290 2290 2289 2289 2289 2289 2289 2289 2290 2293 2295 2298 2301 2303 2305 2306 2309 2310 2312 2314 2318 2318 2318 2321 2324 2328 2330 2332 2333 2333 2334 2334 2337 2338 2339 2341 2342 2342 2342 2344 2346 2349 2352 2352 2352 2353 2353 2353 2354 2354 2354 2355 2355 2355 2354 2353 2340 2330 2320 2294 2261 2238 2219 2200 2160 2130 2100 2080 2063 2053 2049 2046 2042 2038 2035 2032 2030 2026 2024 2022 2020 2019 2017 2016 2014 2012 2010 2009 2008 2008 2006 2004 2001 1995 1991 1984 1979 1971 1962 1951 1940 1933 1925 1919 1913 1905 1901 1898 1891 1884 1880 1875 1869 1866 1862 1860 1859 1857 1855 1852 1851 1849 1847 1845 1844 1844 1843 1843 1842 1842 1842 1842 1843 1843 1846 1847 1847 1848 1849 1849 1849 1849 1849 1849 1849 1849 1848 1848 1847 1847 1846 1845 1845 1844 1843 1842 1841 1840 1839 1838 1836 1834 1831 1829 1826 1824 1821 1819 1815 1811 1807 1803 1800 1798 1796 1793 1791 1789 1788 1786 1785 1784 1784 1784 1785 1786 1788 1789 1793 1798 1802 1806 1809 1811 1813 1816 1818 1818 1819 1820 1822 1823 1823 1824 1824 1824 1824 1824 1825 1825 1825 1825 1825 1825 1825 1825 1825 1825 1825 1825 1825 1825 1824 1824 1824 1823 1821 1821 1820 1819 1818 1817 1815 1812 1812 1810 1808 1807 1807 1807 1806 1806 1806 1806 1806 1807 1808 1809 1821 1825 1832 1842 1852 1859 1864 1866 1870 1871 1873 1874 1876 1877 1879 1879 1879 1878 1878 1878 1878 1878 1879 1880 1880 1880 1882 1882 1887 1896 1926 1972 1997 2005 2023 2050 2053 2057 2058 2058 2058 2054 2047 2040 2033 2024 2019 2016 2014 2011 2004 1999 1993 1986 1979 1974 1969 1965 1961 1956 1951 1945 1938 1933 1928 1924 1918 1915 1910 1906 1904 1901 1896 1890 1886 1882 1879 1876 1875 1869 1865 1861 1858 1857 1857
1691 1684 1684 1684 1689 1696 1702 1709 1711 1713 1716 1719 1724 1725 1725 1728 1731 1737 1741 1751 1773 1787 1795 1806 1820 1834 1856 1899 1931 1962 1966 2004 2038 2075 2109 2142 2177 2197 2221 2251 2287 2318 2347 2370 2389 2406 2412 2438 2457 2473 2484 2490 2498 2510 2525 2529 2536 2549 2563 2576 2582 2583 2588 2598 2615 2620 2629 2634 2637 2642 2649 2658 2665 2673 2681 2692 2701 2703 2704 2707 2714 2717 2717 2721 2727 2731 2733 2742 2753 2764 2768 2778 2786 2794 2797 2803 2804 2807 2809 2814 2821 2829 2837 2842 2843 2843 2845 2848 2852 2855 2855 2859 2863 2867 2872 2876 2882 2887 2889 2889 2891 2893 2894 2897 2899 2902 2905 2907 2910 2912 2914 2914 2914 2915 2916 2917 2917 2917 2917 2916 2916 2916 2916 2917 2917 2917 2919 2926 2932 2941 2949 2959 2959 2959 2959 2950 2950 2949 2947 2947 2943 2934 2928 2928 2928 2931 2932 2932 2932 2929 2929 2929 2939 2943 2944 2945 2946 2946 2946 2945 2944 2934 2931 2931 2931 2930 2929 2929 2924 2924 2924 2924 2927 2927 2927 2918 2910 2910 2910 2913 2913 2913 2915 2919 2924 2924 2924 2914 2903 2889 2816 2749 2685 2599 2560 2504 0 0 0 0 0 0 0 0 0 0 0 0 0 0 0 0 0 0 0 0 0 0 0 0 2812 3264 3662 3753 3753 3753 3748 3747 3747 3747 3754 3762 3766 3766 3766 3764 3764 3764 3764 3766 3766 3767 3766 3768 3769 3770 3776 3780 3780 3780 3770 3768 3768 3768 3780 3781 3785 3785 3781 3772 3706 3477 3099 2800 2596 0 0 0 2296 2296 2296 2296 2296 2291 2287 2285 2284 2283 2283 2283 2282 2281 2282 2281 2281 2282 2284 2287 2291 2292 2294 2298 2300 2302 2305 2307 2310 2312 2315 2316 2317 2320 2322 2324 2327 2331 2332 2332 2333 2334 2337 2338 2339 2341 2342 2343 2344 2346 2349 2352 2355 2356 2356 2356 2356 2356 2356 2356 2356 2357 2359 2359 2359 2358 2349 2333 2321 2297 2263 2238 2218 2200 2163 2130 2102 2083 2067 2057 2054 2048 2043 2038 2035 2032 2029 2026 2023 2021 2019 2018 2016 2015 2014 2012 2010 2008 2006 2006 2005 2004 2001 1997 1991 1987 1983 1978 1969 1959 1947 1936 1929 1920 1915 1911 1906 1900 1894 1889 1883 1877 1872 1866 1863 1861 1859 1857 1856 1854 1851 1849 1848 1845 1844 1842 1842 1842 1841 1841 1841 1841 1842 1843 1844 1846 1847 1848 1848 1848 1848 1849 1849 1849 1849 1848 1848 1847 1847 1846 1845 1845 1844 1843 1843 1842 1841 1840 1839 1838 1836 1835 1832 1831 1828 1825 1823 1819 1817 1813 1809 1805 1802 1799 1797 1794 1792 1790 1788 1786 1785 1784 1784 1784 1784 1784 1786 1786 1788 1792 1799 1805 1808 1810 1812 1815 1817 1817 1819 1820 1821 1822 1823 1824 1824 1824 1824 1824 1825 1825 1825 1825 1825 1825 1825 1825 1825 1825 1825 1825 1825 1825 1825 1825 1825 1824 1823 1822 1821 1820 1819 1818 1816 1814 1812 1811 1810 1809 1808 1808 1807 1807 1806 1806 1807 1807 1808 1809 1812 1822 1830 1839 1851 1859 1865 1870 1874 1874 1877 1877 1879 1881 1882 1882 1882 1882 1882 1881 1881 1881 1881 1882 1882 1882 1884 1884 1888 1900 1923 1972 1997 2002 2023 2050 2053 2058 2058 2058 2058 2054 2046 2040 2033 2024 2019 2016 2014 2011 2004 1999 1992 1985 1979 1974 1970 1965 1961 1956 1951 1945 1938 1933 1930 1926 1921 1918 1910 1906 1904 1901 1896 1892 1888 1882 1879 1876 1875 1869 1868 1865 1860 1859 1859
1697 1690 1690 1690 1691 1699 1706 1710 1711 1713 1716 1719 1724 1725 1725 1728 1731 1739 1744 1747 1773 1787 1791 1796 1812 1828 1853 1883 1914 1957 1961 2004 2038 2075 2109 2137 2159 2188 2216 2250 2286 2316 2345 2370 2385 2402 2411 2436 2457 2472 2481 2487 2495 2506 2517 2529 2536 2549 2563 2576 2579 2579 2583 2592 2605 2610 2623 2631 2636 2640 2647 2657 2665 2673 2681 2687 2695 2696 2700 2705 2711 2712 2713 2716 2720 2723 2731 2742 2750 2762 2766 2777 2786 2796 2801 2803 2803 2803 2806 2811 2819 2829 2837 2841 2843 2843 2845 2848 2850 2853 2855 2859 2863 2866 2868 2872 2876 2882 2887 2889 2891 2892 2894 2896 2899 2902 2905 2908 2911 2915 2915 2915 2915 2915 2916 2917 2917 2917 2916 2914 2914 2914 2914 2914 2915 2917 2919 2924 2932 2941 2949 2954 2958 2958 2958 2949 2949 2949 2947 2947 2943 2934 2928 2928 2928 2929 2932 2932 2932 2932 2932 2939 2944 2946 2946 2946 2946 2946 2945 2942 2940 2934 2934 2933 2933 2932 2931 2930 2929 2927 2927 2927 2930 2930 2930 2921 2914 2913 2913 2913 2914 2915 2915 2922 2927 2927 2927 2924 2919 2917 2907 2884 2867 2826 2812 2781 2780 2761 2757 2715 2564 0 0 0 0 0 0 0 0 0 0 0 0 0 0 0 0 0 0 0 2928 3378 3710 3755 3755 3758 3758 3758 3760 3764 3764 3770 3775 3775 3775 3769 3766 3766 3766 3769 3769 3770 3770 3771 3775 3778 3784 3784 3784 3782 3773 3773 3773 3783 3792 3792 3794 3792 3788 3675 3503 3186 2863 2616 0 0 2327 2301 2288 2288 2287 2286 2286 2271 2271 2271 2274 2274 2274 2272 2272 2272 2272 2274 2276 2278 2282 2285 2288 2289 2292 2292 2293 2294 2298 2302 2306 2310 2312 2314 2315 2318 2321 2323 2325 2327 2329 2329 2331 2332 2335 2337 2339 2341 2342 2343 2345 2348 2351 2353 2355 2357 2357 2358 2361 2361 2361 2360 2360 2360 2360 2361 2361 2361 2350 2335 2322 2298 2263 2238 2217 2200 2163 2132 2102 2084 2069 2059 2055 2048 2043 2039 2035 2032 2028 2025 2022 2020 2019 2017 2016 2015 2012 2011 2009 2008 2006 2004 2003 2002 2001 1997 1992 1988 1986 1982 1977 1968 1956 1946 1937 1924 1916 1913 1909 1904 1896 1891 1888 1883 1876 1868 1863 1861 1859 1858 1856 1854 1852 1850 1848 1845 1843 1842 1841 1841 1840 1840 1840 1840 1840 1841 1843 1845 1845 1846 1846 1847 1847 1848 1848 1848 1848 1848 1848 1847 1847 1846 1845 1844 1844 1843 1843 1842 1841 1840 1839 1838 1837 1835 1834 1832 1830 1826 1824 1821 1817 1813 1810 1806 1803 1800 1798 1795 1793 1790 1789 1787 1786 1784 1783 1783 1783 1783 1784 1784 1787 1789 1792 1800 1804 1806 1808 1812 1816 1817 1819 1819 1820 1822 1823 1824 1824 1824 1824 1824 1824 1824 1825 1825 1825 1825 1825 1826 1826 1826 1826 1826 1826 1826 1825 1825 1825 1824 1824 1823 1822 1822 1820 1820 1817 1815 1813 1812 1812 1810 1810 1809 1808 1808 1808 1808 1808 1808 1808 1809 1812 1821 1829 1838 1848 1858 1865 1870 1877 1878 1880 1881 1882 1883 1884 1884 1884 1884 1884 1883 1883 1883 1884 1885 1885 1885 1885 1885 1888 1900 1923 1971 1996 2002 2022 2050 2053 2058 2058 2058 2058 2054 2046 2040 2033 2024 2019 2016 2015 2011 2004 1996 1991 1985 1979 1974 1970 1966 1961 1955 1951 1945 1939 1934 1930 1927 1922 1918 1911 1908 1904 1902 1898 1894 1889 1884 1879 1876 1876 1873 1868 1865 1860 1860 1854
1701 1700 1699 1699 1700 1704 1709 1710 1711 1713 1716 1719 1724 1725 1728 1730 1738 1744 1744 1747 1773 1779 1780 1789 1807 1828 1853 1878 1905 1910 1961 2003 2031 2058 2087 2115 2141 2182 2212 2244 2286 2311 2343 2370 2385 2401 2406 2426 2452 2470 2480 2487 2494 2503 2513 2525 2536 2549 2559 2568 2573 2574 2578 2585 2597 2603 2620 2631 2636 2640 2645 2656 2665 2673 2677 2678 2681 2687 2693 2701 2708 2710 2711 2716 2720 2723 2731 2742 2750 2757 2764 2775 2786 2796 2802 2802 2802 2804 2805 2810 2818 2829 2837 2841 2842 2843 2845 2847 2847 2848 2852 2857 2861 2864 2868 2872 2876 2881 2884 2889 2891 2892 2894 2895 2899 2902 2905 2908 2911 2915 2916 2916 2917 2917 2918 2918 2918 2917 2916 2914 2912 2912 2912 2914 2915 2917 2919 2924 2928 2935 2941 2946 2947 2947 2947 2947 2947 2950 2950 2950 2947 2939 2928 2928 2928 2929 2933 2934 2936 2940 2942 2948 2948 2948 2946 2946 2946 2945 2942 2942 2940 2937 2935 2933 2933 2932 2932 2931 2930 2927 2927 2927 2927 2927 2927 2923 2914 2910 2910 2910 2915 2916 2917 2922 2928 2928 2928 2928 2929 2925 2925 2925 2925 2925 2925 2937 2958 2958 2958 2955 2899 2833 2773 2695 2583 2535 2512 0 0 0 0 0 0 0 0 0 0 0 0 0 2987 3441 3749 3762 3762 3763 3763 3764 3768 3771 3772 3778 3780 3780 3780 3776 3774 3772 3772 3772 3775 3778 3778 3778 3778 3784 3785 3790 3790 3790 3780 3780 3780 3791 3792 3792 3792 3788 3742 3624 3268 2980 2693 0 0 2339 2316 2297 2282 2275 2275 2264 2262 2261 2261 2262 2263 2263 2263 2263 2263 2263 2263 2266 2272 2273 2275 2277 2279 2284 2286 2287 2289 2292 2295 2299 2303 2306 2308 2312 2314 2317 2319 2322 2324 2326 2328 2329 2330 2332 2334 2336 2339 2339 2341 2343 2345 2348 2351 2354 2356 2359 2362 2365 2366 2367 2367 2367 2366 2364 2364 2363 2362 2362 2355 2340 2323 2298 2263 2238 2214 2196 2164 2134 2103 2085 2072 2060 2055 2049 2043 2039 2035 2032 2028 2025 2022 2020 2018 2016 2014 2014 2012 2010 2009 2007 2006 2003 2002 2000 2000 1997 1992 1989 1986 1983 1977 1972 1962 1954 1942 1930 1918 1914 1912 1908 1900 1895 1893 1887 1880 1873 1866 1862 1861 1858 1857 1855 1853 1851 1848 1845 1843 1842 1841 1840 1839 1839 1839 1839 1840 1840 1842 1842 1843 1844 1846 1846 1847 1847 1847 1847 1847 1847 1847 1847 1846 1846 1845 1844 1844 1843 1843 1842 1841 1840 1839 1838 1837 1836 1834 1832 1830 1828 1824 1821 1818 1814 1810 1808 1806 1803 1800 1797 1794 1792 1790 1788 1786 1784 1783 1783 1782 1782 1782 1783 1785 1787 1790 1795 1799 1802 1804 1809 1813 1816 1818 1819 1820 1821 1822 1824 1824 1824 1824 1824 1824 1825 1825 1825 1825 1825 1825 1826 1826 1826 1826 1826 1826 1826 1826 1826 1825 1825 1825 1824 1823 1822 1822 1820 1818 1816 1815 1813 1813 1812 1811 1811 1809 1809 1809 1809 1809 1809 1809 1811 1812 1819 1828 1836 1845 1855 1865 1870 1877 1881 1881 1883 1883 1884 1885 1886 1887 1887 1887 1887 1887 1887 1887 1888 1888 1888 1888 1888 1889 1901 1923 1966 1990 2004 2017 2046 2052 2057 2057 2057 2057 2053 2046 2039 2033 2028 2022 2018 2014 2009 2004 1995 1990 1985 1979 1974 1970 1966 1961 1955 1951 1945 1939 1934 1931 1927 1922 1918 1914 1911 1908 1905 1900 1897 1891 1887 1881 1881 1876 1873 1868 1865 1860 1860 1854
1701 1700 1699 1699 1700 1704 1709 1711 1711 1715 1721 1728 1733 1736 1739 1742 1744 1744 1744 1741 1741 1741 1753 1779 1799 1826 1847 1869 1895 1901 1943 1987 2008 2032 2064 2096 2141 2182 2212 2240 2271 2299 2342 2368 2385 2394 2406 2425 2448 2470 2480 2487 2494 2502 2512 2522 2534 2545 2555 2564 2568 2568 2571 2582 2594 2603 2620 2631 2636 2640 2644 2655 2663 2669 2671 2673 2674 2681 2688 2698 2706 2708 2711 2716 2720 2723 2731 2742 2750 2756 2762 2773 2786 2796 2802 2802 2802 2804 2805 2810 2817 2827 2835 2840 2841 2843 2844 2844 2845 2846 2847 2854 2858 2864 2868 2872 2876 2881 2884 2887 2891 2892 2892 2895 2898 2901 2904 2908 2911 2915 2916 2917 2918 2919 2920 2920 2920 2918 2916 2914 2912 2912 2912 2914 2915 2917 2921 2922 2926 2929 2932 2938 2941 2941 2942 2944 2947 2951 2951 2951 2947 2939 2931 2929 2929 2929 2933 2939 2946 2952 2955 2955 2955 2950 2946 2942 2941 2941 2940 2940 2940 2938 2935 2934 2933 2932 2931 2931 2930 2927 2926 2926 2926 2925 2925 2923 2915 2909 2909 2909 2914 2920 2921 2922 2929 2929 2929 2929 2929 2931 2943 2946 2955 2964 2964 2969 2982 2982 2985 2985 2981 2980 2962 2919 2901 2888 2874 2835 2748 2679 2586 0 0 0 0 0 0 0 0 2508 3085 3527 3759 3765 3765 3766 3766 3775 3775 3776 3777 3786 3788 3788 3789 3789 3787 3784 3778 3778 3778 3784 3784 3784 3784 3784 3785 3794 3794 3794 3794 3794 3794 3797 3797 3797 3792 3741 3646 3521 3209 2803 2559 0 0 2317 2311 2292 2271 2267 2262 2261 2260 2259 2258 2258 2257 2256 2256 2256 2256 2257 2258 2260 2265 2269 2270 2271 2275 2277 2280 2284 2286 2290 2292 2296 2299 2302 2305 2308 2312 2314 2317 2319 2323 2326 2328 2329 2330 2332 2334 2336 2339 2339 2341 2342 2345 2348 2351 2354 2358 2361 2365 2367 2369 2371 2374 2374 2374 2371 2369 2366 2365 2362 2360 2344 2329 2300 2263 2236 2208 2190 2164 2138 2110 2088 2075 2064 2057 2049 2043 2039 2035 2031 2028 2025 2021 2020 2018 2016 2014 2012 2011 2009 2008 2006 2005 2003 2001 2000 1998 1997 1993 1989 1987 1983 1978 1972 1965 1956 1947 1937 1927 1919 1916 1913 1905 1899 1895 1891 1884 1878 1871 1866 1862 1860 1858 1856 1853 1851 1848 1846 1843 1841 1840 1839 1838 1837 1837 1837 1838 1839 1840 1841 1841 1842 1843 1844 1846 1847 1847 1847 1847 1847 1847 1847 1846 1845 1845 1844 1844 1843 1843 1842 1841 1840 1839 1838 1837 1836 1835 1833 1831 1828 1825 1823 1819 1815 1813 1810 1807 1804 1802 1799 1796 1794 1792 1789 1787 1786 1783 1783 1782 1782 1782 1782 1783 1786 1788 1792 1795 1798 1802 1806 1811 1814 1816 1817 1819 1819 1821 1823 1823 1823 1824 1824 1824 1824 1825 1825 1825 1825 1826 1826 1826 1826 1826 1826 1827 1827 1827 1827 1826 1826 1825 1824 1824 1822 1822 1820 1819 1817 1815 1814 1814 1813 1812 1811 1811 1809 1809 1809 1809 1809 1809 1811 1814 1819 1827 1834 1843 1850 1861 1870 1877 1881 1884 1885 1885 1886 1887 1888 1889 1890 1890 1890 1890 1890 1890 1891 1891 1891 1889 1889 1889 1901 1918 1961 1984 2000 2008 2042 2052 2057 2057 2057 2053 2050 2046 2039 2033 2030 2025 2018 2014 2009 2001 1995 1990 1985 1980 1975 1970 1966 1961 1955 1951 1945 1940 1936 1931 1927 1923 1920 1916 1913 1911 1908 1904 1900 1895 1889 1884 1881 1876 1873 1866 1863 1859 1858 1854
1700 1700 1700 1700 1700 1704 1710 1712 1714 1718 1722 1731 1736 1740 1743 1746 1746 1746 1744 1738 1738 1738 1753 1779 1799 1818 1835 1854 1879 1883 1922 1957 1983 2000 2042 2089 2140 2179 2212 2234 2258 2298 2332 2361 2385 2390 2406 2425 2447 2469 2481 2488 2495 2502 2510 2520 2532 2543 2554 2564 2568 2568 2571 2582 2591 2603 2620 2634 2639 2641 2643 2646 2654 2661 2667 2673 2674 2678 2683 2691 2700 2705 2711 2718 2730 2737 2744 2749 2751 2756 2762 2772 2784 2794 2801 2802 2802 2804 2805 2810 2817 2826 2832 2837 2839 2841 2841 2841 2842 2842 2846 2854 2858 2864 2870 2875 2876 2881 2884 2887 2888 2889 2892 2894 2898 2901 2904 2906 2910 2914 2916 2917 2918 2919 2920 2920 2920 2918 2916 2912 2912 2912 2912 2914 2915 2919 2921 2922 2924 2926 2930 2933 2935 2935 2938 2944 2950 2951 2951 2951 2947 2939 2931 2931 2931 2934 2938 2942 2946 2952 2955 2955 2955 2950 2945 2939 2938 2938 2938 2940 2940 2940 2938 2934 2933 2932 2931 2931 2928 2927 2926 2926 2925 2924 2924 2923 2915 2909 2909 2909 2912 2920 2921 2922 2928 2928 2928 2929 2929 2935 2943 2949 2958 2975 2984 2990 2999 2999 2999 2989 2989 2989 2989 2989 2989 2983 2966 2955 2946 2929 2881 2764 2620 0 0 0 0 0 0 2585 3111 3544 3766 3767 3768 3768 3773 3783 3784 3784 3784 3788 3788 3789 3790 3791 3791 3790 3783 3783 3783 3784 3784 3784 3784 3784 3785 3794 3796 3799 3799 3799 3799 3800 3797 3797 3782 3689 3561 3400 3000 2622 0 0 0 2299 2290 2265 2255 2255 2254 2254 2243 2243 2243 2243 2246 2247 2248 2249 2249 2252 2253 2256 2259 2261 2265 2267 2270 2273 2275 2278 2282 2287 2291 2294 2296 2299 2303 2307 2310 2313 2316 2319 2322 2325 2327 2328 2330 2331 2333 2336 2338 2339 2341 2341 2344 2347 2350 2354 2358 2361 2366 2368 2370 2373 2377 2377 2377 2377 2372 2372 2370 2368 2362 2352 2336 2303 2265 2236 2208 2188 2164 2139 2114 2089 2077 2065 2057 2049 2043 2037 2035 2031 2027 2024 2021 2019 2017 2015 2013 2012 2009 2008 2006 2005 2004 2003 2001 2000 1998 1995 1993 1990 1987 1983 1979 1972 1967 1959 1952 1944 1936 1928 1922 1916 1911 1905 1898 1893 1887 1880 1875 1871 1866 1862 1860 1856 1854 1851 1848 1846 1843 1841 1839 1838 1837 1836 1836 1836 1837 1837 1838 1839 1840 1841 1842 1843 1843 1845 1846 1846 1846 1846 1846 1846 1845 1845 1844 1844 1843 1842 1842 1842 1841 1840 1839 1838 1837 1836 1835 1834 1832 1829 1827 1824 1821 1818 1814 1812 1810 1808 1804 1802 1798 1796 1793 1791 1788 1787 1785 1783 1782 1781 1781 1781 1782 1783 1786 1789 1794 1796 1800 1805 1810 1813 1816 1817 1818 1819 1820 1822 1823 1823 1823 1824 1824 1824 1825 1825 1825 1825 1826 1826 1826 1826 1826 1827 1827 1827 1827 1827 1826 1826 1826 1825 1824 1823 1822 1821 1820 1819 1817 1815 1814 1814 1813 1812 1811 1811 1810 1810 1809 1809 1809 1811 1814 1817 1820 1830 1839 1848 1855 1868 1877 1882 1885 1887 1888 1889 1890 1891 1892 1893 1894 1894 1895 1895 1895 1895 1895 1894 1894 1894 1896 1905 1913 1936 1979 2003 2007 2037 2052 2056 2056 2056 2050 2047 2044 2039 2033 2030 2025 2018 2014 2009 2001 1996 1990 1985 1980 1976 1971 1966 1961 1956 1951 1946 1941 1936 1932 1928 1924 1922 1918 1916 1913 1909 1906 1903 1898 1892 1884 1881 1877 1874 1866 1858 1854 1854 1854
1688 1690 1695 1700 1701 1704 1712 1717 1720 1721 1722 1732 1736 1740 1743 1746 1746 1746 1744 1738 1738 1738 1753 1779 1799 1815 1824 1833 1856 1860 1895 1933 1963 1989 2024 2079 2135 2175 2212 2234 2258 2292 2322 2356 2385 2389 2405 2424 2445 2469 2488 2493 2496 2502 2509 2520 2532 2543 2554 2563 2568 2568 2571 2582 2591 2605 2620 2634 2640 2642 2643 2645 2649 2655 2666 2672 2674 2677 2682 2689 2695 2705 2717 2728 2738 2746 2751 2752 2752 2757 2762 2771 2782 2792 2798 2801 2801 2802 2805 2812 2817 2826 2831 2835 2838 2838 2838 2838 2838 2840 2846 2853 2858 2864 2870 2875 2876 2881 2883 2885 2885 2887 2891 2894 2897 2901 2903 2905 2908 2912 2915 2917 2918 2919 2920 2920 2920 2918 2915 2911 2911 2911 2912 2915 2918 2919 2921 2922 2924 2926 2930 2930 2933 2934 2938 2944 2951 2951 2951 2950 2941 2935 2933 2933 2933 2935 2939 2942 2946 2952 2955 2955 2955 2949 2945 2939 2937 2937 2937 2939 2939 2939 2938 2934 2931 2930 2929 2928 2927 2927 2927 2926 2926 2924 2921 2919 2915 2912 2912 2912 2912 2920 2921 2922 2925 2932 2933 2936 2936 2936 2948 2959 2976 2984 2986 2992 2999 2999 2999 2989 2989 2989 2990 3002 3002 3002 2991 2978 2974 2969 2946 2864 2700 2516 0 0 0 0 0 2594 3125 3559 3767 3767 3772 3772 3779 3791 3791 3791 3791 3791 3793 3792 3793 3793 3792 3792 3783 3783 3783 3783 3783 3763 3763 3763 3764 3777 3785 3799 3799 3799 3797 3794 3781 3764 3752 3632 3432 3113 2743 2525 0 0 2288 2262 2251 2240 2234 2228 2228 2228 2232 2232 2237 2238 2240 2240 2240 2240 2241 2243 2246 2251 2257 2259 2261 2264 2267 2268 2269 2274 2279 2286 2290 2293 2295 2296 2297 2303 2308 2313 2316 2318 2319 2323 2326 2328 2330 2332 2334 2335 2338 2339 2341 2341 2344 2347 2350 2354 2358 2361 2366 2369 2372 2375 2380 2384 2384 2384 2383 2380 2380 2378 2373 2363 2351 2309 2265 2236 2208 2188 2165 2139 2114 2089 2078 2065 2057 2049 2042 2036 2033 2030 2027 2023 2020 2018 2016 2014 2011 2010 2008 2006 2006 2004 2003 2001 2000 1999 1998 1994 1992 1990 1987 1983 1979 1974 1968 1961 1956 1952 1944 1934 1927 1920 1913 1908 1903 1897 1890 1883 1880 1875 1870 1864 1860 1858 1855 1851 1849 1846 1843 1841 1839 1837 1836 1835 1835 1835 1836 1836 1836 1837 1838 1839 1840 1841 1843 1844 1844 1846 1846 1846 1845 1845 1845 1845 1844 1844 1843 1842 1842 1841 1841 1840 1839 1838 1838 1837 1835 1834 1833 1831 1828 1825 1823 1819 1817 1814 1812 1809 1806 1804 1800 1797 1795 1792 1790 1787 1786 1784 1782 1781 1781 1781 1782 1782 1782 1785 1790 1793 1796 1803 1808 1812 1816 1817 1818 1819 1820 1821 1823 1823 1823 1824 1824 1824 1824 1825 1825 1825 1826 1826 1826 1826 1827 1827 1827 1827 1827 1827 1827 1826 1826 1825 1825 1824 1822 1822 1821 1819 1818 1816 1816 1816 1814 1813 1812 1811 1811 1811 1809 1809 1809 1810 1814 1814 1816 1821 1832 1842 1850 1862 1875 1882 1885 1888 1890 1891 1891 1893 1894 1896 1897 1898 1899 1899 1899 1899 1899 1899 1899 1901 1904 1908 1913 1934 1975 2003 2007 2033 2050 2053 2053 2053 2047 2045 2042 2037 2033 2030 2025 2018 2013 2007 2001 1996 1991 1985 1980 1976 1971 1966 1963 1957 1952 1946 1941 1937 1933 1929 1926 1923 1920 1917 1914 1911 1908 1905 1901 1893 1886 1881 1877 1874 1866 1858 1854 1854 1854
1688 1690 1695 1700 1701 1704 1713 1724 1727 1729 1729 1733 1738 1740 1743 1746 1746 1746 1746 1738 1738 1738 1758 1783 1801 1812 1823 1832 1846 1851 1880 1918 1954 1987 2019 2058 2123 2165 2212 2227 2247 2277 2312 2347 2376 2380 2401 2419 2440 2467 2488 2495 2500 2503 2509 2519 2531 2542 2553 2563 2568 2574 2578 2586 2591 2606 2620 2634 2640 2642 2643 2645 2648 2654 2664 2671 2674 2677 2682 2689 2695 2705 2718 2731 2741 2747 2752 2754 2758 2759 2762 2769 2778 2787 2796 2799 2801 2802 2808 2814 2820 2825 2830 2834 2835 2835 2837 2837 2837 2840 2846 2853 2858 2864 2870 2875 2876 2881 2882 2883 2884 2885 2889 2894 2897 2901 2903 2905 2908 2911 2914 2915 2917 2919 2919 2919 2919 2917 2914 2911 2911 2911 2912 2917 2920 2920 2921 2921 2923 2926 2929 2930 2933 2934 2938 2944 2951 2951 2951 2943 2932 2928 2928 2928 2933 2937 2939 2942 2942 2943 2947 2948 2948 2948 2943 2939 2937 2937 2937 2939 2939 2939 2938 2933 2926 2926 2926 2926 2926 2927 2926 2926 2926 2924 2921 2917 2915 2915 2912 2912 2912 2918 2919 2922 2929 2934 2941 2941 2944 2945 2952 2961 2976 2990 2993 3004 3004 3004 2995 2988 2988 2988 2990 3002 3002 3002 2991 2984 2978 2969 2946 2864 2700 2516 0 0 0 0 0 2673 3184 3565 3767 3769 3777 3777 3790 3791 3791 3793 3791 3793 3794 3793 3793 3793 3792 3792 3783 3781 3777 3776 3758 3731 3719 3719 3719 3729 3755 3778 3787 3787 3787 3761 3729 3702 3671 3506 3204 2886 2622 0 0 0 2260 2248 2236 2231 2231 2228 2228 2228 2228 2229 2233 2237 2237 2237 2236 2236 2236 2236 2236 2240 2246 2250 2256 2261 2264 2265 2266 2270 2275 2281 2288 2292 2293 2294 2297 2299 2302 2307 2312 2316 2318 2322 2325 2328 2330 2332 2334 2336 2337 2339 2340 2341 2344 2347 2350 2353 2357 2360 2366 2369 2375 2378 2381 2385 2388 2390 2390 2390 2390 2387 2381 2370 2351 2311 2269 2236 2208 2188 2170 2142 2117 2100 2080 2066 2056 2049 2042 2036 2032 2029 2026 2022 2019 2017 2015 2013 2010 2008 2007 2005 2004 2004 2002 2001 1999 1998 1996 1994 1992 1989 1988 1984 1979 1975 1971 1965 1960 1955 1949 1941 1933 1926 1915 1910 1906 1901 1895 1889 1884 1879 1872 1866 1862 1859 1855 1851 1849 1846 1843 1841 1839 1837 1835 1835 1834 1834 1834 1834 1835 1836 1837 1838 1839 1840 1842 1842 1843 1844 1845 1845 1845 1844 1844 1844 1844 1843 1843 1842 1842 1841 1840 1840 1839 1838 1837 1837 1835 1834 1833 1832 1829 1827 1825 1822 1819 1816 1814 1811 1808 1806 1803 1799 1797 1793 1790 1788 1786 1784 1782 1781 1781 1781 1781 1781 1781 1783 1787 1790 1793 1800 1806 1810 1813 1816 1817 1817 1819 1820 1821 1821 1822 1823 1824 1824 1824 1825 1825 1826 1826 1826 1826 1826 1827 1827 1827 1827 1827 1827 1827 1827 1826 1826 1825 1824 1824 1822 1821 1821 1819 1818 1817 1816 1815 1814 1813 1812 1812 1811 1810 1810 1810 1810 1812 1813 1813 1817 1826 1836 1842 1858 1873 1881 1885 1888 1890 1892 1892 1894 1896 1898 1900 1902 1903 1903 1904 1904 1905 1905 1906 1908 1908 1909 1913 1934 1975 2002 2007 2027 2047 2049 2049 2049 2047 2045 2041 2037 2032 2029 2024 2018 2013 2007 2002 1997 1992 1987 1981 1977 1972 1967 1963 1957 1952 1947 1942 1937 1934 1931 1929 1926 1922 1919 1914 1912 1910 1907 1901 1894 1888 1884 1880 1876 1870 1858 1855 1855 1855
1688 1690 1695 1702 1705 1706 1716 1726 1732 1734 1735 1736 1737 1739 1741 1743 1748 1748 1748 1744 1744 1744 1767 1783 1801 1812 1822 1830 1839 1851 1875 1907 1947 1976 2007 2042 0 2164 2199 2220 2243 2270 2303 2346 2363 2366 2384 2409 2435 2461 2488 2495 2500 2503 2509 2519 2531 2542 2550 2559 2568 2574 2581 2587 2596 2606 2619 2631 2640 2642 2643 2643 2647 2653 2663 2671 2674 2677 2682 2689 2695 2705 2718 2732 2742 2748 2753 2755 2760 2764 2765 2768 2773 2786 2795 2799 2801 2805 2810 2814 2820 2825 2830 2834 2835 2835 2836 2836 2837 2840 2846 2853 2857 2864 2867 2871 2876 2878 2880 2882 2882 2884 2888 2893 2897 2900 2903 2905 2908 2911 2913 2914 2917 2919 2919 2919 2919 2917 2914 2911 2911 2911 2912 2917 2920 2920 2921 2921 2923 2925 2928 2930 2933 2934 2938 2944 2947 2947 2947 2939 2931 2923 2923 2923 2933 2935 2935 2935 2935 2935 2939 2945 2945 2945 2944 2940 2939 2939 2939 2937 2937 2937 2937 2930 2924 2923 2923 2923 2925 2926 2926 2926 2926 2924 2917 2917 2917 2916 2916 2917 2917 2918 2919 2922 2931 2936 2941 2943 2945 2945 2955 2982 2988 2990 2996 3001 3001 3001 2992 2987 2987 2987 2990 3001 3001 3001 2993 2986 2978 2969 2946 2864 2700 2516 0 0 0 0 0 2727 3236 3592 3767 3771 3786 3786 3791 3791 3793 3793 3791 3794 3796 3794 3792 3792 3786 3784 3778 3775 3769 3760 3721 3685 3648 3648 3648 3682 3715 3733 3746 3746 3746 3727 3703 3678 3598 3297 2935 2670 0 0 0 2258 2245 2235 2231 2230 2225 2223 2223 2223 2223 2228 2231 2231 2232 2233 2232 2232 2233 2232 2232 2233 2240 2245 2248 2251 2253 2257 2262 2266 2271 2276 2281 2285 2288 2291 2295 2297 2299 2303 2307 2314 2318 2321 2325 2326 2330 2332 2334 2335 2337 2339 2340 2341 2345 2348 2350 2353 2357 2359 2364 2370 2375 2380 2384 2387 2389 2391 2391 2391 2391 2389 2385 2370 2353 2320 2274 2239 2211 2192 2180 2151 2124 2100 2085 2066 2055 2049 2041 2036 2031 2028 2024 2020 2018 2016 2014 2012 2009 2007 2006 2005 2003 2002 2001 2000 1999 1997 1996 1993 1992 1989 1988 1985 1980 1975 1971 1967 1961 1957 1951 1944 1937 1931 1922 1913 1909 1904 1899 1892 1887 1883 1873 1868 1864 1860 1857 1853 1849 1846 1843 1841 1839 1837 1835 1835 1833 1833 1833 1833 1833 1834 1834 1835 1837 1838 1840 1841 1842 1843 1843 1843 1843 1844 1844 1844 1844 1843 1843 1842 1842 1841 1840 1840 1839 1838 1837 1836 1835 1834 1833 1832 1830 1828 1825 1823 1822 1819 1816 1813 1810 1806 1804 1801 1798 1794 1791 1788 1787 1784 1783 1781 1781 1781 1781 1781 1781 1781 1784 1787 1789 1794 1802 1808 1810 1813 1814 1815 1816 1819 1819 1820 1822 1823 1824 1824 1824 1825 1825 1826 1826 1826 1826 1827 1827 1827 1827 1827 1827 1827 1827 1827 1826 1826 1825 1825 1824 1823 1822 1821 1821 1820 1818 1817 1817 1816 1814 1813 1812 1812 1811 1810 1810 1810 1811 1812 1813 1816 1819 1830 1838 1847 1866 1879 1884 1888 1890 1892 1894 1896 1899 1902 1905 1905 1906 1907 1908 1908 1908 1909 1910 1911 1911 1912 1918 1934 1974 1999 2007 2022 2045 2048 2048 2048 2047 2045 2041 2037 2032 2029 2024 2018 2013 2007 2003 1997 1992 1987 1983 1978 1974 1969 1964 1958 1953 1947 1942 1938 1935 1933 1931 1927 1924 1920 1916 1912 1910 1907 1901 1894 1889 1887 1885 1879 1872 1862 1855 1855 1855
1692 1695 1706 1709 1711 1711 1716 1729 1732 1734 1735 1736 1736 1737 1739 1741 1747 1747 1747 1748 1748 1753 1767 1783 1801 1811 1818 1825 1836 1844 1869 1894 1928 1964 2006 2041 0 2139 2181 2212 2241 2270 2294 2334 2352 2358 2376 2402 2426 2457 2480 2495 2500 2503 2510 2519 2531 2542 2548 2557 2566 2574 2581 2587 2596 2605 2617 2628 2634 2639 2642 2643 2647 2653 2663 2670 2674 2678 2685 2692 2698 2705 2719 2733 2743 2750 2753 2757 2760 2764 2765 2768 2773 2786 2794 2799 2801 2805 2810 2815 2820 2824 2830 2833 2835 2835 2835 2836 2837 2840 2846 2853 2857 2862 2864 2866 2870 2875 2878 2879 2880 2882 2887 2892 2896 2900 2905 2907 2909 2911 2913 2914 2917 2919 2919 2919 2919 2917 2914 2911 2911 2911 2913 2919 2921 2921 2923 2924 2924 2926 2929 2932 2935 2937 2939 2944 2944 2944 2942 2939 2931 2923 2923 2923 2932 2935 2935 2935 2934 2934 2934 2940 2944 2944 2944 2940 2940 2939 2939 2939 2938 2932 2929 2926 2922 2922 2922 2922 2925 2925 2925 2925 2925 2922 2916 2916 2916 2920 2920 2920 2920 2920 2920 2922 2932 2936 2941 2943 2945 2945 2955 2982 2988 2990 2996 3000 3000 3000 2982 2979 2979 2979 2988 2999 2999 2999 2994 2986 2978 2958 2910 2836 2687 2515 0 0 0 0 0 2818 3316 3643 3774 3782 3794 3791 3791 3791 3791 3791 3791 3796 3796 3794 3791 3784 3777 3777 3772 3764 3754 3731 3688 3637 3599 3599 3599 3622 3651 3689 3689 3689 3679 3678 3640 3550 3347 2934 2652 0 0 0 2251 2241 2240 2233 2227 2226 2225 2223 2220 2219 2219 2223 2222 2224 2225 2225 2228 2228 2229 2232 2232 2233 2240 2245 2245 2246 2247 2250 2253 2261 2267 2270 2273 2278 2282 2288 2292 2295 2297 2301 2305 2310 2317 2321 2324 2326 2329 2332 2334 2335 2337 2339 2340 2342 2345 2348 2350 2353 2356 2359 2364 2370 2375 2381 2385 2387 2389 2391 2392 2392 2392 2392 2386 2372 2355 2320 2274 2241 2213 2195 2180 2155 2124 2100 2085 2066 2055 2049 2041 2035 2030 2027 2023 2020 2017 2015 2014 2011 2009 2006 2004 2003 2002 2001 1999 1998 1997 1996 1994 1992 1990 1989 1988 1985 1980 1976 1972 1967 1963 1959 1953 1946 1939 1933 1927 1920 1913 1906 1901 1896 1890 1884 1875 1868 1866 1862 1857 1853 1849 1847 1844 1841 1839 1837 1835 1834 1833 1832 1832 1832 1832 1832 1833 1834 1835 1837 1839 1839 1841 1841 1842 1842 1842 1843 1843 1843 1843 1843 1842 1842 1842 1841 1840 1840 1838 1838 1837 1836 1835 1834 1833 1832 1830 1828 1827 1825 1823 1820 1818 1814 1812 1809 1806 1803 1798 1795 1792 1789 1787 1785 1784 1782 1781 1780 1780 1780 1780 1781 1783 1784 1787 1791 1797 1803 1807 1809 1811 1812 1814 1817 1818 1819 1821 1822 1824 1824 1825 1825 1825 1826 1826 1826 1826 1827 1827 1827 1827 1827 1827 1827 1827 1827 1827 1826 1825 1825 1825 1824 1823 1822 1821 1820 1819 1819 1818 1816 1814 1813 1813 1812 1812 1811 1811 1811 1811 1812 1813 1816 1819 1822 1834 1844 1855 1876 1884 1887 1890 1893 1896 1898 1901 1904 1906 1908 1910 1910 1912 1912 1912 1912 1913 1914 1914 1916 1924 1941 1973 1999 2007 2017 2039 2043 2045 2045 2045 2045 2041 2037 2032 2029 2024 2019 2014 2009 2003 1998 1993 1988 1984 1980 1975 1970 1964 1959 1953 1947 1944 1939 1936 1933 1931 1928 1924 1921 1917 1912 1910 1907 1901 1894 1889 1887 1885 1881 1873 1862 1856 1856 1856
