2077 2088 2093 2105 2112 2112 2113 2118 2123 2133 2150 2154 2168 2181 2192 2197 2203 2210 2212 2216 2220 2223 2234 2245 2258 2263 2274 2286 2296 2301 2308 2312 2325 2325 2325 2320 2302 2281 0 0 0 0 0 0 0 0 0 0 0 0 0 0 0 0 0 0 0 0 0 0 1415 1414 1400 1378 1359 1345 1339 1337 1337 1332 1328 1325 1324 1322 1319 1318 1317 1317 1317 1316 1316 1317 1317 1317 1318 1318 1319 1319 1320 1320 1320 1320 1321 1321 1321 1321 1321 1321 1321 1321 1321 1321 1321 1320 1320 1319 1319 1319 1318 1317 1317 1317 1317 1317 1317 1317 1317 1317 1317 1316 1316 1316 1315 1314 1312 1312 1311 1311 1310 1308 1307 1306 1305 1305 1305 1305 1305 1305 1305 1305 1304 1304 1304 1304 1304 1306 1307 1308 1308 1308 1309 1310 1310 1310 1311 1312 1312 1313 1313 1313 1313 1313 1313 1313 1313 1313 1313 1313 1312 1312 1312 1312 1312 1311 1311 1311 1310 1310 1310 1310 1309 1309 1308 1304 1303 1302 1302 1302 1301 1301 1300 1300 1300 1300 1300 1300 1300 1300 1300 1300 1301 1301 1302 1303 1304 1304 1306 1307 1307 1308 1308 1308 1309 1309 1310 1311 1311 1311 1311 1311 1311 1311 1311 1311 1310 1310 1310 1310 1309 1309 1309 1308 1308 1308 1307 1307 1307 1307 1306 1306 1305 1306 1305 1305 1306 1306 1307 1307 1307 1307 1306 1306 1306 1306 1305 1306 1306 1305 1304 1304 1304 1304 1304 1304 1304 1305 1305 1305 1305 1305 1305 1305 1305 1305 1305 1304 1304 1304 1303 1303 1303 1302 1302 1302 1302 1302 1302 1302 1302 1302 1301 1301 1301 1301 1301 1300 1300 1299 1298 1297 1296 1296 1295 1295 1295 1294 1294 1293 1293 1293 1293 1293 1293 1293 1293 1293 1293 1294 1294 1295 1295 1296 1296 1297 1298 1298 1298 1298 1298 1298 1298 1298 1298 1298 1297 1297 1297 1297 1297 1297 1297 1297 1296 1297 1297 1297 1297 1297 1297 1297 1298 1298 1298 1297 1297 1297 1296 1295 1295 1293 1293 1293 1293 1294 1294 1294 1294 1294 1294 1295 1296 1297 1297 1298 1298 1299 1299 1300 1300 1300 1300 1301 1301 1301 1301 1301 1301 1301 1301 1301 1301 1301 1301 1301 1301 1301 1302 1302 1303 1303 1303 1304 1305 1307 1312 1315 1322 1338 0 1445 1470 1474 1480 1481 1481 1481 1479 1477 1475 1473 1470 1468 1465 1462 1459 1456 1454 1452 1449 1446 1444 1443 1441 1438 1438 1438 1438 1434 1411 1397 1382 1368 1355 1346 1328 1314 1299 1290 1288 1283 1275 1268 1263 1262 1261 1261 1260 1259 1259 1258 1258 1258 1256 1255 1255 1254 1253 1252 1252 1251 1251 1250 1249 1248 1248 1247 1247 1247 1246 1246 1245 1244 1243 1243 1241 1240 1239 1239 1237 1236 1235 1234 1233 1232 1232 1231 1230 1230 1229 1228 1227 1226 1225 1225 1225 1224 1224 1224 1224 1225 1226 1227 1230 1237 1245 1250 1271 0 0 0 1588 1617 1625 1634 1641 1647 1649 1653 1661 1676 1698 1709 1724 0 0 0 0 0 0 0 0 0 0 0 0 0 0 0 0 0 0 0 0 1931 1931 1931 1929 1927 1927 1924 1906 1896 1896 1896 1894 1886 1882 1874 1874 1872 1870 1863 1857 1852 1848 1846 1846 1842 1838 1833 1828 1825 1821 1817 1814 1811 1808 1804 1801 1799 1798 1797 1795 1794 1792 1790 1789 1786 1783 1777 1777 1777 1777 1777 1775 1774 1772 1769 1766 1762 1761 1761 1761 1761 1761 1761 1760 1758 1756 1756 1756 1756 1755 1755 1753 1753 1753 1754 1754 1754 1752 1749 1749 0
2079 2088 2096 2108 2112 2113 2113 2118 2123 2130 2136 2142 2151 2171 2180 2192 2202 2209 2212 2216 2218 2223 2233 2245 2263 2267 2283 2294 2301 2302 2308 2312 2325 2325 2325 2318 2302 2281 0 0 0 0 0 0 0 0 0 0 0 0 0 0 0 0 0 0 0 0 0 0 1421 1415 1403 1382 1359 1345 1339 1337 1336 1329 1328 1325 1324 1322 1319 1318 1317 1317 1317 1317 1317 1317 1317 1317 1318 1319 1319 1319 1320 1320 1320 1320 1321 1321 1321 1321 1321 1321 1321 1321 1321 1321 1321 1320 1320 1319 1319 1319 1318 1318 1318 1317 1317 1317 1317 1317 1317 1317 1317 1317 1316 1316 1315 1314 1312 1312 1311 1311 1309 1308 1307 1306 1306 1305 1305 1305 1305 1305 1305 1305 1305 1304 1304 1304 1304 1306 1306 1307 1307 1308 1309 1310 1310 1311 1311 1312 1312 1313 1313 1313 1313 1314 1314 1314 1314 1314 1313 1313 1313 1313 1312 1312 1312 1312 1311 1311 1310 1310 1310 1310 1310 1310 1307 1304 1303 1302 1302 1302 1301 1300 1300 1300 1299 1299 1299 1299 1299 1299 1300 1300 1300 1301 1302 1303 1304 1304 1306 1307 1308 1308 1309 1309 1310 1310 1311 1311 1311 1311 1311 1311 1311 1311 1311 1311 1311 1311 1311 1310 1309 1309 1309 1308 1308 1308 1307 1307 1307 1306 1306 1306 1306 1306 1306 1306 1306 1306 1307 1307 1307 1307 1306 1306 1306 1306 1306 1306 1306 1306 1306 1305 1305 1305 1305 1305 1305 1305 1305 1305 1305 1305 1305 1305 1305 1305 1305 1304 1304 1304 1303 1303 1303 1303 1303 1302 1302 1302 1302 1302 1302 1302 1302 1301 1301 1301 1301 1300 1299 1298 1298 1297 1296 1295 1295 1294 1294 1294 1294 1293 1293 1293 1293 1293 1293 1293 1293 1293 1293 1294 1294 1295 1295 1296 1296 1298 1298 1298 1298 1298 1299 1298 1298 1298 1298 1298 1298 1298 1298 1297 1297 1297 1297 1297 1297 1297 1298 1298 1298 1298 1298 1298 1298 1298 1298 1297 1297 1296 1296 1295 1294 1293 1293 1293 1293 1293 1293 1293 1294 1294 1294 1295 1296 1296 1297 1298 1298 1299 1300 1300 1300 1301 1301 1301 1301 1301 1301 1301 1301 1301 1301 1301 1301 1301 1301 1301 1301 1301 1301 1302 1303 1303 1303 1303 1305 1307 1312 1315 1322 0 0 1445 1470 1474 1479 1481 1481 1481 1480 1478 1475 1474 1471 1468 1465 1462 1459 1456 1454 1452 1449 1446 1444 1442 1440 1438 1437 1433 1424 1403 1389 1372 1354 1340 1326 1315 1307 1298 1289 1287 1282 1275 1270 1264 1261 1261 1259 1259 1258 1258 1257 1257 1257 1256 1256 1254 1254 1254 1253 1252 1252 1251 1251 1250 1250 1249 1248 1247 1247 1247 1246 1246 1245 1244 1243 1242 1241 1240 1239 1238 1237 1236 1235 1233 1232 1231 1230 1230 1230 1228 1226 1226 1225 1225 1225 1225 1224 1224 1223 1223 1223 1224 1224 1225 1226 1228 1233 1245 1255 0 0 0 0 1591 1623 1634 1641 1647 1649 1653 1659 1674 1680 1680 1680 0 0 0 0 0 0 0 0 0 0 0 0 0 0 0 0 0 0 0 0 0 0 0 1916 1914 1908 1901 1898 1893 1890 1889 1882 1872 1872 1869 1869 1869 1863 1856 1854 1850 1843 1840 1837 1836 1835 1831 1827 1821 1813 1810 1807 1805 1803 1801 1798 1796 1793 1789 1787 1787 1786 1786 1786 1783 1779 1774 1771 1771 1770 1770 1770 1768 1766 1764 1763 1758 1757 1757 1757 1757 1757 1756 1755 1753 1753 1753 1753 1753 1753 1752 1751 1751 1751 1754 1754 1754 1752 1751 1749 0
2088 2094 2106 2109 2112 2112 2112 2112 2114 2115 2122 2126 2144 2161 2176 2190 2202 2207 2211 2215 2218 2223 2233 2245 2263 2267 2283 2294 2301 2302 2308 2312 2325 2325 2325 2318 2302 2282 0 0 0 0 0 0 0 0 0 0 0 0 0 0 0 0 0 0 0 0 0 0 1429 1416 1409 1385 1363 1350 1342 1338 1335 1329 1328 1325 1323 1321 1319 1318 1317 1317 1317 1317 1317 1317 1317 1317 1318 1319 1319 1319 1320 1320 1320 1321 1321 1321 1321 1321 1321 1321 1322 1322 1322 1321 1321 1321 1320 1320 1319 1319 1318 1318 1318 1318 1318 1318 1318 1318 1318 1317 1317 1317 1317 1316 1315 1314 1312 1311 1311 1310 1309 1308 1307 1306 1306 1305 1305 1305 1305 1305 1305 1305 1305 1305 1304 1304 1304 1306 1306 1307 1307 1308 1309 1310 1310 1311 1312 1312 1313 1313 1313 1313 1314 1314 1314 1314 1314 1314 1314 1314 1313 1313 1313 1313 1313 1312 1312 1311 1311 1311 1310 1310 1310 1310 1307 1304 1303 1302 1302 1302 1301 1300 1299 1299 1298 1298 1298 1298 1298 1299 1299 1300 1300 1301 1302 1303 1304 1305 1306 1307 1308 1309 1309 1310 1310 1310 1311 1311 1312 1312 1312 1312 1312 1312 1311 1311 1311 1311 1311 1310 1309 1309 1309 1308 1308 1308 1307 1307 1306 1306 1306 1306 1306 1306 1306 1306 1306 1306 1307 1307 1307 1307 1307 1306 1306 1306 1306 1306 1306 1306 1306 1306 1306 1306 1306 1306 1306 1305 1305 1305 1305 1305 1305 1305 1305 1305 1305 1305 1304 1304 1304 1303 1303 1303 1303 1303 1302 1302 1302 1302 1302 1302 1302 1302 1301 1301 1301 1300 1299 1298 1297 1297 1296 1295 1295 1294 1294 1293 1293 1293 1293 1293 1293 1293 1293 1293 1293 1293 1293 1294 1294 1295 1296 1296 1297 1298 1298 1299 1299 1299 1299 1299 1299 1299 1299 1299 1298 1298 1298 1298 1298 1298 1298 1298 1298 1298 1298 1298 1298 1298 1298 1298 1298 1298 1298 1297 1296 1296 1296 1294 1294 1292 1292 1292 1292 1292 1292 1293 1293 1294 1294 1295 1295 1296 1296 1297 1298 1299 1300 1300 1300 1301 1301 1301 1301 1301 1301 1301 1301 1301 1301 1301 1301 1301 1301 1301 1301 1301 1301 1302 1303 1303 1303 1303 1305 1307 1312 1317 1322 0 0 1443 1471 1475 1479 1481 1481 1481 1480 1479 1477 1474 1472 1469 1466 1462 1459 1455 1452 1450 1449 1446 1444 1441 1437 1431 1424 1409 1396 1385 1367 1349 1332 1319 1307 1300 1296 1290 1285 1279 1274 1268 1264 1261 1260 1259 1259 1258 1257 1257 1256 1256 1256 1255 1254 1254 1254 1253 1253 1252 1252 1251 1251 1250 1250 1249 1248 1248 1247 1247 1246 1245 1244 1244 1242 1241 1241 1240 1239 1238 1236 1235 1234 1232 1231 1230 1230 1229 1227 1226 1224 1224 1223 1223 1223 1223 1223 1222 1222 1222 1222 1222 1224 1224 1225 1226 1228 1236 1254 1254 0 0 0 0 1622 1631 1639 1647 1649 1651 1657 1657 1657 1645 1623 1615 1601 1597 1595 1591 1581 1579 1577 1576 1575 1566 1565 1560 1560 1560 1570 1581 0 0 0 0 0 0 0 0 1888 1888 1887 1876 1872 1870 1863 1861 1859 1858 1854 1847 1842 1837 1835 1827 1827 1826 1826 1822 1822 1821 1820 1816 1810 1805 1802 1800 1798 1796 1794 1790 1785 1784 1782 1780 1779 1778 1778 1777 1773 1768 1764 1764 1764 1764 1764 1764 1762 1761 1758 1757 1754 1753 1753 1753 1753 1751 1751 1750 1750 1750 1750 1749 1749 1748 1746 1746 1746 1750 1752 1752 1752 1751 1749 0
2088 2094 2106 2109 2109 2109 2106 2106 2106 2115 2122 2126 2144 2161 2175 2180 2188 2201 2206 2211 2218 2223 2233 2244 2263 2267 2283 2294 2301 2305 2306 2308 2308 2316 2316 2316 2308 2284 0 0 0 0 0 0 0 0 0 0 0 0 0 0 0 0 0 0 0 0 0 0 1446 1437 1413 1385 1364 1352 1344 1338 1334 1329 1328 1323 1322 1321 1320 1318 1317 1317 1317 1317 1317 1317 1318 1318 1319 1319 1319 1320 1320 1320 1321 1321 1321 1321 1321 1322 1322 1322 1322 1322 1322 1321 1321 1321 1320 1320 1320 1319 1319 1319 1319 1318 1318 1318 1318 1318 1318 1318 1318 1317 1317 1316 1315 1314 1312 1311 1310 1309 1308 1308 1307 1306 1306 1305 1305 1305 1305 1305 1305 1305 1305 1305 1305 1305 1306 1306 1306 1307 1307 1308 1309 1310 1311 1312 1313 1313 1313 1314 1314 1314 1314 1314 1314 1314 1314 1314 1314 1314 1314 1314 1313 1313 1313 1313 1312 1312 1311 1311 1310 1310 1310 1309 1307 1306 1304 1303 1303 1302 1301 1300 1299 1298 1298 1298 1298 1298 1298 1298 1299 1300 1300 1301 1302 1304 1305 1305 1306 1307 1308 1309 1309 1310 1310 1311 1311 1312 1312 1312 1312 1312 1312 1312 1312 1311 1311 1311 1311 1310 1309 1309 1309 1309 1308 1307 1307 1306 1306 1306 1306 1305 1306 1306 1306 1306 1306 1306 1307 1307 1307 1307 1307 1306 1306 1306 1306 1306 1306 1306 1306 1306 1306 1306 1306 1306 1306 1306 1306 1306 1306 1305 1305 1305 1305 1305 1305 1305 1304 1304 1304 1303 1303 1303 1303 1303 1303 1303 1303 1303 1302 1302 1302 1302 1301 1301 1301 1300 1299 1298 1297 1297 1296 1295 1295 1294 1293 1293 1292 1292 1292 1292 1292 1292 1292 1293 1293 1293 1293 1294 1294 1295 1296 1297 1297 1298 1299 1299 1299 1299 1299 1299 1299 1299 1299 1299 1299 1299 1299 1299 1299 1299 1299 1298 1299 1299 1299 1299 1299 1299 1299 1298 1298 1298 1298 1297 1296 1296 1295 1294 1294 1292 1291 1291 1291 1292 1292 1292 1293 1293 1294 1294 1295 1295 1296 1297 1298 1299 1300 1300 1300 1301 1301 1301 1301 1301 1301 1301 1301 1301 1301 1301 1301 1301 1301 1301 1301 1301 1301 1302 1302 1302 1303 1303 1305 1307 1312 1315 1321 0 0 1441 1471 1476 1480 1482 1482 1482 1480 1479 1477 1475 1473 1470 1467 1464 1459 1455 1449 1448 1448 1445 1442 1438 1433 1421 1409 1397 1385 1362 1344 1327 1317 1306 1298 1293 1288 1281 1277 1270 1267 1264 1261 1259 1258 1258 1256 1255 1255 1255 1255 1255 1254 1254 1254 1254 1253 1253 1253 1252 1252 1251 1251 1250 1250 1249 1248 1248 1247 1247 1246 1245 1244 1243 1241 1241 1239 1239 1238 1237 1236 1234 1233 1232 1230 1229 1227 1226 1225 1224 1223 1223 1222 1222 1221 1221 1220 1220 1220 1221 1221 1221 1222 1222 1223 1223 1224 1226 1238 1254 0 0 0 0 1605 1626 1632 1637 1639 1639 1639 1636 1634 1630 1615 1597 1589 1589 1585 1584 1576 1576 1576 1574 1574 1565 1558 1550 1550 1550 1558 1558 1561 1561 1562 0 0 0 0 0 0 0 1865 1865 1862 1855 1851 1840 1838 1829 1824 1823 1822 1817 1806 1799 1799 1799 1807 1807 1807 1800 1796 1796 1796 1798 1798 1798 1791 1789 1785 1783 1780 1779 1777 1773 1768 1768 1767 1767 1766 1764 1764 1759 1759 1758 1758 1756 1754 1753 1753 1752 1751 1749 1749 1749 1747 1747 1747 1747 1747 1747 1746 1745 1744 1743 1742 1742 1742 1745 1748 1750 1750 1750 1749 0
2088 2094 2106 2109 2109 2109 2106 2106 2106 2115 2122 2126 2144 2161 2175 2180 2188 2201 2206 2211 2218 2223 2227 2239 2251 2263 2268 2283 2296 2302 2306 2307 2308 2309 2309 2309 2308 0 0 0 0 0 0 0 0 0 0 0 0 0 0 0 2721 2721 2721 2544 0 0 0 0 1454 1445 1413 1387 1369 1352 1344 1338 1332 1328 1328 1323 1322 1321 1320 1318 1318 1317 1317 1317 1317 1318 1318 1318 1319 1319 1319 1320 1320 1320 1321 1321 1321 1321 1322 1322 1322 1322 1322 1322 1322 1321 1321 1321 1321 1320 1320 1320 1319 1319 1319 1319 1319 1319 1318 1318 1318 1318 1318 1317 1317 1317 1315 1314 1312 1311 1310 1309 1308 1308 1307 1306 1306 1305 1305 1305 1305 1305 1305 1305 1305 1305 1305 1305 1306 1306 1307 1307 1308 1308 1309 1311 1312 1312 1313 1314 1314 1314 1314 1314 1315 1315 1315 1315 1315 1315 1315 1314 1314 1314 1314 1313 1313 1313 1312 1312 1311 1311 1311 1310 1310 1309 1307 1306 1304 1303 1303 1302 1301 1300 1299 1298 1298 1298 1298 1298 1298 1298 1298 1300 1300 1301 1302 1304 1305 1306 1307 1307 1308 1309 1309 1310 1311 1311 1312 1312 1312 1312 1312 1312 1312 1312 1312 1311 1311 1311 1310 1310 1309 1309 1309 1309 1309 1307 1307 1306 1306 1306 1306 1305 1306 1306 1306 1306 1306 1306 1307 1307 1307 1307 1307 1307 1307 1307 1307 1307 1307 1307 1307 1307 1307 1306 1306 1306 1306 1306 1306 1306 1306 1306 1306 1305 1305 1305 1305 1305 1305 1304 1304 1304 1304 1304 1303 1303 1303 1303 1303 1303 1302 1302 1302 1302 1301 1301 1300 1300 1299 1298 1297 1297 1296 1295 1295 1294 1293 1293 1292 1292 1292 1292 1292 1292 1292 1292 1293 1293 1294 1294 1295 1296 1297 1297 1297 1298 1299 1299 1300 1300 1300 1300 1300 1299 1299 1299 1299 1299 1299 1299 1299 1299 1299 1299 1299 1299 1299 1299 1299 1299 1299 1299 1299 1298 1298 1297 1296 1295 1294 1294 1293 1292 1291 1291 1291 1291 1291 1291 1292 1293 1294 1294 1295 1295 1296 1297 1298 1299 1300 1300 1301 1301 1301 1301 1301 1301 1301 1301 1301 1301 1301 1301 1301 1301 1302 1302 1302 1302 1302 1302 1302 1302 1303 1303 1305 1307 1312 1315 1321 0 0 1441 1472 1477 1480 1482 1482 1482 1481 1480 1478 1475 1473 1470 1467 1464 1459 1455 1447 1444 1441 1439 1434 1428 1412 1404 1391 1376 1353 1338 1328 1315 1299 1292 1286 1282 1279 1274 1269 1267 1264 1261 1260 1258 1256 1256 1255 1255 1255 1254 1254 1254 1254 1253 1253 1253 1253 1253 1253 1252 1252 1251 1251 1250 1250 1250 1249 1248 1247 1246 1246 1245 1244 1242 1241 1239 1238 1238 1237 1236 1235 1233 1232 1231 1229 1228 1226 1225 1224 1223 1223 1222 1221 1220 1220 1220 1220 1220 1220 1220 1220 1220 1220 1220 1220 1221 1222 1226 1232 1250 1254 0 0 0 1590 1611 1622 1630 1630 1630 1623 1614 1612 1608 1599 1591 1583 1580 1575 1575 1575 1571 1570 1570 1569 1559 1552 1547 1546 1546 1546 1550 1550 1550 1550 1550 1550 1550 0 0 0 0 0 1836 1836 1836 1829 1824 1821 1813 1809 1809 1808 1800 1794 1789 1787 1786 1785 1785 1784 1783 1783 1786 1787 1792 1792 1792 1786 1784 1781 1777 1773 1769 1765 1762 1758 1758 1758 1758 1758 1758 1758 1755 1751 1750 1750 1749 1747 1747 1747 1747 1747 1747 1745 1744 1743 1743 1743 1742 1742 1741 1741 1741 1740 1739 1737 1737 1737 1738 1740 1743 1745 1748 1748 0
2071 2078 2091 2099 2099 2099 2099 2099 2106 2126 2137 2151 2156 2168 2175 2180 2188 2201 2206 2211 2218 2223 2227 2230 2235 2252 2256 2272 2290 2302 2304 2306 2308 2309 2309 2309 2308 0 0 0 0 0 0 0 0 0 0 0 0 0 0 2723 2789 2812 2812 2789 2601 0 0 0 0 0 1413 1387 1369 1352 1342 1338 1332 1328 1327 1323 1322 1321 1320 1318 1318 1318 1318 1318 1318 1318 1318 1318 1319 1319 1320 1320 1320 1321 1321 1321 1321 1321 1322 1322 1322 1322 1322 1322 1322 1322 1321 1321 1321 1320 1320 1320 1319 1319 1319 1319 1319 1319 1319 1319 1319 1319 1318 1318 1317 1317 1315 1314 1312 1311 1310 1308 1308 1308 1305 1304 1304 1304 1304 1304 1304 1304 1304 1304 1304 1305 1305 1305 1306 1307 1307 1308 1308 1308 1309 1311 1312 1313 1313 1314 1314 1314 1314 1315 1315 1315 1315 1315 1315 1315 1315 1315 1314 1314 1314 1314 1313 1313 1313 1312 1311 1311 1311 1310 1310 1309 1307 1307 1305 1304 1304 1302 1301 1301 1299 1298 1298 1298 1298 1298 1298 1298 1299 1300 1300 1301 1302 1303 1305 1306 1307 1307 1308 1309 1309 1311 1311 1311 1312 1312 1312 1312 1312 1312 1312 1312 1312 1311 1311 1310 1310 1310 1309 1309 1309 1309 1308 1307 1307 1307 1306 1306 1305 1305 1306 1306 1306 1306 1306 1306 1307 1307 1307 1307 1307 1307 1307 1307 1307 1307 1307 1307 1307 1307 1307 1307 1307 1307 1307 1307 1307 1307 1306 1306 1306 1306 1305 1305 1305 1305 1305 1305 1304 1304 1304 1304 1304 1304 1303 1303 1303 1303 1303 1302 1302 1302 1301 1300 1300 1300 1299 1298 1297 1296 1296 1295 1294 1293 1293 1293 1292 1292 1292 1292 1292 1292 1292 1292 1292 1293 1294 1294 1295 1296 1297 1297 1297 1299 1299 1300 1300 1300 1300 1300 1300 1300 1300 1300 1300 1300 1299 1299 1299 1299 1299 1300 1300 1300 1300 1300 1300 1300 1299 1299 1299 1298 1298 1297 1296 1294 1293 1293 1293 1292 1291 1291 1290 1290 1290 1290 1291 1292 1293 1293 1294 1295 1296 1297 1298 1299 1300 1301 1301 1301 1301 1302 1302 1302 1301 1301 1301 1301 1301 1301 1302 1302 1302 1302 1302 1302 1302 1302 1302 1302 1303 1303 1305 1307 1311 1314 1321 1343 0 1441 1472 1478 1480 1482 1482 1482 1481 1480 1478 1476 1473 1471 1468 1465 1459 1451 1445 1441 1437 1429 1423 1405 1393 1372 1360 1347 1331 1323 1313 1297 1287 1284 1280 1277 1274 1269 1266 1264 1262 1260 1258 1256 1254 1254 1254 1254 1254 1253 1253 1253 1253 1253 1253 1253 1253 1253 1252 1252 1252 1252 1251 1250 1250 1249 1248 1248 1247 1246 1246 1244 1243 1242 1240 1239 1237 1236 1235 1235 1233 1232 1231 1230 1229 1226 1225 1224 1223 1222 1221 1221 1220 1220 1219 1219 1218 1218 1218 1219 1219 1219 1219 1219 1219 1219 1221 1225 1229 1250 1267 0 0 0 1580 1604 1611 1617 1617 1617 1607 1599 1593 1586 1582 1576 1569 1566 1564 1563 1560 1558 1556 1555 1552 1552 1544 1544 1544 1545 1545 1545 1545 1543 1543 1546 1546 1546 1548 1550 0 0 0 0 0 1790 1788 1788 1788 1786 1785 1781 1780 1779 1770 1769 1768 1768 1768 1768 1768 1768 1768 1768 1772 1778 1778 1778 1776 1772 1770 1766 1764 1762 1760 1757 1755 1755 1754 1753 1753 1753 1749 1747 1746 1746 1745 1744 1744 1742 1742 1742 1743 1743 1743 1740 1738 1738 1738 1736 1736 1735 1734 1734 1734 1735 1735 1736 1736 1737 1738 1742 1745 1748 1748 0
2057 2069 2082 2091 2091 2095 2095 2095 2110 2130 2138 2153 2159 2179 2183 2189 2197 2208 2213 2222 2226 2227 2227 2230 2235 2248 2252 2265 2284 2297 2304 2308 2308 2308 2307 2300 2290 0 0 0 0 0 0 0 0 0 0 0 0 0 0 2839 2933 2972 2972 2933 2836 2556 0 0 0 0 1416 1387 1369 1352 1342 1337 1334 1330 1327 1324 1323 1321 1320 1318 1318 1318 1318 1318 1318 1318 1319 1319 1319 1319 1320 1320 1321 1321 1321 1321 1321 1321 1322 1322 1322 1322 1322 1322 1322 1322 1321 1321 1321 1320 1320 1320 1320 1320 1319 1319 1319 1319 1319 1319 1319 1319 1319 1319 1318 1317 1316 1314 1313 1311 1310 1308 1307 1306 1305 1304 1304 1304 1304 1304 1304 1304 1304 1304 1304 1304 1304 1305 1306 1307 1307 1308 1308 1309 1310 1311 1312 1313 1313 1314 1314 1314 1315 1315 1315 1315 1315 1315 1315 1315 1315 1315 1315 1314 1314 1314 1314 1313 1313 1313 1312 1311 1311 1310 1310 1309 1308 1307 1305 1305 1304 1303 1302 1301 1299 1298 1298 1298 1298 1298 1298 1298 1299 1300 1300 1301 1302 1303 1305 1306 1307 1307 1308 1309 1310 1311 1311 1311 1312 1312 1312 1312 1312 1312 1312 1312 1311 1311 1311 1310 1310 1310 1310 1309 1309 1308 1308 1308 1307 1307 1306 1306 1305 1305 1305 1306 1306 1306 1306 1306 1307 1307 1307 1307 1307 1307 1307 1307 1307 1307 1307 1307 1307 1307 1308 1308 1308 1307 1307 1307 1307 1307 1307 1307 1306 1306 1306 1306 1306 1305 1305 1305 1305 1305 1304 1304 1304 1304 1304 1303 1303 1303 1303 1303 1303 1302 1301 1300 1300 1299 1299 1298 1297 1296 1296 1295 1293 1293 1292 1292 1292 1292 1292 1292 1292 1292 1292 1292 1292 1293 1294 1294 1295 1296 1297 1297 1298 1299 1300 1300 1300 1301 1301 1301 1301 1301 1300 1300 1300 1300 1300 1300 1300 1300 1300 1300 1300 1300 1300 1300 1300 1300 1299 1299 1299 1298 1298 1297 1295 1294 1293 1293 1293 1292 1291 1290 1289 1289 1289 1290 1291 1292 1293 1293 1294 1295 1296 1297 1298 1299 1300 1301 1301 1301 1302 1302 1302 1302 1302 1302 1302 1301 1302 1302 1302 1302 1302 1302 1302 1302 1302 1303 1303 1303 1303 1303 1306 1307 1311 1314 1321 1346 0 1449 1473 1478 1480 1482 1482 1482 1481 1480 1478 1476 1473 1471 1468 1465 1459 1451 1444 1440 1433 1418 1400 1385 1374 1355 1340 1322 1312 1305 1295 1288 1284 1283 1279 1273 1266 1263 1262 1262 1261 1258 1256 1255 1254 1254 1254 1253 1253 1253 1253 1253 1253 1253 1253 1253 1253 1252 1252 1252 1252 1252 1251 1250 1250 1249 1248 1248 1247 1246 1245 1243 1242 1242 1240 1238 1236 1235 1235 1233 1232 1230 1230 1227 1226 1225 1224 1223 1222 1222 1220 1219 1219 1218 1218 1217 1217 1217 1217 1217 1218 1218 1218 1219 1219 1219 1221 1224 1228 1242 1267 0 0 0 0 1591 1596 1597 1600 1600 1600 1596 1589 1583 1580 1572 1568 1566 1564 1562 1558 1554 1553 1552 1550 1548 1541 1537 1537 1536 1536 1536 1528 1528 1528 1531 1531 1531 1536 1536 1532 0 0 0 0 0 1754 1764 1764 1764 1764 1761 1756 1752 1750 1750 1748 1747 1747 1747 1748 1749 1749 1752 1752 1752 1760 1762 1762 1762 1761 1759 1757 1754 1754 1753 1752 1750 1749 1749 1749 1747 1746 1743 1741 1741 1741 1741 1740 1740 1739 1739 1739 1739 1739 1738 1734 1733 1732 1732 1732 1732 1731 1731 1731 1731 1733 1733 1733 1733 1733 1733 1733 1741 1741 0
2042 2058 2075 2085 2085 2089 2089 2095 2110 2130 2138 2158 2164 2179 2189 2202 2214 2225 2232 2232 2232 2232 2232 2232 2235 2245 2248 2265 2275 2285 2298 2308 2308 2308 2293 2273 0 0 0 0 0 0 0 0 0 0 0 0 0 0 2547 2852 3026 3026 3026 3023 3015 2748 2461 2197 0 0 0 1387 1369 1355 1343 1334 1332 1331 1327 1326 1323 1321 1320 1318 1318 1318 1318 1318 1319 1319 1319 1319 1320 1320 1320 1320 1321 1321 1321 1321 1322 1322 1322 1322 1322 1322 1322 1322 1322 1322 1321 1321 1321 1320 1320 1320 1320 1320 1320 1320 1320 1320 1320 1319 1319 1319 1319 1319 1318 1317 1316 1315 1313 1312 1310 1308 1307 1306 1304 1303 1303 1303 1303 1303 1304 1304 1304 1304 1304 1304 1304 1305 1306 1308 1308 1308 1309 1309 1310 1311 1313 1313 1313 1314 1315 1315 1315 1315 1316 1316 1316 1316 1316 1316 1315 1315 1315 1315 1315 1314 1314 1314 1314 1313 1313 1312 1312 1311 1311 1309 1308 1307 1306 1306 1304 1303 1302 1301 1299 1298 1298 1298 1298 1298 1298 1298 1299 1299 1300 1301 1303 1303 1305 1306 1307 1307 1308 1309 1310 1310 1311 1311 1311 1312 1312 1312 1312 1312 1312 1312 1311 1311 1311 1310 1310 1310 1309 1309 1309 1309 1309 1308 1307 1307 1306 1306 1306 1305 1306 1306 1306 1306 1306 1306 1307 1307 1307 1307 1307 1307 1307 1307 1307 1307 1307 1307 1307 1308 1308 1308 1308 1307 1307 1307 1307 1307 1307 1307 1306 1306 1306 1306 1306 1306 1306 1306 1305 1305 1305 1305 1305 1304 1304 1304 1304 1303 1303 1303 1303 1303 1302 1301 1300 1299 1299 1298 1297 1296 1296 1294 1293 1293 1292 1292 1292 1292 1292 1292 1292 1292 1292 1292 1292 1293 1294 1295 1296 1296 1297 1297 1298 1299 1300 1301 1301 1301 1301 1301 1301 1301 1301 1301 1300 1300 1300 1300 1300 1300 1300 1300 1300 1300 1300 1300 1300 1300 1300 1299 1299 1298 1297 1297 1295 1294 1293 1293 1292 1292 1291 1290 1289 1289 1289 1290 1291 1292 1293 1293 1294 1295 1297 1297 1298 1299 1300 1301 1301 1301 1302 1302 1302 1302 1302 1302 1302 1302 1302 1302 1302 1302 1302 1302 1302 1302 1302 1303 1303 1304 1304 1304 1306 1307 1311 1314 1323 1351 0 1449 1473 1478 1480 1482 1482 1482 1481 1480 1478 1476 1474 1471 1468 1465 1456 1450 1444 1433 1418 1400 1380 1370 1348 1331 1325 1313 1304 1293 1288 1284 1281 1277 1271 1265 1262 1262 1261 1260 1257 1256 1255 1255 1254 1254 1253 1253 1253 1253 1253 1253 1253 1253 1253 1253 1253 1252 1252 1251 1251 1251 1250 1250 1249 1248 1248 1247 1246 1244 1243 1242 1241 1240 1239 1238 1236 1235 1233 1233 1231 1229 1227 1227 1226 1225 1224 1222 1221 1220 1220 1218 1218 1217 1216 1216 1216 1216 1216 1216 1217 1218 1218 1218 1218 1219 1221 1225 1228 1237 1267 0 0 0 0 1572 1592 1595 1595 1593 1593 1588 1583 1580 1575 1567 1561 1559 1556 1552 1552 1552 1551 1551 1548 1544 1539 1535 1535 1532 1531 1528 1525 1523 1523 1523 1522 1524 1527 1536 1531 1537 1542 0 0 0 0 1728 1729 1742 1745 1745 1745 1741 1736 1731 1731 1731 1732 1732 1733 1734 1736 1741 1742 1742 1742 1743 1743 1749 1749 1749 1747 1747 1746 1746 1743 1743 1743 1743 1741 1739 1738 1738 1738 1736 1734 1734 1734 1734 1733 1733 1733 1733 1732 1731 1730 1730 1729 1729 1729 1730 1730 1730 1730 1730 1730 1730 1730 1730 1730 1726 1726 1726 1725 0
2035 2049 2073 2081 2081 2082 2084 2098 2112 2130 2139 2158 2165 2179 2196 2207 2221 2234 2240 2240 2241 2240 2240 2240 2241 2241 2244 2254 2262 2267 2278 2308 2308 2308 2285 2253 0 0 0 0 0 0 0 0 0 0 0 0 0 0 2566 2894 3055 3055 3055 3028 3015 2833 2581 2227 0 0 0 1387 1367 1355 1343 1333 1332 1331 1326 1326 1323 1321 1319 1318 1318 1318 1319 1319 1319 1319 1320 1320 1320 1320 1320 1321 1321 1322 1322 1322 1322 1322 1322 1322 1322 1322 1322 1322 1322 1321 1321 1321 1321 1320 1320 1320 1320 1320 1320 1320 1320 1320 1320 1320 1319 1319 1319 1319 1318 1317 1316 1316 1316 1313 1310 1308 1307 1306 1304 1303 1303 1303 1303 1303 1303 1303 1304 1304 1304 1304 1304 1305 1307 1308 1308 1308 1309 1309 1310 1311 1313 1314 1314 1315 1315 1315 1315 1316 1316 1316 1316 1316 1316 1316 1315 1315 1315 1315 1315 1314 1314 1314 1314 1314 1313 1312 1312 1311 1311 1309 1309 1308 1307 1306 1304 1303 1302 1301 1299 1298 1298 1298 1298 1298 1298 1298 1299 1299 1300 1302 1303 1303 1305 1306 1307 1307 1308 1309 1310 1311 1311 1311 1311 1311 1312 1312 1312 1312 1312 1311 1311 1311 1310 1310 1310 1309 1309 1309 1309 1309 1309 1308 1308 1307 1307 1307 1307 1306 1306 1306 1306 1306 1306 1306 1307 1307 1307 1307 1307 1307 1307 1307 1307 1307 1307 1307 1308 1308 1308 1308 1308 1308 1308 1308 1308 1308 1307 1307 1307 1306 1306 1306 1306 1306 1306 1306 1306 1305 1305 1305 1305 1305 1305 1304 1304 1304 1303 1303 1303 1303 1302 1301 1300 1299 1298 1297 1297 1296 1295 1294 1293 1293 1292 1291 1291 1291 1291 1292 1292 1292 1292 1292 1292 1293 1294 1296 1296 1297 1297 1299 1299 1300 1300 1301 1301 1301 1301 1301 1301 1301 1301 1301 1301 1300 1300 1300 1300 1300 1301 1301 1301 1301 1301 1301 1301 1300 1300 1299 1299 1298 1297 1296 1295 1294 1293 1293 1292 1292 1291 1290 1289 1289 1289 1291 1291 1292 1293 1293 1294 1295 1297 1298 1298 1299 1300 1301 1302 1302 1302 1302 1302 1302 1302 1302 1302 1302 1302 1302 1302 1302 1302 1302 1302 1302 1302 1303 1303 1304 1304 1305 1306 1308 1311 1315 1326 1351 0 1449 1473 1477 1479 1480 1481 1481 1481 1479 1478 1476 1474 1471 1466 1461 1455 1449 1442 1419 1398 1380 1354 1344 1333 1320 1312 1306 1297 1286 1282 1278 1275 1270 1265 1263 1262 1262 1260 1259 1257 1255 1255 1254 1253 1253 1253 1253 1253 1253 1252 1252 1252 1252 1252 1252 1252 1252 1252 1251 1251 1251 1250 1249 1248 1247 1247 1246 1244 1243 1242 1242 1240 1239 1238 1236 1235 1233 1232 1231 1229 1229 1227 1226 1225 1224 1222 1221 1220 1219 1218 1217 1217 1216 1216 1216 1215 1215 1216 1216 1217 1218 1218 1218 1219 1219 1221 1225 1226 1235 1260 0 0 0 0 1555 1591 1591 1591 1591 1588 1581 1572 1570 1567 1561 1556 1554 1550 1550 1549 1549 1549 1547 1544 1540 1536 1533 1531 1531 1530 1528 1524 1523 1519 1519 1519 1520 1522 1522 1527 1529 1529 1532 0 0 0 0 1706 1706 1731 1734 1734 1734 1730 1726 1722 1721 1721 1721 1721 1724 1725 1727 1728 1729 1730 1730 1731 1732 1733 1735 1736 1736 1736 1735 1736 1736 1736 1736 1736 1733 1733 1733 1733 1733 1729 1729 1728 1727 1727 1725 1725 1725 1725 1725 1726 1726 1726 1726 1727 1727 1727 1727 1727 1727 1728 1730 1730 1730 1728 1724 1724 1724 1724 0
2035 2049 2073 2081 2081 2082 2084 2098 2112 2126 2139 2158 2165 2184 2202 2208 2221 2234 2243 2247 2249 2249 2249 2247 2242 2242 2242 2244 2250 2258 2264 2293 2293 2293 2285 2248 0 0 0 0 0 0 0 0 0 0 0 0 0 0 2771 2945 3074 3074 3074 3051 3015 2904 2657 2287 0 0 0 0 1363 1351 1344 1333 1331 1330 1326 1326 1322 1320 1318 1318 1318 1318 1319 1319 1319 1319 1320 1320 1321 1321 1321 1322 1322 1322 1322 1322 1322 1322 1322 1322 1322 1322 1322 1322 1321 1321 1321 1321 1321 1320 1320 1320 1320 1320 1320 1320 1320 1320 1320 1320 1320 1320 1319 1319 1318 1318 1317 1316 1316 1313 1310 1308 1306 1306 1304 1303 1303 1303 1303 1303 1303 1303 1304 1304 1304 1304 1304 1305 1306 1308 1308 1308 1309 1309 1310 1311 1313 1314 1315 1315 1315 1316 1316 1316 1316 1316 1316 1316 1316 1316 1316 1315 1315 1315 1315 1314 1314 1314 1314 1314 1313 1312 1312 1312 1311 1311 1311 1309 1307 1306 1305 1303 1302 1301 1299 1298 1298 1298 1298 1298 1298 1298 1299 1299 1300 1302 1303 1304 1305 1306 1307 1308 1309 1309 1310 1311 1311 1311 1311 1311 1311 1311 1312 1312 1311 1311 1311 1311 1310 1310 1310 1309 1309 1309 1309 1309 1309 1308 1308 1308 1307 1307 1307 1307 1306 1306 1306 1306 1306 1306 1307 1307 1307 1307 1307 1307 1307 1307 1307 1307 1307 1308 1309 1309 1309 1309 1309 1308 1308 1308 1308 1308 1308 1307 1307 1307 1307 1307 1306 1306 1306 1306 1306 1306 1306 1306 1306 1306 1305 1305 1304 1304 1303 1303 1303 1303 1302 1301 1300 1299 1298 1297 1297 1296 1296 1294 1294 1293 1292 1291 1291 1291 1292 1292 1292 1292 1292 1292 1293 1294 1295 1296 1296 1297 1298 1299 1300 1300 1301 1301 1301 1302 1302 1302 1302 1302 1301 1301 1301 1301 1301 1301 1301 1301 1301 1301 1301 1301 1301 1301 1301 1300 1300 1299 1299 1298 1297 1296 1295 1294 1293 1293 1292 1292 1291 1290 1290 1290 1290 1291 1291 1292 1293 1293 1294 1295 1297 1298 1299 1299 1300 1301 1302 1302 1302 1302 1302 1302 1302 1303 1303 1303 1303 1303 1303 1302 1303 1302 1303 1303 1303 1303 1304 1304 1304 1305 1306 1308 1312 1316 1326 1352 0 1443 1469 1474 1477 1479 1480 1480 1480 1479 1476 1475 1474 1469 1462 1456 1451 1445 1431 1398 1381 1355 1337 1331 1323 1312 1304 1295 1287 1281 1277 1276 1271 1267 1265 1263 1262 1260 1259 1257 1256 1255 1255 1253 1253 1253 1253 1253 1253 1252 1252 1252 1252 1252 1252 1252 1252 1252 1252 1251 1250 1250 1249 1248 1248 1246 1245 1244 1244 1242 1241 1240 1239 1237 1237 1236 1234 1232 1231 1230 1229 1228 1227 1225 1224 1223 1222 1221 1220 1219 1218 1217 1216 1216 1215 1215 1215 1215 1215 1216 1217 1217 1218 1220 1220 1220 1222 1225 1226 1235 1252 0 0 0 0 1542 1572 1584 1584 1584 1582 1573 1564 1562 1562 1557 1552 1551 1547 1544 1544 1544 1544 1542 1540 1537 1535 1531 1531 1529 1529 1523 1522 1522 1518 1513 1512 1512 1512 1512 1512 1512 1515 1527 1548 1558 0 0 0 1694 1699 1719 1723 1723 1723 1722 1713 1713 1713 1714 1716 1716 1716 1716 1716 1716 1716 1716 1720 1720 1721 1721 1724 1725 1726 1726 1726 1728 1730 1730 1730 1730 1730 1730 1729 1728 1724 1723 1721 1720 1719 1719 1719 1719 1720 1722 1723 1723 1723 1725 1726 1726 1726 1726 1726 1726 1727 1729 1729 1729 1726 1722 1722 1722 1720 0
2035 2049 2072 2077 2082 2084 2088 2098 2112 2126 2139 2158 2164 2184 2202 2208 2221 2234 2243 2247 2249 2249 2249 2249 2243 2243 2243 2244 2250 2258 2264 2286 2286 2286 2283 2247 0 0 0 0 0 0 0 0 0 0 0 0 0 0 2856 3056 3102 3102 3102 3053 3017 2920 2810 2725 0 0 0 0 1367 1350 1344 1334 1330 1330 1326 1323 1320 1319 1318 1318 1318 1319 1319 1319 1319 1320 1321 1321 1321 1321 1321 1322 1322 1322 1322 1322 1322 1322 1322 1322 1322 1322 1322 1322 1322 1321 1321 1321 1321 1320 1320 1320 1320 1320 1320 1320 1320 1320 1320 1320 1320 1320 1320 1319 1319 1318 1317 1317 1316 1313 1310 1308 1306 1306 1304 1304 1304 1303 1303 1303 1303 1303 1304 1304 1304 1304 1304 1305 1306 1308 1309 1309 1310 1310 1311 1313 1314 1314 1315 1316 1316 1316 1316 1316 1316 1316 1316 1316 1316 1316 1316 1316 1315 1315 1315 1314 1314 1314 1314 1314 1313 1312 1312 1312 1312 1311 1311 1309 1307 1306 1305 1304 1302 1301 1299 1299 1298 1298 1298 1298 1298 1299 1300 1301 1301 1302 1304 1305 1306 1307 1307 1308 1309 1309 1310 1311 1311 1311 1311 1311 1311 1311 1311 1311 1311 1311 1311 1311 1310 1310 1310 1310 1309 1309 1309 1309 1309 1309 1308 1308 1308 1308 1308 1307 1306 1306 1306 1306 1306 1306 1307 1307 1307 1307 1308 1308 1308 1308 1308 1308 1308 1309 1310 1310 1310 1310 1309 1309 1309 1308 1308 1308 1308 1308 1307 1307 1307 1307 1307 1307 1307 1307 1306 1306 1306 1306 1306 1306 1306 1305 1305 1304 1304 1303 1303 1303 1302 1302 1300 1299 1298 1297 1297 1296 1296 1296 1294 1293 1292 1291 1291 1291 1292 1292 1292 1292 1293 1293 1294 1295 1295 1296 1297 1298 1298 1299 1300 1301 1301 1301 1302 1302 1302 1302 1302 1302 1301 1301 1301 1301 1301 1301 1301 1301 1301 1301 1301 1301 1301 1301 1301 1301 1300 1299 1299 1298 1297 1296 1295 1294 1293 1293 1292 1292 1292 1291 1291 1291 1291 1291 1292 1292 1293 1293 1294 1296 1297 1298 1299 1299 1300 1301 1302 1302 1302 1302 1303 1303 1303 1303 1303 1303 1303 1303 1303 1303 1303 1303 1303 1303 1303 1303 1304 1304 1305 1305 1306 1309 1313 1316 1326 1354 0 1443 1469 1473 1476 1479 1480 1480 1480 1479 1476 1473 1471 1469 1462 1453 1441 1419 1401 1383 1356 1337 1332 1323 1311 1303 1298 1289 1283 1277 1277 1274 1269 1267 1264 1263 1261 1259 1258 1257 1256 1255 1254 1254 1253 1253 1253 1253 1253 1252 1252 1252 1252 1252 1252 1252 1252 1251 1251 1251 1250 1249 1248 1247 1246 1245 1244 1243 1242 1240 1240 1239 1238 1236 1235 1232 1231 1231 1230 1229 1229 1226 1225 1224 1223 1222 1221 1220 1219 1219 1217 1217 1216 1215 1215 1214 1214 1214 1215 1215 1216 1217 1218 1220 1220 1221 1223 1225 1226 1235 1250 0 0 0 0 1514 1548 1560 1568 1568 1568 1557 1554 1554 1554 1551 1549 1546 1542 1541 1539 1538 1538 1538 1538 1535 1531 1529 1528 1528 1526 1523 1521 1520 1512 1509 1508 1508 1508 1508 1508 1508 1514 1523 1543 1552 1573 1603 0 0 0 1688 1699 1704 1704 1704 1700 1700 1700 1703 1705 1707 1707 1707 1705 1703 1703 1703 1704 1707 1707 1708 1709 1711 1713 1714 1717 1721 1721 1721 1722 1722 1726 1726 1726 1724 1721 1720 1715 1714 1714 1714 1714 1715 1716 1719 1721 1722 1722 1724 1724 1724 1724 1724 1724 1723 1723 1723 1723 1723 1722 1720 1720 1720 1718 0
2049 2052 2069 2076 2082 2096 2098 2109 2119 2126 2141 2158 2164 2184 2202 2208 2219 2226 2238 2247 2252 2252 2252 2249 2245 2244 2244 2244 2250 2258 2264 2284 2284 2284 2283 0 0 0 0 0 0 0 0 0 0 0 0 0 0 0 2952 3076 3114 3114 3114 3093 3017 2947 2906 2849 0 0 0 0 0 1357 1344 1338 1330 1330 1326 1322 1320 1319 1319 1319 1319 1319 1319 1319 1320 1320 1321 1321 1321 1322 1322 1322 1322 1322 1322 1322 1322 1322 1322 1322 1322 1322 1322 1322 1321 1321 1321 1321 1321 1320 1320 1320 1320 1320 1320 1320 1320 1320 1320 1320 1320 1320 1320 1320 1320 1319 1317 1317 1317 1315 1310 1308 1306 1306 1306 1305 1304 1304 1304 1304 1304 1304 1304 1304 1304 1304 1304 1305 1307 1309 1310 1310 1311 1311 1311 1313 1314 1314 1315 1316 1316 1316 1316 1316 1316 1316 1316 1316 1316 1316 1316 1316 1315 1315 1315 1315 1314 1314 1314 1314 1313 1312 1312 1312 1312 1312 1311 1309 1308 1306 1305 1304 1303 1301 1300 1299 1298 1298 1298 1299 1299 1299 1301 1301 1301 1302 1304 1305 1307 1307 1308 1309 1310 1310 1310 1311 1311 1311 1311 1311 1311 1311 1311 1311 1311 1311 1311 1311 1310 1310 1310 1310 1309 1309 1309 1309 1309 1309 1309 1309 1309 1308 1308 1307 1306 1306 1306 1306 1306 1306 1307 1307 1307 1308 1308 1308 1308 1308 1308 1308 1309 1309 1310 1310 1310 1310 1309 1309 1309 1308 1308 1308 1308 1308 1307 1307 1307 1307 1307 1307 1307 1307 1307 1306 1306 1306 1306 1306 1306 1305 1305 1305 1304 1304 1303 1303 1302 1301 1300 1299 1298 1297 1297 1296 1296 1296 1295 1293 1292 1292 1292 1292 1293 1293 1293 1293 1293 1294 1294 1295 1296 1297 1297 1298 1299 1301 1301 1301 1302 1302 1302 1302 1302 1302 1302 1302 1302 1302 1302 1302 1302 1302 1302 1302 1302 1302 1302 1302 1302 1302 1301 1301 1301 1299 1299 1298 1298 1296 1295 1294 1293 1293 1293 1293 1292 1292 1291 1291 1291 1292 1293 1293 1293 1293 1294 1296 1297 1298 1299 1299 1300 1301 1302 1302 1302 1303 1303 1303 1303 1303 1303 1303 1303 1304 1303 1303 1303 1303 1303 1303 1303 1304 1304 1304 1305 1305 1307 1309 1313 1316 1324 1354 0 1443 1467 1472 1475 1478 1479 1479 1479 1479 1476 1473 1470 1467 1456 1443 1414 1399 1386 1365 1346 1334 1323 1312 1304 1299 1292 1286 1280 1277 1276 1273 1269 1265 1264 1262 1261 1259 1258 1257 1256 1255 1254 1254 1253 1253 1253 1253 1253 1252 1252 1252 1252 1252 1251 1251 1251 1251 1250 1250 1249 1248 1247 1246 1245 1243 1243 1241 1240 1239 1237 1237 1236 1234 1233 1232 1231 1230 1229 1228 1227 1226 1224 1224 1222 1222 1221 1220 1219 1219 1217 1217 1216 1215 1215 1214 1214 1214 1215 1215 1216 1216 1217 1220 1220 1221 1223 1225 1227 1235 1249 0 0 0 0 1502 1519 1543 1546 1546 1546 1545 1545 1544 1543 1543 1541 1538 1535 1535 1534 1533 1532 1532 1531 1530 1527 1525 1523 1523 1521 1519 1517 1515 1511 1508 1507 1504 1504 1504 1502 1504 1505 1506 1519 1536 1553 1555 1574 0 0 0 1669 1672 1687 1689 1691 1694 1694 1694 1696 1695 1695 1695 1695 1695 1695 1696 1696 1696 1697 1697 1700 1703 1704 1704 1707 1709 1709 1709 1710 1712 1715 1716 1717 1717 1717 1715 1715 1713 1712 1712 1712 1712 1712 1712 1714 1719 1719 1719 1720 1720 1719 1718 1717 1716 1716 1716 1720 1720 1720 1720 1717 1716 1713 0
2049 2052 2067 2073 2082 2096 2112 2125 2138 2140 2141 2158 2164 2181 2185 2198 2211 2221 2238 2250 2252 2252 2252 2249 2245 2245 2245 2248 2257 2267 2277 2284 2284 2284 2271 0 0 0 0 0 0 0 0 0 0 0 0 0 0 2771 2996 3132 3132 3132 3130 3121 3017 2968 2913 2882 2525 0 0 0 0 1357 1344 1339 1330 1328 1326 1322 1320 1319 1319 1319 1319 1319 1320 1320 1320 1320 1321 1322 1322 1322 1322 1322 1322 1322 1322 1322 1322 1322 1322 1322 1322 1322 1322 1321 1321 1321 1321 1321 1320 1320 1320 1320 1320 1320 1320 1319 1319 1319 1319 1319 1320 1320 1320 1320 1320 1319 1318 1317 1317 1315 1312 1309 1308 1308 1307 1305 1305 1305 1304 1304 1304 1304 1304 1304 1304 1304 1304 1306 1308 1309 1311 1311 1311 1311 1313 1313 1314 1315 1316 1316 1316 1316 1316 1316 1316 1316 1316 1316 1316 1316 1316 1316 1316 1315 1315 1314 1314 1314 1314 1314 1313 1313 1312 1312 1312 1312 1311 1309 1308 1307 1306 1305 1305 1303 1301 1299 1299 1299 1299 1299 1300 1300 1301 1302 1303 1304 1304 1306 1307 1307 1309 1310 1310 1310 1311 1311 1311 1311 1311 1311 1311 1311 1311 1311 1311 1311 1311 1311 1310 1310 1310 1310 1310 1310 1310 1310 1310 1310 1310 1310 1309 1309 1308 1308 1307 1307 1306 1306 1306 1306 1307 1307 1307 1308 1308 1308 1308 1308 1308 1308 1309 1310 1310 1310 1310 1310 1310 1309 1309 1309 1309 1309 1308 1308 1308 1307 1307 1307 1307 1307 1307 1307 1307 1307 1307 1306 1306 1306 1306 1306 1305 1305 1304 1304 1304 1303 1302 1302 1300 1299 1299 1297 1297 1297 1296 1296 1295 1294 1293 1293 1293 1293 1293 1294 1294 1294 1294 1294 1295 1295 1296 1297 1298 1299 1299 1301 1301 1302 1302 1302 1302 1302 1303 1303 1303 1302 1302 1302 1302 1302 1302 1302 1302 1302 1302 1302 1302 1302 1302 1302 1302 1301 1301 1300 1299 1298 1298 1297 1295 1295 1293 1293 1293 1293 1292 1292 1291 1291 1291 1292 1293 1294 1295 1295 1295 1296 1297 1298 1299 1299 1300 1301 1302 1302 1303 1303 1303 1303 1303 1304 1304 1304 1304 1304 1304 1304 1303 1303 1303 1303 1303 1304 1304 1304 1305 1305 1308 1310 1314 1317 1324 1352 0 1445 1466 1470 1473 1476 1478 1478 1478 1478 1476 1472 1468 1459 1443 1411 1399 1384 1360 1348 1334 1323 1313 1302 1298 1292 1288 1283 1280 1275 1272 1271 1269 1265 1263 1261 1261 1259 1258 1257 1256 1255 1254 1254 1254 1253 1253 1253 1252 1252 1252 1252 1251 1251 1251 1250 1250 1250 1249 1249 1248 1247 1247 1245 1243 1241 1241 1240 1238 1237 1236 1236 1234 1233 1232 1230 1229 1229 1228 1226 1226 1225 1224 1223 1222 1221 1221 1220 1219 1218 1217 1216 1216 1215 1215 1214 1214 1214 1214 1215 1215 1216 1217 1220 1220 1221 1223 1226 1228 1235 1243 1261 0 0 0 1484 1504 1520 1529 1530 1530 1533 1532 1530 1530 1530 1530 1527 1527 1526 1526 1526 1526 1525 1523 1523 1521 1519 1517 1517 1515 1514 1512 1511 1508 1508 1506 1503 1500 1499 1498 1498 1499 1500 1507 1515 1528 1529 1547 1566 0 0 1648 1670 1672 1672 1680 1686 1686 1686 1681 1681 1681 1682 1687 1688 1688 1689 1688 1688 1689 1689 1689 1694 1694 1694 1699 1701 1702 1702 1702 1705 1708 1710 1710 1712 1712 1712 1711 1710 1708 1708 1708 1708 1708 1708 1708 1710 1713 1715 1715 1715 1713 1712 1711 1711 1711 1713 1715 1717 1717 1717 1716 1711 1708 0
2049 2052 2064 2073 2081 2096 2112 2133 2152 2154 2155 2158 2164 2181 2185 2198 2211 2221 2235 2250 2250 2250 2249 2248 2246 2246 2246 2248 2257 2267 2281 2282 2282 2282 2268 0 0 0 0 0 0 0 0 0 0 0 0 0 0 2827 3047 3148 3163 3163 3148 3143 3054 2968 2913 2882 2610 2609 0 0 0 0 1344 1339 1336 1333 1328 1322 1321 1321 1320 1321 1320 1320 1320 1321 1321 1321 1322 1322 1322 1323 1323 1323 1323 1323 1323 1323 1323 1323 1323 1322 1322 1322 1321 1321 1321 1321 1320 1320 1320 1320 1320 1320 1319 1319 1319 1319 1319 1319 1319 1319 1320 1320 1320 1320 1320 1319 1318 1317 1317 1316 1313 1311 1309 1309 1308 1306 1306 1306 1306 1305 1304 1304 1304 1304 1305 1305 1306 1308 1309 1310 1312 1312 1312 1313 1313 1314 1315 1316 1316 1317 1317 1317 1316 1316 1316 1316 1316 1316 1316 1316 1316 1316 1316 1315 1315 1315 1314 1314 1314 1314 1313 1313 1312 1312 1312 1312 1311 1310 1309 1308 1307 1306 1305 1304 1302 1301 1301 1301 1300 1301 1301 1302 1302 1303 1303 1304 1305 1306 1307 1308 1309 1310 1310 1310 1311 1311 1311 1311 1311 1311 1311 1311 1311 1311 1311 1311 1311 1311 1310 1310 1310 1310 1310 1310 1310 1310 1310 1310 1310 1310 1309 1309 1309 1308 1307 1307 1307 1306 1306 1306 1307 1307 1307 1308 1308 1308 1308 1308 1308 1309 1309 1310 1311 1311 1311 1310 1310 1310 1310 1309 1309 1309 1309 1308 1308 1308 1307 1307 1307 1307 1307 1307 1307 1307 1307 1307 1306 1306 1306 1306 1305 1305 1304 1304 1304 1303 1302 1302 1301 1300 1299 1299 1298 1298 1297 1296 1295 1294 1293 1293 1293 1293 1293 1294 1294 1294 1295 1295 1295 1295 1296 1298 1298 1299 1300 1301 1302 1302 1302 1303 1303 1303 1303 1303 1303 1303 1303 1303 1303 1303 1303 1303 1303 1303 1303 1303 1303 1303 1302 1302 1302 1302 1302 1301 1300 1299 1298 1297 1295 1295 1294 1294 1294 1294 1293 1293 1293 1293 1293 1293 1294 1295 1295 1295 1295 1296 1297 1298 1299 1299 1300 1301 1302 1303 1303 1303 1303 1304 1304 1304 1304 1304 1304 1304 1304 1304 1304 1304 1304 1304 1304 1304 1304 1305 1305 1307 1309 1311 1314 1317 1324 1349 0 1445 1462 1468 1470 1474 1476 1478 1478 1478 1475 1472 1466 1450 1414 1400 1384 1349 1339 1331 1320 1310 1302 1297 1291 1287 1285 1282 1278 1274 1271 1269 1267 1265 1263 1261 1261 1259 1258 1257 1257 1256 1255 1255 1254 1254 1253 1253 1252 1252 1251 1251 1251 1251 1250 1249 1249 1249 1248 1247 1246 1246 1245 1243 1242 1240 1239 1238 1237 1235 1235 1233 1233 1231 1231 1229 1228 1228 1226 1226 1226 1224 1223 1223 1221 1221 1221 1220 1219 1218 1217 1216 1216 1215 1215 1214 1214 1214 1214 1214 1215 1216 1217 1219 1220 1220 1223 1227 1230 1234 1241 1255 0 0 0 0 1481 1509 1519 1520 1523 1523 1522 1522 1522 1519 1518 1518 1518 1518 1517 1518 1517 1517 1517 1517 1515 1514 1513 1513 1512 1512 1509 1506 1505 1505 1504 1502 1498 1497 1497 1497 1497 1498 1503 1505 1506 1507 1517 1536 1555 1563 1594 1642 1657 1661 1667 1674 1676 1676 1674 1673 1673 1673 1674 1676 1676 1677 1678 1678 1678 1679 1683 1684 1684 1685 1687 1694 1694 1694 1694 1694 1700 1702 1705 1707 1708 1708 1708 1707 1706 1704 1704 1704 1704 1704 1704 1704 1707 1709 1709 1709 1708 1707 1707 1706 1706 1707 1710 1714 1714 1714 1714 1711 1708 0
2035 2052 2064 2073 2081 2096 2115 2134 2154 2159 2161 2169 2175 2181 2185 2198 2211 2221 2234 2247 2247 2247 2247 2246 2246 2246 2246 2248 2257 2267 2281 2281 2281 2280 2266 0 0 0 0 0 0 0 0 0 0 0 0 0 2501 2920 3062 3163 3166 3166 3163 3143 3076 3023 2927 2907 2846 2842 2641 0 0 0 0 1340 1339 1335 1331 1325 1322 1322 1321 1321 1320 1320 1321 1321 1321 1322 1322 1322 1323 1323 1323 1323 1323 1323 1323 1323 1323 1323 1323 1322 1322 1322 1321 1321 1321 1321 1320 1320 1320 1320 1319 1319 1319 1319 1319 1319 1319 1319 1319 1319 1319 1320 1320 1319 1319 1319 1318 1317 1317 1316 1314 1312 1310 1309 1308 1308 1308 1307 1307 1306 1304 1304 1304 1306 1306 1307 1308 1309 1310 1311 1312 1313 1313 1314 1314 1315 1315 1316 1317 1317 1317 1317 1316 1316 1316 1316 1316 1316 1316 1316 1316 1316 1316 1315 1315 1315 1314 1314 1314 1314 1314 1313 1312 1312 1312 1312 1311 1311 1309 1309 1308 1306 1305 1304 1302 1301 1301 1301 1301 1301 1302 1302 1302 1303 1304 1304 1305 1306 1308 1308 1309 1311 1311 1311 1311 1311 1311 1311 1311 1311 1311 1311 1311 1311 1311 1311 1311 1311 1311 1310 1310 1310 1310 1310 1310 1310 1310 1310 1310 1311 1311 1311 1310 1309 1309 1308 1308 1308 1308 1308 1307 1307 1307 1308 1308 1308 1308 1308 1309 1309 1310 1310 1311 1311 1311 1310 1310 1310 1310 1309 1309 1309 1309 1309 1308 1308 1308 1308 1308 1308 1308 1308 1308 1308 1307 1307 1306 1306 1306 1306 1305 1305 1305 1304 1304 1304 1302 1302 1302 1302 1301 1301 1299 1298 1297 1297 1295 1295 1294 1294 1294 1294 1294 1294 1294 1295 1295 1296 1296 1296 1297 1298 1298 1299 1300 1301 1302 1302 1303 1303 1303 1303 1303 1303 1303 1303 1303 1303 1303 1303 1303 1303 1303 1303 1303 1303 1303 1303 1303 1303 1303 1302 1302 1301 1300 1299 1298 1297 1296 1295 1295 1295 1295 1295 1294 1294 1293 1293 1294 1294 1295 1295 1296 1296 1297 1297 1298 1298 1299 1299 1300 1301 1302 1303 1303 1304 1304 1304 1304 1304 1304 1304 1304 1304 1304 1304 1304 1304 1304 1304 1304 1304 1304 1305 1305 1307 1309 1311 1314 1317 1324 1349 0 1445 1456 1463 1467 1472 1473 1473 1473 1472 1471 1465 1448 1415 1403 1385 1347 1335 1331 1320 1308 1302 1298 1292 1288 1285 1283 1280 1277 1273 1270 1269 1266 1264 1262 1261 1260 1259 1258 1257 1257 1256 1256 1255 1254 1254 1253 1253 1252 1252 1251 1251 1250 1250 1250 1249 1248 1247 1246 1246 1244 1244 1243 1242 1240 1238 1237 1236 1235 1234 1233 1232 1231 1230 1229 1228 1227 1226 1226 1226 1225 1224 1223 1223 1221 1221 1220 1219 1219 1218 1217 1216 1215 1215 1215 1214 1214 1214 1214 1214 1215 1216 1216 1217 1220 1220 1223 1227 1230 1233 1240 1253 1271 0 0 0 1461 1498 1509 1509 1510 1510 1510 1510 1510 1508 1508 1508 1508 1509 1509 1509 1510 1510 1510 1510 1509 1509 1509 1508 1508 1507 1506 1503 1501 1500 1500 1499 1497 1497 1496 1496 1496 1495 1495 1494 1494 1494 1497 1510 1531 1547 1567 1595 1633 1651 1658 1660 1670 1670 1671 1671 1671 1669 1669 1667 1667 1667 1668 1668 1668 1668 1668 1674 1674 1675 1677 1683 1684 1687 1691 1692 1693 1693 1695 1701 1704 1705 1705 1704 1704 1702 1701 1701 1699 1699 1699 1699 1699 1701 1703 1703 1703 1702 1701 1701 1701 1701 1703 1708 1709 1711 1711 1711 1708 0
2031 2052 2064 2073 2081 2096 2115 2140 2155 2160 2169 2178 2182 2190 2203 2208 2213 2221 2234 2246 2246 2246 2246 2245 2244 2244 2244 2244 2247 2262 2281 2281 2281 2277 0 0 0 0 0 0 0 0 0 0 0 0 0 0 2705 2920 3103 3173 3187 3187 3187 3157 3109 3065 2950 2927 2915 2914 2892 2691 0 0 0 0 0 1336 1332 1327 1323 1322 1322 1321 1321 1321 1321 1321 1322 1322 1322 1323 1323 1323 1324 1324 1324 1324 1324 1324 1323 1323 1323 1322 1322 1322 1321 1321 1321 1320 1320 1319 1319 1319 1319 1319 1319 1319 1319 1319 1319 1319 1319 1319 1319 1319 1319 1319 1319 1319 1318 1318 1317 1316 1316 1313 1312 1310 1310 1310 1310 1309 1309 1308 1307 1306 1306 1306 1307 1308 1310 1310 1311 1312 1313 1314 1314 1314 1315 1315 1316 1317 1317 1317 1317 1317 1316 1316 1316 1316 1316 1316 1316 1316 1316 1316 1316 1315 1315 1315 1315 1314 1314 1314 1314 1313 1313 1313 1312 1312 1312 1311 1309 1309 1308 1306 1305 1304 1302 1302 1302 1302 1302 1302 1302 1303 1303 1304 1305 1305 1306 1308 1309 1310 1310 1311 1311 1311 1312 1312 1312 1312 1311 1311 1311 1311 1311 1311 1311 1311 1311 1311 1311 1310 1310 1310 1310 1310 1310 1310 1310 1310 1311 1311 1311 1311 1310 1309 1309 1308 1308 1308 1308 1308 1308 1308 1308 1308 1309 1309 1309 1309 1309 1309 1310 1310 1311 1311 1311 1311 1310 1310 1310 1309 1309 1309 1309 1309 1308 1308 1308 1308 1308 1308 1308 1308 1308 1308 1307 1307 1307 1307 1306 1306 1306 1305 1305 1305 1305 1304 1304 1303 1303 1302 1301 1301 1301 1300 1298 1297 1297 1296 1295 1295 1295 1295 1295 1295 1296 1296 1296 1296 1296 1296 1297 1299 1299 1299 1300 1301 1302 1303 1303 1303 1303 1303 1303 1303 1303 1303 1303 1303 1303 1303 1303 1303 1303 1303 1304 1304 1304 1304 1304 1304 1303 1303 1302 1301 1300 1300 1298 1297 1297 1296 1295 1295 1295 1295 1295 1295 1295 1295 1295 1296 1296 1296 1297 1298 1298 1299 1299 1299 1299 1300 1301 1302 1302 1303 1303 1304 1304 1304 1305 1305 1305 1305 1305 1305 1304 1304 1304 1304 1304 1304 1304 1304 1304 1305 1305 1307 1309 1311 1314 1318 1325 1349 1399 1426 1446 1460 1467 1468 1469 1469 1469 1467 1459 1432 1413 1399 1371 1353 1335 1328 1319 1309 1304 1299 1295 1289 1285 1283 1282 1279 1275 1272 1269 1268 1265 1264 1262 1261 1260 1259 1259 1258 1257 1256 1256 1255 1254 1254 1253 1253 1252 1251 1251 1250 1250 1250 1249 1248 1247 1246 1245 1244 1243 1242 1241 1240 1238 1237 1236 1235 1234 1233 1231 1231 1230 1229 1228 1228 1227 1226 1226 1225 1224 1223 1223 1222 1221 1221 1220 1219 1219 1218 1217 1216 1215 1214 1214 1214 1214 1213 1213 1213 1214 1215 1216 1216 1218 1220 1222 1227 1230 1231 1239 1248 1260 0 0 0 1438 1469 1498 1498 1498 1495 1495 1495 1498 1498 1499 1499 1500 1502 1503 1503 1503 1503 1504 1504 1504 1503 1503 1502 1502 1502 1501 1499 1497 1497 1497 1497 1495 1495 1494 1494 1494 1493 1492 1491 1487 1487 1487 1494 1509 1522 1538 1570 1606 1633 1638 1647 1657 1668 1668 1668 1668 1668 1667 1665 1661 1660 1660 1660 1660 1660 1660 1660 1665 1667 1668 1668 1677 1683 1686 1686 1686 1687 1688 1692 1697 1699 1699 1699 1699 1698 1697 1697 1695 1694 1694 1694 1694 1694 1699 1699 1699 1699 1697 1697 1697 1697 1699 1700 1703 1704 1708 1712 1712 0
2030 2055 2080 2094 2105 2107 2116 2140 2158 2163 2169 2178 2182 2190 2203 2208 2213 2221 2228 2243 2243 2243 2242 2241 2238 2237 2237 2237 2237 2254 2264 2264 2264 2253 0 0 0 0 0 0 0 0 0 0 0 0 0 0 2835 3021 3106 3193 3193 3193 3193 3169 3143 3101 3016 2927 2919 2918 2906 2781 2644 0 0 0 0 1346 1334 1330 1324 1322 1322 1322 1321 1321 1321 1322 1322 1322 1322 1323 1324 1324 1324 1324 1324 1324 1324 1324 1324 1323 1323 1323 1322 1322 1321 1321 1320 1320 1319 1319 1319 1319 1319 1318 1318 1318 1318 1318 1318 1318 1318 1318 1318 1318 1318 1318 1318 1318 1318 1318 1317 1316 1316 1316 1314 1313 1313 1312 1312 1312 1312 1310 1309 1308 1308 1308 1309 1310 1310 1310 1311 1313 1314 1314 1314 1315 1316 1316 1316 1317 1317 1317 1317 1317 1316 1316 1316 1316 1316 1316 1316 1316 1316 1316 1316 1315 1315 1315 1315 1314 1314 1314 1314 1314 1313 1313 1313 1312 1312 1311 1309 1309 1308 1307 1306 1304 1303 1303 1303 1303 1303 1303 1303 1303 1303 1304 1305 1306 1308 1308 1310 1311 1311 1312 1312 1312 1312 1312 1312 1312 1311 1311 1311 1311 1311 1311 1311 1311 1311 1311 1311 1310 1310 1310 1310 1310 1310 1310 1310 1310 1311 1311 1311 1311 1310 1310 1309 1309 1309 1309 1309 1309 1308 1308 1309 1309 1309 1310 1310 1310 1310 1310 1310 1310 1311 1311 1311 1311 1310 1310 1310 1309 1309 1309 1309 1309 1308 1308 1308 1308 1308 1308 1308 1308 1308 1308 1307 1307 1307 1307 1307 1306 1306 1306 1306 1306 1305 1305 1304 1303 1303 1303 1302 1301 1301 1300 1299 1298 1298 1297 1297 1296 1296 1296 1296 1296 1296 1296 1297 1297 1298 1298 1298 1299 1299 1299 1301 1302 1303 1303 1303 1303 1303 1303 1304 1304 1304 1304 1304 1304 1303 1304 1304 1304 1304 1304 1304 1304 1304 1304 1304 1304 1303 1303 1303 1302 1301 1300 1298 1298 1297 1297 1296 1296 1295 1295 1295 1295 1295 1295 1296 1297 1298 1298 1298 1299 1299 1300 1300 1300 1300 1301 1302 1302 1303 1303 1304 1305 1305 1305 1305 1305 1305 1305 1305 1305 1305 1305 1304 1304 1304 1304 1304 1304 1305 1305 1305 1307 1308 1311 1315 1318 1325 1348 1370 1425 1445 1458 1463 1463 1463 1462 1456 1449 1411 1404 1387 1363 1348 1333 1325 1318 1309 1303 1300 1297 1291 1287 1282 1280 1279 1277 1274 1272 1269 1268 1265 1264 1262 1261 1261 1259 1259 1258 1257 1257 1256 1255 1255 1254 1253 1252 1252 1251 1250 1250 1249 1248 1248 1247 1245 1244 1244 1243 1241 1241 1239 1237 1236 1235 1235 1234 1233 1231 1231 1230 1230 1228 1228 1227 1226 1226 1225 1224 1224 1223 1223 1222 1221 1221 1220 1219 1219 1218 1217 1216 1215 1214 1214 1214 1213 1213 1213 1213 1214 1214 1215 1215 1217 1219 1221 1225 1226 1226 1231 1237 1250 0 0 0 1425 1448 1482 1483 1483 1483 1483 1483 1485 1487 1488 1491 1493 1494 1494 1495 1495 1495 1496 1497 1497 1497 1497 1497 1497 1497 1497 1495 1495 1494 1493 1493 1492 1490 1490 1490 1490 1490 1489 1486 1485 1485 1485 1485 1492 1504 1516 1540 1579 1598 1618 1631 1636 1647 1656 1658 1659 1659 1659 1659 1659 1658 1657 1656 1654 1654 1654 1655 1657 1660 1660 1660 1666 1674 1676 1677 1678 1679 1682 1688 1690 1692 1692 1692 1692 1691 1690 1690 1690 1689 1689 1687 1687 1687 1692 1692 1692 1693 1693 1693 1693 1694 1696 1697 1697 1701 1706 1713 1718 0
2030 2057 2095 2115 2122 2127 2131 2144 2160 2165 2169 2178 2182 2190 2203 2208 2211 2212 2213 2218 2230 2233 2233 2233 2233 2224 2224 2224 2230 2243 2243 2243 2230 2220 0 0 0 0 0 0 0 0 0 0 0 0 0 0 2835 3052 3168 3193 3193 3193 3193 3172 3169 3142 3089 3020 2977 2928 2921 2895 2783 2594 0 0 0 0 1337 1331 1324 1322 1322 1322 1322 1322 1322 1322 1322 1323 1323 1324 1324 1324 1324 1325 1325 1325 1325 1324 1324 1324 1323 1323 1322 1322 1321 1320 1320 1319 1318 1318 1317 1317 1317 1317 1317 1317 1317 1317 1317 1317 1318 1318 1318 1318 1318 1318 1318 1318 1318 1318 1318 1317 1316 1316 1315 1315 1313 1313 1313 1313 1312 1311 1310 1310 1310 1310 1310 1310 1311 1311 1312 1313 1315 1315 1315 1316 1316 1317 1317 1317 1317 1317 1317 1317 1316 1316 1316 1316 1316 1316 1316 1316 1316 1316 1316 1315 1315 1315 1315 1315 1315 1314 1314 1314 1313 1313 1313 1312 1312 1311 1310 1309 1309 1308 1306 1304 1304 1304 1304 1304 1304 1303 1303 1304 1304 1304 1305 1307 1308 1309 1311 1311 1312 1312 1312 1313 1313 1313 1313 1312 1312 1312 1312 1312 1312 1311 1311 1311 1311 1311 1311 1310 1310 1310 1310 1311 1311 1311 1311 1311 1311 1311 1311 1311 1311 1311 1310 1310 1309 1309 1309 1309 1309 1309 1309 1310 1310 1310 1310 1310 1310 1310 1310 1310 1311 1311 1311 1311 1310 1310 1310 1309 1309 1309 1309 1309 1309 1308 1308 1308 1308 1308 1308 1308 1308 1308 1308 1307 1307 1307 1307 1307 1306 1306 1306 1306 1306 1306 1305 1305 1304 1303 1303 1302 1302 1301 1300 1300 1299 1298 1297 1297 1297 1297 1297 1297 1297 1297 1297 1299 1299 1300 1300 1300 1301 1301 1301 1302 1303 1303 1303 1303 1304 1304 1304 1304 1304 1304 1304 1304 1304 1304 1304 1304 1304 1304 1304 1304 1304 1304 1304 1304 1304 1304 1303 1302 1301 1301 1299 1298 1297 1297 1297 1297 1296 1296 1296 1296 1296 1296 1298 1299 1299 1300 1301 1301 1301 1301 1301 1301 1301 1302 1303 1303 1303 1304 1305 1305 1305 1305 1306 1306 1306 1306 1306 1305 1305 1305 1305 1304 1304 1304 1304 1304 1305 1305 1305 1306 1308 1311 1314 1318 1325 1343 1356 1393 1442 1456 1459 1459 1459 1447 1424 1410 1393 1383 1364 1344 1327 1323 1316 1310 1304 1299 1295 1293 1288 1284 1281 1279 1277 1276 1273 1271 1269 1267 1265 1264 1263 1261 1261 1260 1259 1259 1258 1257 1256 1255 1255 1254 1253 1252 1251 1250 1249 1249 1248 1248 1247 1246 1244 1243 1241 1241 1239 1238 1237 1236 1235 1234 1234 1233 1232 1231 1230 1230 1228 1227 1227 1226 1226 1225 1225 1224 1224 1223 1222 1222 1221 1221 1220 1219 1218 1217 1216 1215 1215 1214 1214 1213 1213 1213 1213 1213 1214 1214 1214 1215 1217 1218 1219 1222 1223 1223 1229 1234 1242 0 0 1362 1402 1431 1463 1474 1474 1474 1473 1473 1473 1476 1476 1477 1480 1482 1484 1485 1486 1487 1489 1490 1490 1490 1490 1490 1491 1491 1491 1491 1491 1490 1489 1488 1487 1487 1487 1487 1486 1486 1486 1484 1484 1483 1483 1484 1484 1495 1508 1520 1544 1573 1583 1612 1623 1625 1641 1646 1646 1647 1650 1652 1656 1656 1656 1655 1654 1652 1652 1652 1652 1652 1652 1653 1658 1662 1669 1669 1670 1674 1681 1682 1686 1686 1686 1688 1688 1686 1685 1683 1683 1682 1682 1682 1682 1682 1685 1685 1685 1686 1686 1686 1689 1690 1696 1696 1696 1699 1705 1713 1729 1729
2030 2066 2095 2115 2122 2127 2137 2144 2160 2165 2169 2169 2174 2179 2185 2185 2185 2186 2186 2186 2202 2215 2215 2215 2213 2208 2208 2208 2214 2232 2232 2232 2228 2200 0 0 0 0 0 0 0 0 0 0 0 0 0 2574 2837 3143 3168 3218 3218 3218 3217 3202 3200 3178 3131 3063 2992 2928 2921 2913 2852 2721 0 0 0 0 1337 1331 1324 1322 1321 1321 1322 1322 1322 1323 1323 1323 1324 1324 1324 1325 1325 1325 1325 1325 1325 1325 1324 1324 1323 1323 1322 1322 1321 1318 1317 1317 1317 1317 1317 1316 1316 1315 1313 1313 1313 1315 1316 1316 1316 1315 1315 1315 1315 1316 1317 1317 1318 1318 1318 1318 1317 1316 1316 1315 1314 1313 1313 1313 1312 1312 1312 1312 1312 1312 1312 1312 1313 1313 1313 1315 1316 1317 1317 1317 1317 1317 1317 1317 1317 1317 1317 1316 1316 1316 1316 1316 1316 1316 1316 1316 1316 1316 1316 1315 1315 1315 1315 1315 1314 1314 1314 1314 1314 1313 1313 1313 1312 1311 1310 1310 1309 1308 1308 1307 1307 1307 1306 1306 1306 1304 1304 1304 1304 1305 1307 1308 1310 1310 1311 1312 1312 1312 1313 1313 1313 1313 1313 1313 1312 1312 1312 1312 1312 1311 1311 1311 1311 1311 1311 1311 1311 1311 1311 1311 1311 1311 1311 1311 1311 1311 1311 1311 1311 1311 1310 1310 1310 1310 1310 1310 1310 1310 1310 1310 1311 1311 1311 1311 1311 1311 1311 1311 1311 1311 1311 1311 1310 1310 1310 1310 1310 1309 1309 1309 1309 1308 1308 1308 1308 1308 1308 1308 1308 1308 1308 1308 1308 1307 1307 1307 1307 1306 1306 1306 1306 1306 1306 1305 1305 1304 1304 1303 1303 1302 1302 1301 1301 1299 1298 1298 1298 1298 1298 1298 1298 1298 1299 1299 1300 1301 1301 1301 1301 1302 1302 1303 1303 1303 1303 1303 1304 1304 1304 1304 1304 1304 1304 1304 1304 1304 1304 1304 1304 1304 1305 1305 1305 1305 1305 1305 1304 1304 1303 1302 1302 1301 1299 1299 1298 1298 1298 1298 1298 1298 1298 1298 1298 1298 1299 1300 1300 1301 1301 1302 1302 1302 1302 1302 1303 1303 1303 1304 1304 1304 1305 1305 1306 1306 1306 1306 1306 1306 1306 1306 1305 1305 1305 1304 1304 1304 1304 1304 1304 1305 1305 1306 1308 1311 1314 1318 1323 1334 1353 1387 1432 1451 1451 1451 1428 1414 1408 1397 1380 1360 1347 1335 1326 1319 1313 1305 1298 1293 1291 1289 1286 1282 1280 1278 1277 1275 1273 1271 1269 1267 1266 1264 1264 1262 1261 1260 1260 1259 1258 1257 1257 1255 1255 1254 1252 1251 1250 1249 1248 1248 1246 1246 1245 1243 1242 1241 1240 1239 1238 1238 1236 1235 1234 1233 1233 1232 1232 1230 1229 1228 1228 1227 1227 1226 1226 1225 1225 1224 1224 1223 1222 1222 1221 1221 1220 1219 1218 1217 1216 1215 1214 1214 1213 1213 1212 1212 1212 1212 1212 1212 1213 1213 1215 1216 1218 1219 1220 1222 1227 1233 1239 1260 0 1353 1385 1413 1425 1453 1461 1462 1464 1464 1465 1466 1466 1467 1467 1470 1473 1476 1478 1481 1481 1482 1482 1482 1483 1483 1485 1485 1486 1486 1486 1486 1485 1483 1483 1483 1483 1483 1484 1484 1484 1484 1483 1482 1482 1482 1484 1489 1496 1502 1520 1550 1568 1577 1605 1609 1623 1630 1634 1639 1640 1641 1642 1646 1648 1648 1648 1646 1645 1645 1645 1648 1648 1649 1652 1656 1659 1662 1665 1666 1669 1677 1678 1678 1680 1680 1679 1679 1679 1676 1676 1676 1676 1677 1679 1680 1680 1680 1680 1680 1680 1682 1686 1689 1690 1690 1692 1692 1697 1713 1729 1729
2040 2066 2095 2115 2122 2127 2137 2144 2158 2158 2158 2154 2154 2154 2156 2156 2156 2156 2156 2163 2181 2196 2201 2201 2201 2196 2196 2196 2211 2230 2230 2230 2228 0 0 0 0 0 0 0 0 0 0 0 0 0 0 2656 2966 3143 3195 3235 3235 3235 3231 3230 3226 3215 3192 3126 3044 3001 2995 2916 2876 2748 0 0 0 0 1344 1332 1324 1321 1321 1321 1322 1323 1323 1323 1323 1323 1324 1324 1324 1325 1325 1325 1325 1325 1325 1325 1324 1324 1323 1322 1322 1322 1320 1317 1317 1316 1316 1315 1315 1315 1314 1312 1312 1312 1312 1312 1312 1313 1313 1313 1313 1313 1314 1314 1315 1316 1317 1318 1318 1318 1318 1317 1317 1316 1316 1315 1315 1314 1313 1313 1313 1313 1313 1313 1314 1314 1314 1314 1315 1316 1317 1317 1317 1318 1318 1318 1318 1318 1318 1317 1317 1315 1315 1315 1316 1316 1316 1316 1316 1316 1316 1316 1315 1315 1315 1315 1315 1315 1314 1314 1314 1314 1313 1313 1313 1313 1312 1312 1311 1311 1309 1309 1309 1309 1309 1308 1308 1308 1307 1307 1307 1307 1308 1309 1310 1310 1310 1311 1311 1312 1313 1313 1313 1313 1313 1313 1313 1313 1313 1313 1313 1312 1312 1312 1311 1311 1311 1311 1311 1311 1311 1311 1311 1311 1311 1311 1311 1311 1311 1311 1312 1312 1311 1311 1311 1311 1311 1311 1311 1311 1311 1311 1311 1311 1311 1311 1311 1311 1311 1311 1311 1311 1311 1311 1311 1311 1310 1310 1310 1310 1310 1310 1310 1309 1309 1308 1308 1308 1308 1308 1308 1309 1309 1309 1308 1308 1308 1308 1308 1307 1307 1307 1307 1307 1307 1307 1306 1306 1306 1305 1304 1304 1304 1303 1303 1302 1302 1300 1300 1299 1299 1299 1299 1299 1299 1299 1300 1301 1302 1302 1303 1303 1302 1303 1303 1303 1303 1304 1304 1304 1304 1304 1304 1304 1304 1304 1304 1304 1304 1304 1305 1305 1305 1305 1305 1305 1305 1305 1305 1305 1305 1304 1304 1303 1303 1302 1299 1299 1299 1299 1299 1299 1299 1299 1299 1300 1300 1300 1300 1301 1301 1302 1302 1303 1303 1303 1303 1304 1304 1304 1304 1305 1305 1305 1305 1306 1306 1306 1306 1306 1306 1306 1306 1306 1306 1305 1305 1304 1304 1304 1304 1304 1305 1305 1305 1306 1309 1312 1314 1316 1318 1330 1352 1384 1418 1418 1418 1405 1400 1391 1381 1371 1364 1351 1342 1333 1322 1314 1306 1299 1295 1292 1289 1286 1284 1281 1279 1277 1276 1274 1273 1271 1269 1268 1266 1265 1264 1263 1262 1261 1260 1259 1258 1257 1257 1255 1254 1253 1252 1250 1250 1248 1247 1246 1246 1244 1243 1242 1241 1239 1238 1237 1236 1236 1235 1234 1234 1233 1232 1231 1231 1230 1229 1228 1228 1227 1227 1226 1226 1225 1224 1224 1224 1223 1222 1222 1221 1221 1220 1219 1218 1217 1215 1215 1214 1214 1212 1212 1211 1211 1211 1211 1212 1212 1213 1213 1215 1216 1218 1218 1220 1221 1224 1231 1236 1260 1302 1347 1370 1395 1402 1439 1443 1449 1450 1450 1452 1452 1454 1455 1455 1459 1463 1468 1471 1475 1476 1476 1476 1476 1476 1478 1478 1480 1480 1481 1482 1482 1482 1481 1480 1480 1480 1481 1481 1482 1482 1482 1482 1481 1481 1481 1483 1485 1492 1493 1497 1524 1557 1572 1578 1594 1605 1616 1625 1627 1633 1636 1637 1641 1642 1642 1642 1642 1641 1641 1641 1644 1644 1646 1648 1650 1653 1656 1658 1659 1661 1664 1672 1672 1672 1673 1673 1672 1672 1669 1668 1668 1668 1672 1676 1677 1677 1677 1677 1677 1678 1680 1685 1688 1688 1688 1689 1689 1690 1707 1729 1729
2040 2066 2086 2107 2116 2123 2137 2137 2138 2139 2139 2138 2137 2134 2134 2134 2134 2138 2138 2150 2167 2181 2196 2196 2196 2196 2196 2196 2209 2230 2230 2230 2222 0 0 0 0 0 0 0 0 0 0 0 0 0 0 2873 2992 3154 3201 3235 3235 3245 3246 3246 3246 3238 3221 3182 3116 3054 3050 2972 2888 2754 0 0 0 0 1347 1332 1324 1322 1322 1322 1322 1323 1323 1323 1323 1323 1324 1324 1324 1325 1325 1325 1325 1325 1325 1325 1324 1324 1323 1322 1322 1321 1319 1316 1315 1315 1315 1314 1313 1312 1312 1312 1311 1311 1311 1311 1311 1311 1311 1311 1312 1312 1312 1314 1315 1316 1317 1317 1318 1318 1318 1317 1317 1317 1316 1316 1315 1315 1315 1315 1314 1314 1314 1315 1315 1315 1316 1316 1316 1316 1317 1317 1317 1318 1318 1318 1318 1318 1317 1316 1316 1315 1315 1315 1315 1315 1316 1316 1316 1316 1316 1316 1315 1315 1315 1315 1315 1314 1314 1314 1314 1314 1313 1313 1313 1313 1312 1312 1312 1311 1310 1310 1310 1310 1309 1309 1309 1309 1309 1309 1309 1309 1309 1310 1310 1310 1311 1312 1312 1313 1313 1313 1313 1314 1314 1314 1314 1314 1313 1313 1313 1312 1312 1312 1311 1311 1311 1311 1311 1311 1311 1311 1311 1311 1311 1311 1311 1311 1311 1312 1312 1312 1312 1312 1311 1311 1311 1311 1311 1312 1312 1312 1312 1312 1312 1312 1312 1312 1312 1312 1311 1311 1311 1311 1311 1311 1310 1310 1310 1310 1310 1310 1310 1309 1309 1309 1309 1309 1309 1309 1309 1309 1309 1309 1308 1308 1308 1308 1308 1307 1307 1307 1307 1307 1307 1307 1307 1307 1306 1306 1306 1305 1305 1305 1303 1303 1302 1302 1301 1301 1301 1301 1300 1301 1301 1301 1301 1302 1303 1303 1304 1304 1304 1303 1303 1303 1304 1304 1304 1304 1304 1304 1304 1304 1304 1304 1304 1304 1304 1304 1305 1305 1305 1305 1305 1305 1305 1305 1305 1305 1305 1305 1305 1304 1304 1303 1302 1301 1300 1300 1300 1300 1300 1300 1300 1300 1300 1301 1301 1302 1302 1303 1304 1304 1304 1304 1304 1305 1305 1305 1305 1306 1306 1306 1306 1307 1307 1307 1307 1307 1307 1307 1307 1306 1306 1305 1305 1304 1304 1304 1304 1304 1304 1305 1306 1308 1310 1312 1313 1315 1318 1325 1349 1380 1397 1397 1397 1391 1383 1372 1365 1363 1355 1343 1332 1323 1314 1307 1302 1299 1295 1291 1288 1286 1283 1280 1278 1277 1275 1274 1273 1271 1269 1268 1266 1265 1265 1263 1262 1261 1260 1259 1258 1257 1257 1255 1254 1252 1250 1250 1248 1247 1247 1245 1244 1242 1242 1240 1239 1238 1237 1236 1236 1235 1234 1234 1232 1232 1231 1231 1230 1230 1229 1228 1227 1227 1227 1226 1226 1225 1225 1224 1224 1223 1222 1222 1221 1221 1220 1219 1218 1216 1215 1214 1214 1213 1212 1211 1211 1211 1211 1211 1211 1211 1211 1213 1214 1216 1217 1217 1218 1221 1223 1224 1233 1255 1290 1324 1347 1371 1396 1432 1432 1432 1435 1435 1441 1441 1442 1444 1446 1448 1451 1455 1459 1466 1470 1470 1470 1470 1470 1472 1474 1475 1475 1476 1477 1478 1478 1478 1477 1477 1477 1479 1479 1479 1479 1479 1478 1478 1478 1478 1479 1480 1484 1487 1489 1506 1537 1560 1572 1579 1600 1611 1617 1620 1622 1624 1632 1633 1636 1637 1637 1637 1638 1638 1638 1638 1639 1642 1645 1646 1647 1650 1653 1653 1653 1656 1657 1662 1663 1663 1663 1663 1663 1662 1662 1660 1660 1660 1668 1671 1671 1672 1672 1672 1673 1678 1683 1686 1686 1686 1686 1686 1689 1699 1712 1712
2040 2050 2066 2067 2077 2088 2099 2101 2106 2123 2133 2137 2137 2134 2134 2134 2134 2138 2138 2149 2162 2180 2195 2195 2195 2196 2196 2196 2205 2226 2226 2226 0 0 0 0 0 0 0 0 0 0 0 0 0 0 2637 2876 3088 3154 3234 3235 3237 3253 3257 3257 3257 3257 3241 3210 3149 3067 3063 3015 2888 2755 0 0 0 0 1348 1334 1327 1323 1323 1323 1323 1323 1323 1323 1323 1323 1323 1324 1324 1325 1325 1326 1326 1326 1325 1325 1324 1324 1322 1321 1321 1321 1319 1315 1314 1314 1313 1313 1312 1311 1311 1311 1310 1310 1310 1310 1310 1310 1310 1310 1311 1311 1312 1313 1315 1316 1316 1317 1318 1318 1318 1318 1317 1317 1317 1316 1316 1316 1316 1315 1315 1315 1315 1315 1316 1316 1316 1316 1316 1318 1318 1318 1318 1318 1318 1319 1319 1318 1317 1316 1315 1315 1315 1315 1315 1315 1316 1316 1316 1316 1316 1316 1315 1315 1315 1315 1314 1314 1314 1314 1314 1314 1313 1313 1313 1313 1312 1312 1312 1312 1312 1312 1311 1311 1311 1311 1311 1311 1311 1311 1310 1310 1310 1310 1310 1312 1312 1313 1313 1314 1314 1314 1314 1314 1314 1314 1315 1315 1315 1313 1313 1312 1312 1312 1311 1311 1311 1311 1311 1311 1311 1311 1311 1311 1311 1311 1311 1311 1311 1312 1312 1312 1312 1312 1312 1312 1312 1312 1312 1312 1312 1312 1312 1312 1312 1312 1312 1312 1312 1312 1312 1311 1311 1311 1311 1311 1311 1310 1310 1310 1310 1310 1310 1310 1309 1309 1309 1309 1309 1309 1308 1308 1309 1309 1309 1309 1308 1308 1308 1308 1308 1308 1308 1308 1308 1308 1308 1308 1308 1307 1307 1306 1306 1305 1304 1304 1303 1303 1302 1301 1301 1301 1301 1301 1301 1301 1302 1303 1303 1304 1304 1304 1304 1304 1304 1305 1305 1305 1304 1304 1304 1304 1304 1304 1304 1304 1304 1304 1304 1304 1305 1305 1305 1305 1305 1305 1305 1305 1305 1305 1305 1305 1305 1305 1305 1305 1302 1301 1301 1300 1300 1300 1300 1301 1301 1301 1301 1302 1302 1303 1304 1304 1304 1305 1305 1305 1305 1305 1305 1306 1307 1307 1307 1307 1307 1307 1307 1307 1307 1307 1307 1307 1307 1306 1306 1305 1305 1305 1304 1304 1304 1304 1304 1305 1306 1309 1310 1312 1313 1315 1318 1325 1343 1369 1383 1383 1383 1380 1371 1364 1360 1356 1346 1335 1324 1315 1309 1306 1301 1299 1294 1291 1288 1286 1283 1280 1278 1277 1275 1274 1273 1271 1269 1268 1267 1266 1265 1264 1262 1261 1261 1259 1258 1257 1256 1255 1253 1251 1250 1249 1248 1247 1245 1244 1243 1242 1241 1239 1239 1238 1237 1236 1235 1235 1234 1233 1232 1232 1231 1231 1230 1230 1229 1228 1228 1227 1227 1226 1226 1226 1225 1224 1224 1224 1223 1222 1221 1221 1220 1219 1218 1216 1215 1214 1213 1213 1212 1211 1210 1210 1210 1210 1210 1211 1211 1213 1214 1215 1215 1215 1218 1221 1223 1224 1233 1251 1278 1309 1336 1359 1388 1413 1421 1425 1425 1425 1432 1432 1433 1434 1437 1440 1443 1448 1452 1458 1462 1462 1463 1465 1466 1467 1468 1468 1470 1471 1473 1475 1475 1475 1475 1475 1475 1475 1477 1477 1477 1476 1476 1476 1476 1476 1476 1477 1480 1482 1486 1493 1504 1532 1551 1556 1585 1605 1615 1616 1616 1616 1616 1624 1624 1628 1629 1631 1631 1631 1632 1632 1632 1636 1640 1640 1641 1641 1646 1647 1647 1649 1649 1658 1658 1658 1657 1657 1657 1657 1657 1655 1655 1655 1659 1666 1666 1666 1666 1666 1667 1672 1677 1679 1681 1681 1682 1683 1683 1695 1705 1705
2037 2040 2048 2055 2062 2077 2084 2089 2099 2118 2132 2133 2133 2134 2134 2134 2134 2138 2138 2148 2160 2176 2188 2191 2192 2193 2194 2194 2202 2209 2209 2209 0 0 0 0 0 0 0 0 0 0 0 0 0 0 2638 3015 3160 3164 3238 3245 3257 3258 3263 3263 3263 3259 3243 3215 3170 3103 3101 3021 2954 2778 0 0 0 0 1363 1335 1327 1323 1323 1323 1323 1324 1324 1324 1324 1324 1324 1324 1324 1325 1325 1325 1325 1325 1325 1325 1324 1323 1322 1321 1320 1320 1319 1314 1313 1312 1312 1311 1311 1310 1310 1310 1309 1309 1309 1310 1310 1310 1309 1309 1309 1309 1311 1313 1314 1315 1315 1315 1316 1317 1317 1317 1317 1317 1317 1317 1317 1317 1316 1316 1316 1316 1317 1317 1317 1317 1318 1318 1318 1318 1318 1318 1318 1319 1319 1319 1319 1319 1317 1315 1315 1315 1315 1315 1315 1315 1315 1315 1315 1315 1315 1315 1315 1315 1315 1314 1314 1314 1314 1314 1314 1314 1313 1313 1313 1313 1313 1313 1312 1312 1312 1312 1312 1313 1313 1313 1312 1312 1312 1312 1311 1311 1311 1311 1312 1313 1314 1314 1314 1314 1314 1314 1315 1315 1315 1316 1316 1316 1315 1314 1314 1312 1312 1311 1311 1311 1311 1310 1310 1310 1310 1310 1310 1311 1311 1311 1311 1311 1312 1312 1312 1312 1312 1312 1312 1312 1312 1312 1312 1312 1312 1312 1312 1312 1312 1312 1312 1312 1312 1312 1312 1311 1311 1311 1311 1311 1311 1311 1311 1311 1310 1310 1310 1310 1309 1309 1309 1309 1309 1309 1309 1309 1309 1309 1309 1309 1309 1309 1309 1309 1309 1309 1309 1309 1309 1309 1308 1308 1308 1308 1307 1307 1307 1306 1306 1305 1304 1304 1303 1303 1302 1302 1302 1302 1302 1302 1302 1303 1304 1304 1304 1304 1304 1304 1304 1305 1305 1305 1305 1304 1304 1304 1304 1304 1304 1304 1304 1304 1304 1304 1305 1305 1305 1305 1305 1305 1305 1305 1305 1305 1305 1305 1305 1305 1305 1305 1303 1302 1301 1301 1301 1301 1301 1301 1301 1302 1302 1303 1303 1304 1304 1304 1305 1305 1305 1306 1306 1306 1306 1307 1307 1307 1307 1308 1308 1308 1307 1308 1307 1307 1307 1307 1307 1307 1306 1305 1305 1304 1304 1304 1304 1304 1304 1305 1307 1309 1310 1312 1313 1315 1319 1325 1338 1361 1370 1372 1372 1370 1370 1360 1348 1340 1332 1326 1319 1312 1307 1304 1299 1296 1293 1291 1288 1286 1283 1280 1278 1277 1275 1274 1273 1272 1270 1268 1267 1266 1265 1264 1263 1262 1261 1259 1258 1257 1256 1254 1253 1251 1250 1248 1247 1246 1244 1244 1242 1241 1240 1239 1238 1237 1237 1236 1235 1235 1234 1233 1232 1232 1231 1231 1230 1230 1229 1228 1228 1228 1227 1227 1226 1226 1225 1225 1224 1224 1223 1222 1222 1221 1220 1218 1217 1216 1215 1214 1213 1212 1211 1211 1210 1210 1210 1210 1210 1210 1210 1212 1214 1214 1214 1215 1218 1221 1223 1224 1233 1246 1268 1300 1328 1351 1380 1397 1410 1418 1419 1421 1424 1424 1425 1426 1428 1432 1436 1442 1447 1451 1455 1456 1457 1459 1461 1463 1463 1465 1466 1469 1470 1471 1472 1472 1472 1472 1473 1473 1474 1474 1474 1474 1474 1474 1475 1475 1475 1476 1479 1479 1482 1488 1491 1503 1532 1549 1567 1592 1604 1608 1609 1610 1610 1611 1612 1620 1624 1625 1626 1627 1627 1629 1629 1632 1633 1634 1635 1636 1637 1642 1642 1643 1644 1648 1648 1649 1650 1650 1650 1651 1651 1651 1653 1653 1656 1657 1660 1660 1661 1661 1664 1666 1667 1676 1679 1679 1679 1681 1681 1688 1704 1704
2023 2023 2034 2050 2062 2077 2084 2089 2099 2118 2131 2136 2137 2137 2137 2137 2137 2138 2141 2148 2158 2170 2177 2186 2187 2188 2191 2194 2202 2202 2202 2184 0 0 0 0 0 0 0 0 0 0 0 0 0 0 2767 3056 3168 3181 3257 3258 3264 3264 3280 3280 3280 3263 3249 3217 3184 3135 3133 3068 2967 2783 0 0 0 0 1363 1335 1327 1323 1323 1323 1323 1324 1324 1324 1324 1324 1324 1324 1324 1325 1325 1325 1325 1325 1325 1325 1324 1323 1322 1320 1320 1319 1319 1314 1312 1310 1308 1308 1308 1309 1309 1309 1308 1308 1307 1307 1307 1307 1306 1306 1307 1307 1309 1310 1310 1313 1314 1315 1315 1317 1317 1317 1317 1317 1317 1317 1317 1317 1317 1317 1317 1317 1317 1317 1318 1318 1318 1318 1318 1318 1318 1318 1319 1319 1319 1319 1319 1319 1316 1315 1315 1315 1315 1315 1315 1315 1315 1315 1315 1315 1315 1315 1315 1315 1315 1314 1314 1314 1314 1314 1314 1314 1313 1313 1313 1313 1313 1313 1313 1313 1313 1313 1313 1313 1313 1313 1313 1313 1313 1313 1313 1313 1313 1313 1314 1314 1314 1314 1314 1314 1315 1315 1315 1316 1316 1316 1316 1316 1316 1314 1314 1312 1312 1311 1311 1310 1310 1310 1310 1310 1310 1310 1310 1311 1311 1311 1311 1311 1311 1311 1311 1312 1312 1312 1312 1312 1312 1312 1313 1313 1313 1312 1312 1312 1312 1312 1312 1312 1312 1312 1311 1311 1311 1311 1311 1311 1311 1311 1311 1311 1310 1310 1310 1309 1309 1309 1309 1309 1309 1309 1309 1309 1309 1309 1309 1309 1309 1309 1309 1309 1309 1309 1309 1309 1309 1309 1309 1309 1309 1309 1309 1308 1307 1307 1306 1305 1305 1305 1303 1303 1303 1303 1303 1303 1303 1303 1304 1304 1304 1305 1305 1304 1304 1304 1304 1305 1305 1305 1305 1304 1304 1304 1304 1304 1304 1304 1304 1304 1304 1304 1304 1304 1305 1305 1305 1305 1305 1305 1305 1305 1305 1305 1305 1305 1305 1305 1304 1304 1303 1303 1303 1303 1303 1303 1303 1303 1303 1303 1303 1304 1305 1305 1306 1306 1307 1307 1307 1307 1307 1308 1308 1308 1308 1308 1308 1308 1308 1308 1308 1308 1307 1307 1307 1307 1306 1305 1305 1305 1304 1304 1304 1304 1305 1305 1306 1309 1310 1312 1312 1315 1319 1326 1337 1349 1358 1358 1358 1355 1353 1342 1334 1327 1323 1318 1315 1311 1305 1302 1298 1295 1292 1290 1288 1286 1283 1280 1278 1277 1275 1274 1273 1272 1270 1268 1268 1267 1266 1265 1263 1262 1260 1259 1258 1257 1255 1254 1252 1250 1249 1248 1246 1244 1243 1242 1242 1241 1240 1239 1238 1237 1236 1236 1235 1235 1234 1233 1233 1232 1232 1232 1232 1231 1229 1228 1228 1228 1228 1227 1226 1226 1226 1225 1225 1224 1223 1222 1222 1221 1219 1218 1217 1216 1215 1214 1213 1212 1211 1210 1209 1209 1209 1209 1209 1209 1210 1211 1212 1213 1214 1215 1218 1222 1224 1229 1235 1246 1263 1294 1324 1347 1370 1390 1396 1408 1411 1413 1413 1413 1420 1422 1423 1427 1431 1435 1439 1446 1449 1450 1451 1454 1457 1459 1459 1461 1463 1465 1466 1467 1467 1469 1469 1470 1470 1471 1471 1472 1472 1472 1472 1472 1472 1473 1474 1475 1475 1475 1476 1483 1489 1496 1510 1534 1539 1562 1587 1595 1598 1603 1603 1607 1608 1610 1616 1621 1622 1624 1625 1625 1626 1627 1628 1629 1630 1631 1631 1632 1634 1638 1638 1641 1641 1642 1642 1643 1647 1648 1648 1648 1650 1650 1653 1656 1656 1656 1657 1658 1659 1661 1662 1664 1678 1678 1678 1678 1678 1678 1702 1702
2013 2013 2025 2050 2062 2077 2078 2084 2096 2115 2129 2136 2136 2136 2137 2137 2137 2138 2141 2148 2157 2162 2169 2177 2181 2181 2188 2191 2201 2201 2201 2171 0 0 0 0 0 0 0 0 0 0 0 0 0 2588 2828 3075 3186 3226 3257 3274 3281 3281 3286 3286 3286 3272 3253 3228 3201 3169 3167 3111 3018 2821 0 0 0 0 1366 1341 1329 1323 1323 1323 1324 1324 1324 1324 1324 1324 1324 1324 1324 1324 1325 1325 1325 1325 1325 1324 1323 1322 1321 1320 1320 1319 1318 1313 1309 1308 1306 1306 1306 1306 1306 1306 1305 1305 1304 1304 1304 1303 1303 1303 1303 1303 1304 1306 1307 1311 1311 1312 1313 1316 1316 1317 1318 1318 1318 1318 1318 1318 1318 1318 1318 1318 1318 1318 1318 1318 1319 1319 1319 1319 1319 1319 1319 1319 1319 1319 1319 1319 1316 1315 1315 1315 1314 1314 1314 1314 1314 1315 1315 1315 1315 1315 1315 1315 1315 1314 1314 1313 1313 1313 1313 1313 1313 1313 1313 1313 1313 1313 1314 1314 1314 1314 1314 1314 1314 1314 1314 1314 1314 1314 1314 1314 1314 1314 1314 1314 1314 1314 1315 1315 1315 1315 1316 1316 1316 1316 1316 1316 1316 1314 1314 1312 1312 1311 1311 1310 1310 1310 1310 1310 1310 1310 1310 1311 1311 1311 1311 1311 1311 1311 1311 1311 1312 1312 1312 1312 1312 1313 1313 1313 1313 1313 1313 1312 1312 1313 1313 1312 1312 1312 1311 1311 1311 1311 1311 1311 1311 1311 1311 1310 1310 1310 1310 1309 1309 1309 1309 1309 1309 1309 1309 1309 1309 1309 1309 1309 1309 1309 1309 1310 1310 1310 1310 1310 1310 1310 1310 1309 1309 1310 1309 1309 1309 1308 1307 1306 1306 1306 1305 1304 1304 1304 1304 1304 1304 1304 1304 1305 1305 1305 1305 1305 1304 1304 1304 1305 1305 1305 1305 1304 1304 1304 1304 1304 1304 1304 1304 1303 1304 1304 1304 1304 1305 1305 1305 1305 1305 1305 1305 1305 1305 1305 1305 1305 1305 1305 1305 1305 1305 1305 1304 1304 1304 1304 1304 1304 1304 1305 1305 1305 1306 1307 1307 1308 1308 1308 1308 1308 1308 1308 1309 1309 1308 1308 1308 1308 1308 1308 1308 1308 1307 1307 1307 1307 1306 1305 1305 1305 1304 1304 1304 1304 1305 1305 1306 1308 1310 1312 1312 1315 1319 1326 1336 1344 1349 1349 1349 1345 1334 1327 1324 1320 1315 1312 1309 1306 1302 1300 1297 1294 1292 1290 1287 1286 1283 1281 1278 1277 1276 1275 1274 1272 1271 1269 1268 1267 1266 1265 1263 1262 1260 1259 1257 1256 1254 1254 1252 1250 1248 1246 1245 1244 1243 1242 1241 1240 1239 1239 1238 1237 1236 1236 1235 1235 1234 1234 1233 1233 1233 1233 1232 1231 1230 1229 1229 1229 1228 1228 1228 1227 1226 1226 1225 1224 1223 1222 1222 1221 1219 1218 1217 1216 1215 1214 1212 1211 1211 1209 1209 1209 1209 1209 1209 1209 1210 1211 1212 1213 1213 1215 1219 1222 1224 1231 1240 1244 1260 1289 1319 1342 1359 1383 1388 1394 1403 1407 1409 1411 1411 1416 1419 1423 1425 1427 1430 1437 1441 1444 1446 1449 1451 1455 1455 1457 1460 1461 1462 1463 1465 1465 1466 1467 1467 1468 1469 1470 1471 1471 1471 1471 1471 1472 1472 1472 1472 1473 1473 1479 1485 1486 1495 1513 1531 1541 1568 1576 1584 1593 1597 1601 1602 1604 1607 1611 1616 1621 1622 1622 1623 1623 1623 1623 1625 1625 1625 1626 1626 1631 1631 1631 1633 1635 1635 1636 1639 1642 1644 1645 1646 1648 1651 1653 1653 1653 1653 1653 1656 1657 1657 1660 1674 1674 1674 1674 1674 1674 1685 1685
2010 2010 2025 2050 2070 2077 2078 2084 2096 2110 2128 2135 2136 2136 2136 2135 2135 2135 2141 2148 2157 2159 2163 2170 2173 2175 2180 2184 2192 2192 2192 2159 0 0 0 0 0 0 0 0 0 0 0 0 0 2635 2891 3112 3187 3246 3275 3280 3288 3293 3295 3295 3295 3286 3263 3245 3225 3193 3188 3150 3071 2913 2510 0 0 0 0 1338 1331 1323 1323 1323 1323 1324 1324 1324 1324 1324 1324 1324 1324 1324 1325 1325 1325 1325 1325 1324 1323 1322 1321 1320 1319 1317 1317 1310 1307 1306 1304 1303 1302 1302 1302 1301 1301 1300 1300 1300 1300 1300 1300 1300 1300 1301 1302 1303 1304 1309 1311 1312 1313 1315 1316 1317 1318 1318 1318 1319 1319 1319 1319 1319 1319 1319 1319 1319 1319 1319 1319 1319 1319 1319 1319 1319 1319 1319 1319 1319 1319 1319 1316 1315 1315 1314 1313 1313 1313 1314 1314 1314 1314 1314 1314 1314 1314 1314 1314 1314 1314 1313 1313 1313 1313 1313 1313 1313 1313 1313 1313 1313 1314 1314 1314 1314 1314 1315 1315 1315 1315 1315 1315 1315 1314 1314 1314 1314 1315 1315 1315 1315 1315 1315 1315 1316 1316 1317 1317 1316 1316 1316 1316 1314 1313 1312 1312 1311 1311 1310 1310 1310 1310 1310 1310 1310 1310 1311 1311 1311 1311 1311 1311 1311 1311 1311 1312 1312 1312 1312 1312 1312 1313 1313 1312 1312 1312 1312 1312 1313 1313 1312 1312 1312 1311 1311 1311 1311 1311 1311 1311 1311 1311 1310 1310 1310 1309 1309 1309 1309 1309 1309 1309 1309 1309 1309 1309 1309 1309 1310 1310 1310 1310 1311 1311 1311 1311 1311 1310 1310 1310 1310 1310 1310 1310 1309 1309 1308 1308 1307 1307 1306 1306 1305 1305 1305 1305 1305 1305 1305 1305 1305 1305 1305 1305 1305 1305 1305 1305 1305 1305 1305 1304 1304 1304 1304 1304 1304 1303 1303 1303 1303 1303 1304 1304 1304 1304 1304 1305 1305 1305 1305 1305 1305 1305 1305 1305 1305 1305 1305 1305 1305 1305 1305 1305 1304 1304 1304 1304 1304 1305 1305 1306 1306 1306 1307 1307 1308 1308 1309 1309 1309 1309 1309 1309 1309 1309 1309 1309 1309 1309 1309 1308 1308 1308 1307 1307 1307 1306 1305 1305 1305 1304 1304 1304 1304 1305 1305 1306 1307 1309 1312 1312 1314 1319 1326 1332 1336 1338 1338 1338 1333 1327 1322 1319 1316 1313 1309 1306 1302 1301 1299 1296 1294 1292 1289 1287 1286 1283 1281 1279 1277 1276 1275 1274 1273 1272 1270 1268 1267 1266 1265 1263 1262 1260 1258 1257 1255 1254 1253 1250 1248 1247 1245 1244 1243 1242 1241 1241 1240 1239 1239 1238 1237 1236 1236 1236 1235 1235 1234 1234 1234 1234 1233 1233 1232 1231 1231 1230 1230 1229 1229 1228 1228 1227 1226 1225 1225 1223 1222 1222 1221 1219 1218 1216 1215 1214 1213 1211 1211 1210 1209 1209 1208 1208 1208 1209 1209 1209 1210 1212 1212 1213 1215 1219 1222 1224 1231 1240 1243 1259 1288 1311 1332 1348 1370 1379 1388 1398 1402 1404 1405 1405 1409 1413 1417 1419 1421 1423 1428 1435 1437 1440 1444 1446 1450 1452 1453 1455 1457 1460 1461 1462 1463 1464 1464 1465 1466 1467 1467 1468 1469 1469 1470 1470 1470 1470 1471 1471 1471 1472 1478 1480 1481 1483 1495 1510 1522 1533 1561 1569 1584 1593 1593 1594 1594 1596 1600 1605 1612 1617 1617 1617 1617 1617 1617 1617 1617 1619 1619 1620 1624 1625 1625 1625 1627 1627 1627 1632 1636 1640 1641 1642 1643 1644 1648 1649 1649 1650 1652 1652 1653 1655 1658 1671 1671 1671 1670 1670 1670 1678 1678
2010 2010 2025 2052 2070 2077 2078 2084 2096 2106 2111 2120 2120 2120 2116 2116 2116 2121 2138 2148 2156 2158 2159 2162 2168 2170 2180 2184 2192 2192 2192 2158 0 0 0 0 0 0 0 0 0 0 0 0 0 2738 2920 3121 3199 3246 3275 3290 3292 3307 3307 3307 3300 3286 3275 3259 3240 3217 3195 3176 3107 2962 2559 0 0 0 0 1338 1330 1323 1323 1323 1323 1324 1324 1324 1324 1324 1324 1324 1324 1324 1324 1325 1325 1325 1325 1324 1323 1322 1321 1321 1319 1317 1314 1307 1306 1305 1304 1302 1301 1301 1299 1299 1298 1297 1297 1297 1297 1297 1298 1299 1299 1299 1299 1301 1301 1305 1309 1311 1313 1315 1316 1317 1318 1319 1319 1319 1319 1319 1319 1319 1319 1319 1319 1319 1319 1319 1319 1319 1319 1319 1319 1319 1319 1319 1319 1319 1318 1318 1316 1315 1315 1314 1313 1313 1313 1314 1314 1314 1314 1314 1314 1314 1314 1314 1314 1314 1313 1313 1313 1313 1313 1313 1313 1313 1313 1313 1313 1314 1314 1314 1315 1315 1315 1315 1315 1316 1316 1316 1316 1316 1316 1315 1315 1315 1315 1315 1315 1315 1316 1316 1316 1316 1317 1317 1317 1317 1316 1316 1315 1314 1312 1312 1312 1311 1311 1310 1310 1310 1310 1310 1310 1310 1310 1310 1310 1310 1310 1310 1310 1311 1311 1311 1312 1312 1312 1312 1312 1312 1313 1313 1312 1312 1312 1312 1312 1312 1312 1312 1312 1311 1311 1311 1311 1311 1311 1311 1311 1311 1311 1310 1309 1309 1309 1309 1309 1309 1309 1309 1309 1309 1309 1309 1309 1309 1310 1310 1310 1311 1311 1311 1311 1311 1311 1311 1311 1311 1310 1310 1310 1310 1310 1310 1309 1308 1308 1308 1308 1307 1306 1306 1306 1305 1305 1305 1305 1305 1305 1305 1305 1305 1305 1305 1305 1305 1305 1305 1305 1305 1304 1304 1304 1303 1303 1303 1303 1303 1303 1303 1303 1303 1303 1304 1304 1304 1304 1304 1305 1305 1305 1305 1305 1305 1305 1305 1305 1305 1305 1305 1305 1305 1305 1305 1305 1305 1305 1305 1306 1306 1307 1307 1307 1308 1308 1308 1309 1309 1309 1309 1310 1310 1310 1310 1310 1309 1309 1309 1309 1309 1309 1308 1308 1308 1307 1307 1306 1306 1305 1305 1304 1304 1304 1304 1304 1305 1306 1307 1309 1311 1312 1314 1317 1322 1326 1332 1332 1332 1330 1326 1323 1320 1316 1313 1310 1306 1304 1301 1300 1297 1296 1294 1291 1289 1287 1286 1283 1281 1280 1278 1277 1275 1275 1273 1272 1270 1268 1267 1266 1265 1263 1261 1259 1258 1256 1255 1253 1251 1249 1248 1247 1245 1244 1243 1242 1241 1241 1240 1239 1239 1238 1237 1237 1237 1236 1236 1236 1235 1235 1235 1234 1234 1233 1233 1232 1231 1231 1231 1230 1229 1228 1228 1227 1226 1226 1225 1224 1222 1222 1221 1219 1218 1216 1215 1213 1213 1211 1210 1210 1209 1209 1208 1208 1208 1209 1209 1209 1209 1210 1212 1213 1215 1219 1221 1224 1231 1240 1241 1259 1284 1303 1321 1340 1355 1367 1380 1388 1395 1396 1399 1399 1405 1408 1411 1415 1416 1417 1422 1427 1431 1435 1439 1443 1446 1447 1449 1452 1453 1456 1458 1459 1460 1461 1461 1463 1464 1465 1466 1466 1467 1467 1468 1468 1468 1468 1468 1469 1470 1470 1472 1476 1477 1479 1483 1498 1517 1526 1543 1561 1571 1583 1586 1586 1586 1587 1592 1597 1602 1606 1611 1611 1611 1611 1611 1611 1611 1612 1612 1615 1619 1619 1619 1619 1619 1620 1623 1626 1630 1633 1637 1638 1639 1640 1641 1643 1643 1645 1648 1649 1652 1654 1655 1659 1659 1659 1661 1661 1661 1669 1669
2009 2010 2032 2052 2056 2056 2061 2061 2063 2078 2094 2100 2100 2100 2103 2104 2104 2116 2129 2143 2150 2155 2158 2159 2161 2170 2180 2184 2192 2192 2192 0 0 0 0 0 0 0 0 0 0 0 0 0 0 2848 3063 3121 3219 3255 3286 3298 3298 3307 3307 3307 3301 3291 3284 3277 3252 3227 3196 3187 3119 2984 2619 0 0 0 0 1341 1331 1323 1323 1323 1323 1324 1324 1324 1324 1324 1324 1324 1324 1324 1324 1325 1325 1325 1325 1324 1323 1322 1322 1321 1319 1317 1312 1306 1305 1305 1304 1302 1301 1299 1298 1298 1297 1297 1297 1297 1297 1297 1298 1298 1299 1299 1299 1299 1300 1305 1308 1311 1313 1315 1316 1317 1319 1319 1319 1320 1320 1320 1320 1320 1320 1320 1320 1320 1320 1320 1320 1320 1320 1320 1320 1319 1319 1319 1319 1318 1318 1317 1315 1315 1315 1314 1313 1313 1313 1313 1313 1313 1313 1313 1313 1313 1313 1314 1314 1314 1313 1313 1313 1313 1313 1313 1313 1313 1313 1313 1313 1314 1315 1315 1315 1315 1315 1316 1316 1316 1316 1316 1316 1316 1316 1316 1316 1316 1316 1316 1316 1316 1316 1316 1316 1316 1317 1317 1317 1317 1316 1315 1314 1312 1311 1311 1311 1310 1310 1310 1310 1310 1310 1310 1310 1310 1310 1310 1310 1310 1310 1310 1310 1311 1311 1311 1312 1312 1312 1312 1312 1312 1312 1312 1312 1312 1312 1312 1312 1312 1312 1311 1311 1311 1311 1310 1310 1310 1311 1311 1311 1311 1310 1310 1309 1309 1309 1309 1309 1309 1309 1309 1309 1309 1309 1309 1310 1310 1310 1310 1311 1311 1311 1312 1312 1312 1312 1312 1311 1311 1310 1310 1310 1310 1310 1309 1309 1309 1308 1308 1308 1307 1306 1306 1306 1306 1306 1306 1306 1306 1306 1306 1306 1306 1306 1305 1305 1305 1305 1305 1305 1305 1304 1304 1304 1303 1303 1303 1303 1303 1302 1302 1302 1302 1302 1303 1303 1303 1303 1304 1305 1305 1305 1305 1305 1305 1305 1305 1305 1305 1305 1305 1305 1305 1305 1305 1305 1305 1305 1305 1306 1306 1307 1307 1307 1308 1309 1309 1309 1309 1309 1310 1310 1310 1310 1310 1310 1310 1310 1310 1309 1309 1309 1308 1308 1308 1307 1307 1306 1305 1305 1305 1304 1304 1304 1304 1305 1305 1306 1306 1307 1310 1312 1313 1315 1319 1320 1323 1324 1324 1324 1320 1318 1316 1313 1311 1308 1306 1303 1301 1299 1297 1295 1293 1291 1289 1287 1286 1284 1282 1280 1278 1277 1276 1275 1273 1272 1270 1268 1267 1266 1265 1263 1261 1259 1256 1255 1253 1252 1250 1248 1247 1246 1245 1244 1243 1242 1241 1241 1240 1240 1239 1238 1238 1237 1237 1237 1237 1237 1236 1236 1236 1235 1235 1234 1234 1234 1233 1232 1231 1230 1230 1229 1228 1227 1227 1226 1225 1224 1222 1221 1220 1219 1217 1216 1214 1213 1212 1211 1210 1210 1209 1209 1208 1208 1208 1208 1208 1208 1209 1210 1212 1213 1215 1218 1221 1223 1229 1233 1240 1258 1283 1300 1317 1335 1348 1362 1375 1379 1390 1391 1397 1398 1398 1401 1405 1409 1411 1412 1415 1421 1424 1429 1433 1437 1441 1443 1445 1448 1450 1453 1455 1456 1456 1457 1457 1459 1461 1463 1464 1464 1465 1465 1466 1467 1467 1467 1467 1468 1468 1469 1472 1475 1476 1478 1481 1489 1508 1524 1538 1559 1568 1572 1576 1577 1577 1581 1587 1591 1596 1600 1603 1608 1608 1609 1611 1611 1611 1611 1611 1612 1612 1612 1613 1613 1616 1618 1620 1623 1625 1628 1633 1636 1636 1636 1637 1639 1640 1641 1644 1648 1651 1651 1652 1653 1652 1652 1652 1654 1655 1655 1655
2007 2010 2032 2052 2054 2054 2057 2057 2057 2071 2089 2095 2096 2097 2097 2099 2104 2114 2119 2129 2140 2150 2157 2158 2161 2170 2184 2195 2195 2195 2190 0 0 0 0 0 0 0 0 0 0 0 0 0 2583 2932 3114 3162 3230 3255 3290 3298 3305 3307 3307 3307 3301 3300 3299 3291 3278 3241 3203 3197 3122 3005 2774 2619 0 0 0 0 1331 1323 1323 1323 1323 1323 1323 1323 1323 1323 1324 1324 1324 1324 1324 1325 1325 1325 1325 1324 1323 1322 1322 1321 1319 1317 1312 1306 1305 1304 1304 1302 1300 1299 1298 1297 1297 1297 1296 1296 1296 1297 1298 1298 1298 1298 1298 1299 1299 1305 1308 1310 1313 1315 1317 1318 1319 1319 1320 1320 1321 1321 1321 1321 1321 1321 1320 1320 1320 1320 1320 1320 1320 1320 1320 1320 1320 1319 1319 1318 1318 1317 1315 1315 1315 1314 1313 1312 1312 1312 1312 1312 1312 1313 1313 1313 1313 1313 1313 1313 1313 1313 1313 1313 1313 1314 1314 1314 1314 1314 1314 1314 1315 1315 1315 1316 1316 1316 1316 1317 1317 1317 1317 1316 1316 1316 1316 1316 1316 1316 1316 1316 1316 1316 1316 1316 1317 1318 1318 1318 1316 1314 1312 1312 1311 1311 1311 1310 1310 1310 1310 1310 1310 1310 1310 1310 1310 1310 1310 1310 1310 1310 1310 1311 1311 1311 1311 1312 1312 1312 1312 1312 1312 1312 1312 1312 1312 1312 1312 1312 1311 1311 1311 1311 1311 1311 1311 1311 1311 1311 1311 1311 1310 1310 1310 1310 1310 1310 1310 1309 1309 1309 1309 1309 1310 1310 1310 1310 1310 1311 1311 1311 1312 1312 1312 1312 1312 1312 1311 1311 1311 1310 1310 1310 1310 1309 1309 1309 1309 1308 1308 1307 1307 1307 1307 1307 1306 1306 1306 1306 1306 1306 1306 1306 1306 1306 1306 1305 1305 1305 1305 1305 1304 1304 1304 1303 1303 1303 1303 1302 1302 1302 1302 1302 1302 1303 1303 1303 1303 1304 1304 1305 1305 1305 1305 1304 1304 1305 1305 1305 1305 1305 1305 1305 1305 1305 1305 1305 1306 1306 1307 1307 1307 1308 1308 1308 1309 1309 1309 1310 1310 1310 1310 1311 1311 1311 1310 1310 1310 1310 1309 1309 1309 1309 1308 1308 1307 1307 1306 1306 1305 1305 1304 1304 1304 1304 1305 1305 1306 1306 1307 1310 1311 1312 1315 1316 1316 1317 1316 1316 1315 1314 1313 1312 1311 1309 1307 1304 1303 1300 1299 1296 1295 1293 1292 1289 1288 1286 1284 1282 1280 1279 1277 1276 1275 1273 1272 1270 1268 1267 1266 1265 1262 1261 1259 1256 1255 1253 1252 1250 1248 1247 1246 1245 1244 1243 1242 1242 1241 1241 1240 1239 1239 1238 1238 1238 1238 1238 1237 1237 1237 1236 1236 1236 1235 1235 1234 1233 1233 1232 1231 1230 1229 1229 1228 1227 1226 1224 1224 1222 1221 1220 1218 1217 1215 1214 1213 1212 1211 1210 1210 1209 1209 1208 1208 1208 1208 1208 1208 1209 1210 1211 1212 1214 1217 1218 1221 1226 1232 1240 1258 1279 1299 1316 1335 1344 1351 1370 1372 1385 1387 1395 1396 1397 1397 1400 1405 1407 1409 1411 1413 1416 1425 1429 1432 1437 1440 1442 1445 1447 1449 1451 1452 1454 1454 1455 1458 1459 1460 1462 1463 1463 1464 1465 1467 1467 1467 1467 1467 1468 1469 1470 1471 1472 1476 1479 1483 1493 1514 1535 1547 1558 1563 1564 1569 1571 1573 1580 1587 1590 1594 1601 1603 1607 1608 1610 1610 1610 1608 1608 1607 1607 1608 1608 1611 1616 1617 1618 1619 1620 1623 1627 1632 1634 1634 1634 1634 1635 1636 1638 1641 1646 1646 1648 1649 1649 1649 1651 1654 1655 1655 1655
1999 2010 2032 2039 2048 2051 2051 2052 2057 2071 2089 2095 2096 2097 2097 2099 2104 2114 2119 2127 2134 2146 2154 2157 2158 2169 2184 2195 2195 2195 2187 0 0 0 0 0 0 0 0 0 0 0 0 2596 2648 2997 3144 3186 3255 3260 3298 3300 3311 3311 3311 3311 3308 3307 3303 3294 3278 3251 3203 3203 3131 3043 2889 2836 2582 0 0 0 1341 1329 1324 1323 1323 1323 1323 1323 1323 1324 1324 1324 1324 1324 1325 1325 1325 1325 1325 1325 1324 1323 1322 1321 1319 1317 1312 1306 1304 1302 1302 1301 1299 1299 1298 1297 1297 1297 1296 1296 1296 1297 1297 1297 1297 1298 1298 1299 1300 1306 1308 1310 1312 1315 1318 1319 1319 1321 1321 1321 1321 1321 1321 1321 1321 1321 1321 1321 1321 1321 1321 1321 1320 1320 1320 1320 1320 1319 1319 1318 1317 1317 1315 1315 1315 1314 1313 1312 1312 1312 1312 1312 1312 1312 1313 1313 1313 1313 1312 1312 1312 1312 1312 1313 1313 1314 1314 1314 1314 1314 1314 1315 1316 1316 1316 1316 1317 1317 1317 1317 1317 1317 1317 1316 1316 1316 1316 1316 1317 1317 1317 1317 1316 1316 1316 1317 1317 1317 1317 1317 1316 1314 1312 1312 1311 1311 1310 1310 1310 1310 1310 1310 1310 1310 1310 1310 1310 1310 1310 1310 1310 1310 1310 1311 1311 1311 1311 1312 1312 1312 1312 1313 1313 1312 1312 1312 1312 1312 1312 1312 1311 1311 1311 1311 1311 1311 1311 1311 1311 1311 1311 1310 1310 1310 1310 1310 1310 1310 1310 1310 1310 1309 1309 1309 1310 1310 1310 1310 1311 1311 1311 1311 1312 1312 1312 1312 1312 1312 1311 1311 1311 1310 1310 1310 1310 1309 1309 1309 1309 1309 1308 1308 1307 1307 1307 1307 1307 1307 1307 1307 1307 1307 1307 1306 1307 1306 1306 1306 1305 1305 1305 1305 1304 1304 1303 1303 1303 1303 1302 1302 1302 1302 1302 1302 1302 1302 1302 1303 1303 1303 1303 1304 1304 1304 1304 1304 1304 1305 1305 1305 1305 1305 1305 1305 1305 1306 1306 1306 1306 1307 1307 1307 1308 1308 1308 1308 1309 1309 1310 1310 1310 1310 1310 1311 1311 1311 1310 1310 1310 1310 1310 1309 1309 1309 1308 1308 1307 1306 1306 1306 1305 1304 1304 1304 1304 1304 1304 1305 1306 1306 1307 1309 1311 1312 1314 1315 1315 1314 1314 1314 1312 1311 1310 1309 1308 1307 1306 1304 1302 1300 1299 1296 1295 1293 1292 1290 1288 1287 1284 1283 1280 1279 1277 1276 1275 1273 1272 1270 1268 1267 1266 1264 1262 1260 1258 1256 1255 1253 1252 1250 1248 1247 1246 1245 1244 1243 1242 1242 1241 1241 1241 1239 1239 1239 1239 1239 1239 1239 1239 1238 1238 1237 1237 1237 1237 1236 1235 1235 1234 1233 1232 1231 1230 1229 1228 1227 1225 1224 1224 1222 1221 1220 1218 1216 1215 1214 1213 1212 1211 1210 1210 1209 1209 1208 1208 1208 1208 1208 1208 1209 1210 1211 1212 1213 1214 1216 1219 1224 1232 1239 1253 1272 1290 1313 1329 1341 1346 1353 1365 1376 1378 1391 1391 1392 1393 1393 1400 1403 1403 1406 1408 1412 1417 1425 1429 1433 1436 1440 1441 1443 1446 1447 1449 1451 1453 1454 1456 1458 1459 1460 1461 1462 1463 1464 1466 1466 1466 1467 1467 1467 1467 1468 1468 1469 1470 1475 1480 1484 1497 1515 1532 1547 1553 1556 1563 1568 1568 1572 1578 1584 1586 1590 1596 1603 1607 1607 1607 1606 1604 1603 1603 1603 1604 1604 1608 1612 1613 1615 1616 1617 1620 1624 1629 1631 1631 1631 1632 1632 1632 1635 1640 1643 1643 1644 1645 1648 1649 1651 1653 1655 1655 1655
