2702 2702 2712 2733 2755 2766 2782 2798 2802 2806 2814 2815 2815 2814 2815 2815 2838 2872 2876 2876 2876 2874 2874 2874 2877 2885 2887 2888 2897 2900 2908 2909 2917 2917 2918 2926 2939 2951 2961 2971 2976 2982 2990 2990 2990 2989 2988 2987 2987 2988 2988 2993 2999 3003 3003 3007 3007 3007 3013 3013 3014 3015 3016 3020 3024 3025 3031 3035 3038 3044 3052 3054 3054 3054 3055 3055 3061 3068 3078 3087 3097 3100 3107 3113 3118 3125 3133 3138 3145 3148 3151 3155 3159 3169 3181 3192 3198 3203 3204 3206 3212 3223 3238 3243 3252 3255 3257 3257 3258 3264 3268 3269 3271 3273 3279 3281 3286 3292 3297 3305 3311 3316 3317 3322 3326 3330 3330 3330 3330 3328 3328 3326 3325 3314 3312 3308 3307 3308 3312 3314 3322 3333 3339 3341 3365 3384 3396 3418 3418 3421 3421 3421 3405 3404 3404 3404 3409 3411 3416 3426 3435 3435 3437 3437 3437 3439 3441 3441 3441 3436 3435 3433 3432 3432 3431 3431 3431 3432 3432 3438 3443 3446 3448 3448 3450 3451 3453 3456 3461 3466 3468 3469 3469 3472 3475 3478 3481 3484 3488 3492 3495 3496 3499 3501 3503 3506 3510 3513 3515 3518 3521 3524 3527 3530 3532 3535 3536 3539 3541 3541 3546 3549 3552 3556 3561 3567 3572 3577 3578 3578 3579 3583 3588 3592 3594 3596 3597 3599 3603 3605 3610 3614 3617 3618 3619 3622 3627 3632 3638 3642 3644 3644 3644 3644 3645 3649 3652 3653 3654 3655 3657 3660 3661 3661 3661 3662 3662 3662 3662 3659 3654 3650 3650 3650 3649 3649 3648 3648 3647 3647 3639 3639 3639 3640 3656 3668 3671 3671 3671 3671 3671 3672 3673 3674 3675 3678 3679 3680 3680 3680 3678 3675 3668 3664 3662 3662 3662 3662 3662 3660 3657 3653 3645 3643 3643 3641 3641 3641 3637 3637 3637 3640 3644 3649 3649 3649 3642 3641 3637 3631 3630 3625 3625 3621 3615 3608 3601 3600 3600 3600 3596 3595 3594 3593 3589 3585 3585 3582 3576 3575 3574 3573 3566 3550 3543 3538 3523 3517 3507 3507 3505 3497 3430 3430 3241 2799 0 0 0 2218 2200 2187 2184 2184 2181 2174 2163 2146 2142 2138 2135 2135 2135 2132 2131 2130 2129 2129 2129 2131 2133 2133 2133 2132 2132 2132 2133 2133 2133 2133 2133 2133 2134 2134 2134 2133 2132 2131 2131 2129 2128 2127 2126 2126 2125 2125 2124 2123 2123 2122 2122 2122 2120 2120 2119 2119 2116 2115 2114 2113 2113 2112 2111 2110 2108 2106 2105 2102 2100 2096 2091 2088 2085 2085 2084 2080 2075 2071 2067 2062 2060 2058 2054 2052 2051 2050 2048 2043 2040 2038 2034 2033 2030 2030 2028 2027 2026 2024 2023 2020 2019 2017 2015 2014 2014 2014 2014 2014 2014 2013 2013 2012 2012 2012 2012 2011 2011 2010 2009 2009 2008 2007 2007 2007 2007 2007 2007 2008 2007 2007 2007 2007 2007 2006 2006 2006 2006 2007 2007 2007 2007 2007 2006 2006 2006 2006 2006 2006 2006 2006 2006 2006 2006 2006 2006 2005 2005 2004 2004 2003 2002 2002 2000 1999 1998 1997 1997 1996 1995 1994 1994 1993 1993 1993 1992 1992 1992 1992 1993 1993 1993 1993 1993 1993 1994 1994 1994 1994 1994 1995 1996 1996 1996 1996 1996 1996 2000 2003 2003 2003 2005 2005 2006 2008 2008 2008 2009 2014 2016 2016 2018 2019 2023 2028 2033 2033 2034 2034 2037 2040 2048 2051 2053 2054 2054 2055 2056 2059 0 0 0 0 0 0 0 0 0 0 0 0 0 0 0 0 0 0 0 0 0 0 0 0 0 0 0 0 0 0 0 0 0 0 0
2702 2702 2712 2733 2755 2768 2784 2798 2802 2806 2814 2815 2815 2814 2815 2815 2828 2859 2865 2874 2874 2874 2874 2874 2877 2888 2888 2888 2888 2892 2908 2909 2917 2917 2918 2926 2939 2954 2963 2981 2985 2988 2990 2990 2990 2985 2985 2985 2985 2985 2990 2993 2998 3000 3000 3001 3002 3006 3007 3010 3010 3010 3010 3011 3012 3015 3023 3025 3030 3036 3040 3044 3047 3047 3049 3054 3061 3068 3075 3084 3089 3098 3102 3110 3118 3125 3128 3134 3141 3143 3143 3144 3150 3158 3171 3181 3190 3197 3204 3206 3210 3222 3227 3238 3251 3255 3255 3255 3258 3264 3268 3269 3271 3273 3278 3281 3285 3289 3293 3301 3307 3312 3316 3320 3322 3323 3323 3323 3320 3319 3318 3311 3302 3300 3300 3284 3275 3251 3223 3223 3251 3286 3289 3319 3362 3384 3396 3413 3418 3421 3421 3421 3405 3401 3401 3401 3409 3411 3416 3426 3440 3441 3444 3444 3444 3446 3446 3446 3446 3440 3436 3435 3435 3435 3435 3435 3436 3436 3437 3440 3447 3452 3453 3453 3453 3454 3455 3456 3461 3466 3468 3469 3469 3472 3475 3478 3481 3484 3488 3492 3495 3496 3498 3500 3503 3507 3511 3513 3515 3518 3521 3524 3527 3530 3532 3535 3537 3539 3541 3542 3546 3550 3552 3555 3561 3567 3572 3577 3579 3580 3581 3584 3588 3592 3595 3597 3598 3602 3603 3608 3612 3617 3618 3619 3620 3621 3625 3632 3638 3642 3642 3642 3643 3644 3646 3650 3652 3653 3654 3655 3657 3659 3659 3659 3660 3660 3660 3660 3660 3658 3654 3651 3650 3650 3649 3649 3649 3648 3648 3648 3644 3640 3640 3640 3662 3670 3675 3675 3675 3675 3675 3676 3679 3681 3682 3682 3684 3684 3684 3684 3684 3684 3678 3674 3671 3667 3666 3666 3666 3662 3658 3653 3644 3637 3635 3635 3635 3635 3635 3635 3637 3642 3649 3652 3652 3652 3651 3648 3644 3640 3635 3629 3625 3623 3615 3609 3603 3601 3600 3600 3596 3596 3596 3594 3590 3586 3585 3585 3577 3575 3574 3573 3567 3560 3549 3538 3523 3511 3507 3507 3505 3498 3335 2891 2886 0 0 0 2237 2211 2187 2181 2179 2174 2172 2165 2158 2141 2137 2133 2132 2132 2130 2129 2127 2127 2127 2127 2127 2127 2131 2131 2131 2131 2130 2130 2130 2131 2131 2131 2131 2131 2132 2132 2132 2132 2131 2130 2129 2127 2126 2125 2125 2124 2124 2123 2122 2120 2120 2119 2119 2119 2118 2117 2115 2114 2114 2112 2111 2111 2110 2110 2109 2106 2103 2101 2099 2096 2093 2091 2088 2085 2083 2083 2081 2077 2073 2069 2064 2061 2057 2054 2052 2050 2049 2048 2044 2040 2036 2034 2032 2030 2029 2028 2026 2025 2023 2022 2021 2019 2018 2016 2013 2012 2012 2011 2011 2011 2011 2011 2010 2010 2009 2009 2009 2009 2008 2007 2006 2006 2006 2005 2005 2005 2005 2005 2004 2004 2004 2005 2005 2005 2005 2005 2004 2004 2004 2004 2005 2006 2006 2006 2006 2006 2006 2006 2006 2006 2006 2006 2006 2006 2006 2006 2006 2006 2005 2004 2004 2003 2002 2002 2001 1999 1998 1998 1997 1996 1995 1994 1994 1993 1993 1993 1992 1992 1992 1992 1993 1993 1993 1993 1993 1993 1994 1994 1994 1994 1994 1995 1997 1997 1997 1997 1997 1997 1999 2002 2003 2003 2003 2003 2005 2005 2006 2008 2009 2012 2013 2014 2014 2014 2014 2017 2020 2027 2029 2031 2034 2037 2047 2053 2054 2054 2053 2046 2046 2046 2044 2044 0 0 0 0 0 0 0 0 0 0 0 0 0 0 0 0 0 0 0 0 0 0 0 0 0 0 0 0 0 0 0 0 0
2702 2702 2713 2732 2736 2768 2788 2795 2797 2805 2814 2815 2815 2815 2815 2815 2828 2843 2849 2872 2874 2878 2878 2880 2883 2890 2890 2890 2892 2892 2900 2906 2918 2923 2927 2935 2945 2954 2963 2981 2985 2988 2988 2988 2987 2985 2985 2985 2985 2985 2990 2993 2994 2997 2998 3000 3002 3005 3005 3005 3005 3003 3002 3002 3002 3007 3010 3014 3016 3024 3031 3035 3038 3039 3048 3053 3061 3068 3073 3083 3086 3094 3100 3108 3113 3123 3127 3133 3138 3138 3139 3139 3139 3147 3157 3171 3181 3193 3201 3203 3208 3218 3224 3238 3247 3253 3254 3255 3256 3264 3268 3270 3271 3274 3277 3280 3283 3286 3291 3298 3305 3308 3314 3316 3317 3317 3316 3316 3313 3313 3307 3296 3281 3253 3253 3226 3220 3216 3194 3181 3181 3194 3222 3272 3287 3306 3343 3344 3371 3421 3421 3421 3414 3399 3399 3399 3409 3411 3416 3426 3447 3447 3448 3449 3449 3452 3452 3452 3449 3442 3438 3437 3437 3437 3438 3439 3440 3440 3440 3443 3449 3453 3454 3454 3455 3457 3458 3459 3462 3466 3468 3469 3471 3473 3476 3479 3482 3484 3488 3492 3495 3496 3498 3500 3504 3508 3511 3513 3516 3518 3521 3525 3528 3531 3532 3535 3538 3540 3542 3544 3547 3550 3552 3555 3559 3565 3572 3577 3579 3580 3581 3584 3588 3592 3595 3597 3601 3602 3605 3608 3613 3618 3619 3619 3620 3620 3623 3629 3637 3641 3642 3642 3643 3645 3647 3650 3652 3653 3654 3655 3657 3658 3658 3658 3659 3659 3659 3659 3659 3658 3655 3652 3651 3650 3650 3650 3652 3653 3653 3653 3653 3652 3652 3652 3662 3671 3676 3677 3678 3678 3678 3680 3680 3682 3682 3685 3685 3686 3687 3687 3687 3687 3684 3680 3679 3675 3672 3671 3670 3669 3662 3657 3644 3637 3635 3635 3634 3635 3635 3635 3637 3646 3653 3654 3656 3656 3656 3653 3648 3643 3636 3633 3628 3624 3617 3610 3604 3603 3601 3600 3599 3599 3599 3598 3597 3591 3586 3585 3577 3574 3573 3572 3567 3561 3549 3538 3523 3511 3507 3505 3502 3407 3012 2637 0 0 0 0 2215 2196 2176 2175 2172 2172 2168 2159 2152 2139 2135 2131 2131 2129 2127 2126 2126 2125 2124 2124 2124 2124 2126 2128 2129 2129 2129 2129 2129 2129 2129 2130 2130 2130 2130 2130 2130 2129 2128 2127 2125 2125 2124 2124 2123 2122 2122 2120 2119 2117 2117 2116 2116 2116 2115 2114 2113 2112 2112 2111 2110 2109 2108 2107 2105 2102 2098 2096 2094 2091 2090 2087 2085 2083 2081 2080 2077 2073 2069 2065 2061 2058 2055 2051 2049 2047 2046 2044 2039 2037 2033 2032 2030 2029 2028 2026 2024 2023 2021 2019 2019 2017 2015 2014 2011 2010 2008 2008 2008 2008 2008 2007 2006 2006 2006 2007 2007 2007 2006 2005 2004 2004 2003 2003 2003 2003 2003 2003 2003 2002 2002 2002 2002 2002 2002 2003 2003 2003 2003 2003 2003 2004 2005 2005 2005 2006 2006 2006 2006 2006 2006 2006 2006 2006 2006 2006 2006 2006 2005 2004 2004 2003 2002 2002 2001 1999 1999 1998 1997 1996 1995 1994 1993 1993 1993 1992 1992 1992 1992 1992 1993 1993 1993 1993 1993 1993 1994 1994 1994 1994 1994 1995 1997 1997 1997 1997 1997 1997 1999 2001 2002 2002 2002 2002 2002 2002 2004 2006 2008 2011 2011 2011 2008 2008 2008 2011 2011 2012 2013 2014 2017 2024 2035 2053 2054 2054 2053 2046 2042 2042 2039 2039 2039 2043 0 0 0 0 0 0 0 0 0 0 0 0 0 0 0 0 0 0 0 0 0 0 0 0 0 0 0 0 0 0 0
2702 2702 2713 2732 2736 2766 2788 2793 2797 2805 2814 2824 2824 2824 2824 2824 2828 2835 2845 2870 2874 2876 2881 2885 2887 2892 2892 2892 2892 2892 2899 2905 2918 2924 2935 2942 2947 2954 2963 2981 2984 2984 2984 2984 2982 2982 2982 2982 2982 2984 2990 2993 2993 2993 2997 3000 3002 3004 3004 3004 3001 3000 2996 2996 2996 2996 2996 2998 2999 3010 3026 3029 3031 3037 3047 3053 3061 3067 3069 3072 3076 3082 3089 3096 3113 3121 3126 3129 3137 3137 3137 3137 3137 3137 3148 3161 3176 3188 3196 3203 3208 3212 3217 3237 3244 3246 3247 3253 3255 3262 3269 3270 3272 3274 3277 3280 3283 3286 3287 3293 3297 3302 3307 3313 3316 3316 3316 3314 3312 3310 3299 3284 3262 3253 3205 3194 3193 3193 3166 3161 3134 3161 3161 3197 3215 3240 3304 3319 3321 3365 3405 3405 3405 3399 3399 3399 3409 3411 3416 3426 3448 3452 3453 3454 3454 3455 3455 3455 3452 3446 3443 3443 3443 3443 3446 3447 3447 3447 3448 3448 3451 3454 3455 3456 3458 3460 3461 3461 3464 3466 3468 3471 3472 3475 3477 3479 3483 3485 3488 3492 3495 3496 3499 3501 3504 3508 3511 3515 3518 3521 3524 3527 3530 3533 3534 3537 3538 3541 3542 3546 3548 3552 3552 3555 3559 3564 3569 3575 3579 3580 3582 3585 3588 3594 3597 3601 3602 3603 3605 3608 3613 3618 3619 3619 3620 3620 3622 3626 3632 3639 3639 3641 3642 3645 3648 3651 3653 3654 3654 3655 3657 3658 3658 3658 3659 3659 3659 3659 3659 3658 3655 3654 3654 3654 3654 3655 3657 3660 3662 3662 3662 3662 3662 3662 3662 3673 3677 3680 3682 3682 3682 3682 3683 3683 3683 3685 3688 3688 3688 3688 3688 3688 3687 3687 3685 3680 3676 3675 3674 3670 3666 3657 3644 3637 3636 3635 3634 3635 3635 3636 3642 3648 3653 3654 3656 3656 3656 3653 3649 3644 3638 3634 3633 3628 3618 3611 3606 3606 3605 3605 3605 3604 3604 3604 3602 3599 3592 3586 3577 3575 3572 3572 3569 3563 3549 3538 3523 3514 3511 3502 3495 3208 2841 0 0 0 0 2212 2200 2185 2173 2173 2171 2170 2164 2156 2148 2138 2133 2131 2131 2129 2126 2124 2123 2122 2122 2122 2122 2122 2124 2127 2127 2127 2127 2127 2127 2127 2127 2128 2128 2128 2127 2127 2127 2126 2125 2124 2123 2122 2121 2120 2120 2119 2118 2117 2116 2114 2114 2114 2113 2113 2112 2111 2110 2110 2110 2108 2107 2106 2104 2103 2100 2097 2093 2091 2089 2088 2086 2084 2083 2081 2079 2076 2073 2069 2066 2062 2058 2054 2052 2049 2047 2045 2042 2039 2037 2033 2031 2030 2029 2027 2026 2024 2023 2020 2019 2018 2016 2016 2014 2011 2010 2007 2006 2005 2004 2004 2004 2004 2004 2003 2004 2004 2004 2004 2004 2002 2002 2002 2002 2002 2001 2001 2000 2000 2000 1999 1999 1999 1999 1999 2000 2000 2000 2000 2000 2001 2002 2002 2003 2004 2004 2005 2005 2005 2005 2004 2004 2004 2006 2006 2006 2006 2006 2006 2005 2004 2004 2003 2002 2002 2001 1999 1998 1998 1997 1996 1995 1993 1993 1993 1993 1992 1992 1992 1992 1992 1993 1993 1993 1993 1993 1993 1993 1993 1993 1993 1993 1993 1994 1996 1997 1997 1997 1997 1998 1999 2000 2000 2000 2000 2001 2001 2001 2005 2005 2006 2008 2008 2008 2007 2007 2007 2007 2005 2004 2004 2005 2005 2009 2028 2052 2052 2052 2028 2023 2023 2028 2033 2033 2039 2039 2036 2024 0 0 0 0 0 0 0 0 0 0 0 0 0 0 0 0 0 0 0 0 0 0 0 0 0 0 0 0
2705 2705 2713 2732 2736 2770 2788 2793 2797 2805 2814 2824 2828 2828 2829 2829 2829 2835 2845 2864 2870 2874 2881 2885 2889 2892 2892 2892 2892 2892 2899 2905 2918 2930 2935 2943 2947 2949 2953 2962 2972 2976 2976 2977 2978 2979 2981 2982 2982 2984 2990 2991 2992 2993 2997 3001 3003 3004 3004 3004 3000 2998 2995 2987 2986 2985 2984 2984 2984 2993 3019 3023 3025 3031 3044 3053 3058 3061 3061 3066 3068 3072 3077 3090 3106 3119 3123 3128 3136 3136 3136 3137 3137 3137 3148 3153 3167 3177 3186 3193 3196 3199 3217 3224 3229 3235 3237 3246 3253 3262 3268 3270 3271 3274 3277 3280 3283 3285 3286 3287 3291 3296 3300 3306 3312 3314 3314 3314 3308 3306 3293 3260 3220 3220 3132 2985 2925 2860 2780 2780 2780 2945 3060 3094 3100 3160 3227 3250 3270 3297 3340 3380 3385 3389 3389 3397 3416 3416 3422 3430 3448 3456 3457 3458 3458 3460 3460 3460 3459 3456 3454 3454 3454 3454 3456 3459 3459 3459 3458 3456 3456 3456 3457 3457 3460 3462 3463 3464 3464 3467 3471 3473 3475 3478 3480 3482 3485 3486 3490 3493 3496 3497 3499 3501 3504 3509 3512 3515 3518 3521 3525 3528 3532 3534 3536 3538 3539 3542 3544 3546 3548 3552 3553 3556 3559 3564 3569 3574 3578 3580 3583 3585 3589 3596 3599 3602 3604 3607 3608 3611 3614 3618 3619 3619 3619 3620 3622 3626 3632 3636 3638 3641 3643 3648 3651 3654 3656 3656 3657 3658 3658 3659 3659 3658 3659 3659 3659 3660 3660 3660 3659 3659 3659 3661 3662 3662 3664 3667 3670 3670 3670 3669 3668 3668 3668 3675 3678 3682 3683 3684 3684 3685 3684 3684 3686 3687 3689 3689 3689 3689 3689 3689 3688 3688 3685 3683 3680 3680 3676 3670 3666 3660 3653 3650 3645 3645 3645 3638 3638 3638 3646 3650 3653 3654 3656 3656 3656 3653 3649 3644 3640 3635 3635 3631 3624 3616 3610 3607 3607 3607 3607 3609 3609 3609 3608 3602 3597 3587 3578 3575 3572 3572 3571 3564 3547 3527 3525 3523 3514 3502 3322 3030 2619 0 0 0 2204 2203 2189 2178 2170 2170 2170 2168 2164 2156 2148 2138 2133 2131 2131 2129 2125 2123 2121 2120 2119 2119 2119 2121 2122 2124 2125 2125 2125 2125 2125 2125 2126 2126 2126 2126 2126 2126 2125 2124 2122 2121 2120 2119 2118 2116 2116 2116 2115 2113 2112 2112 2111 2111 2110 2110 2110 2109 2108 2107 2106 2105 2104 2102 2101 2100 2097 2094 2090 2088 2085 2085 2083 2082 2081 2078 2076 2073 2069 2066 2062 2059 2055 2052 2048 2045 2043 2041 2039 2036 2033 2031 2030 2028 2026 2024 2023 2021 2020 2018 2017 2016 2015 2014 2012 2011 2008 2005 2004 2003 2002 2001 2001 2001 2001 2001 2001 2001 2001 2001 2001 1999 1999 1999 2000 2000 2000 1999 1998 1998 1997 1997 1996 1996 1996 1996 1997 1997 1997 1997 1998 1999 2000 2000 2002 2003 2004 2004 2004 2004 2004 2003 2003 2003 2004 2005 2005 2005 2005 2005 2005 2004 2003 2003 2002 2002 2001 1999 1998 1997 1997 1996 1994 1993 1993 1993 1992 1992 1992 1992 1992 1992 1992 1992 1992 1992 1992 1992 1993 1993 1993 1993 1992 1992 1992 1994 1995 1997 1997 1997 1997 1997 1998 1998 1998 1998 1998 1998 1998 1997 1997 1997 1998 2004 2005 2005 2006 2006 2006 2004 2001 2000 1998 1998 1998 2002 2008 2018 2018 2018 2018 2018 2018 2023 2024 2038 2038 2036 2024 2017 2009 0 0 0 0 0 0 0 0 0 0 0 0 0 0 0 0 0 0 0 0 0 0 0 0 0 0
2705 2705 2716 2732 2742 2766 2788 2793 2799 2805 2815 2824 2830 2830 2830 2831 2831 2835 2845 2864 2870 2874 2881 2887 2889 2891 2891 2891 2891 2891 2902 2912 2926 2931 2939 2943 2947 2949 2953 2962 2970 2970 2971 2973 2973 2978 2981 2982 2982 2984 2989 2991 2992 2993 2997 3001 3003 3003 3003 3001 2999 2996 2993 2981 2981 2981 2981 2982 2984 2992 3016 3017 3020 3026 3034 3037 3041 3042 3042 3045 3051 3058 3070 3088 3106 3113 3117 3127 3132 3133 3133 3136 3136 3137 3148 3153 3159 3167 3172 3176 3194 3198 3204 3215 3218 3223 3233 3237 3249 3259 3265 3270 3271 3272 3277 3279 3283 3283 3284 3285 3287 3290 3295 3301 3305 3305 3305 3304 3304 3288 3257 3214 3168 3167 3059 2733 2536 0 0 0 0 0 2724 2760 2830 2884 2884 3182 3215 3243 3326 3332 3360 3371 3395 3404 3416 3416 3422 3430 3448 3461 3461 3462 3462 3462 3467 3467 3467 3467 3467 3468 3468 3469 3470 3470 3470 3470 3470 3463 3463 3463 3463 3464 3465 3465 3466 3467 3468 3469 3473 3475 3478 3481 3483 3488 3489 3490 3491 3495 3497 3499 3500 3502 3504 3509 3512 3515 3518 3521 3525 3528 3532 3535 3537 3538 3540 3542 3544 3546 3549 3552 3553 3556 3559 3564 3569 3574 3578 3580 3583 3587 3591 3596 3600 3604 3606 3609 3611 3612 3614 3618 3619 3619 3619 3620 3622 3625 3630 3635 3638 3641 3645 3651 3654 3655 3656 3656 3657 3659 3660 3661 3661 3661 3661 3661 3661 3663 3664 3664 3664 3664 3665 3666 3666 3667 3670 3673 3676 3676 3676 3673 3671 3671 3671 3677 3681 3685 3685 3686 3687 3687 3687 3687 3688 3688 3689 3691 3691 3691 3691 3691 3689 3688 3685 3683 3681 3680 3676 3672 3667 3665 3657 3653 3653 3652 3647 3645 3645 3645 3650 3653 3653 3654 3656 3656 3656 3653 3649 3647 3645 3641 3637 3632 3625 3621 3617 3613 3611 3611 3611 3613 3613 3613 3609 3606 3598 3589 3579 3572 3572 3572 3570 3564 3546 3533 3527 3519 3514 3433 3168 2710 0 0 0 2214 2202 2186 2184 2170 2169 2169 2168 2166 2164 2156 2148 2138 2133 2131 2130 2129 2124 2121 2120 2119 2117 2117 2117 2119 2120 2122 2123 2123 2123 2124 2124 2124 2125 2125 2125 2124 2124 2124 2123 2123 2121 2120 2118 2116 2116 2115 2114 2113 2112 2111 2110 2109 2109 2108 2107 2107 2106 2106 2105 2105 2103 2101 2100 2098 2098 2095 2093 2091 2088 2085 2084 2082 2080 2079 2077 2075 2072 2070 2068 2064 2060 2056 2053 2050 2047 2044 2041 2038 2036 2034 2032 2030 2028 2025 2023 2021 2020 2019 2018 2017 2016 2015 2013 2012 2010 2008 2006 2004 2002 2001 2000 1999 1998 1998 1998 1998 1998 1998 1998 1998 1998 1997 1997 1997 1997 1997 1997 1997 1996 1995 1994 1994 1994 1993 1993 1993 1994 1994 1995 1995 1996 1998 1999 2000 2000 2001 2002 2002 2002 2002 2002 2002 2002 2002 2004 2004 2004 2004 2004 2004 2004 2004 2003 2002 2001 2000 2000 1999 1998 1997 1996 1995 1994 1993 1993 1992 1992 1992 1991 1991 1991 1991 1991 1991 1991 1991 1991 1992 1992 1992 1992 1992 1992 1992 1992 1992 1993 1995 1995 1995 1995 1995 1996 1996 1996 1995 1994 1993 1993 1993 1993 1994 1995 1998 1998 1998 1997 1997 1996 1995 1994 1994 1994 1995 1996 1998 2003 2007 2007 2008 2008 2010 2013 2022 2022 2025 2032 2025 2022 2017 2009 2006 2004 2005 2003 2003 2005 2017 2022 2031 0 0 0 0 0 0 0 0 0 0 0 0 0 0 0 0 0
2705 2705 2716 2729 2742 2764 2788 2792 2799 2805 2816 2824 2830 2830 2830 2832 2832 2836 2847 2864 2870 2876 2882 2888 2888 2888 2889 2889 2889 2893 2902 2913 2926 2932 2939 2943 2948 2949 2953 2962 2965 2966 2966 2968 2969 2977 2985 2986 2988 2989 2989 2991 2992 2993 2997 3001 3001 3001 3000 2998 2998 2993 2985 2980 2980 2978 2980 2981 2982 2992 3013 3013 3013 3015 3018 3019 3021 3021 3024 3028 3032 3042 3055 3070 3089 3095 3102 3115 3130 3132 3133 3135 3135 3141 3149 3149 3150 3151 3152 3176 3179 3181 3193 3193 3193 3194 3194 3201 3237 3251 3262 3264 3266 3268 3274 3277 3283 3284 3284 3285 3286 3290 3294 3295 3295 3295 3289 3280 3280 3262 3228 3188 3064 3058 2829 0 0 0 0 0 0 0 0 0 0 0 0 2575 2781 3170 3192 3300 3314 3362 3385 3407 3415 3418 3422 3430 3444 3461 3461 3463 3463 3463 3470 3472 3473 3474 3474 3475 3476 3476 3477 3479 3479 3479 3477 3472 3472 3472 3472 3472 3472 3470 3470 3470 3470 3473 3475 3479 3481 3482 3484 3488 3492 3493 3493 3495 3498 3501 3502 3503 3506 3509 3512 3515 3518 3521 3526 3529 3533 3535 3538 3539 3542 3544 3545 3548 3550 3552 3553 3557 3560 3564 3569 3574 3578 3580 3583 3587 3592 3597 3602 3605 3608 3611 3612 3614 3616 3618 3619 3620 3620 3620 3622 3625 3630 3633 3638 3642 3647 3651 3654 3655 3656 3656 3657 3659 3661 3664 3664 3664 3664 3664 3664 3665 3665 3667 3667 3667 3669 3669 3670 3671 3673 3674 3676 3676 3676 3673 3672 3672 3672 3677 3682 3686 3687 3687 3689 3690 3690 3691 3692 3692 3692 3694 3694 3694 3693 3691 3691 3688 3684 3683 3681 3681 3676 3673 3669 3667 3665 3660 3657 3656 3653 3652 3652 3652 3654 3654 3656 3656 3656 3656 3656 3653 3652 3651 3651 3648 3642 3636 3628 3625 3623 3619 3617 3617 3617 3615 3615 3614 3609 3607 3599 3589 3580 3575 3575 3573 3570 3564 3554 3544 3527 3519 3460 3264 2842 0 0 0 2214 2203 2190 2174 2174 2170 2169 2169 2166 2166 2164 2156 2148 2138 2132 2131 2130 2129 2122 2119 2116 2115 2115 2115 2115 2117 2118 2119 2120 2122 2122 2123 2123 2124 2124 2124 2124 2123 2123 2123 2121 2121 2118 2118 2116 2115 2113 2112 2112 2111 2109 2107 2107 2107 2106 2106 2105 2104 2103 2103 2102 2101 2100 2098 2096 2094 2094 2092 2090 2087 2085 2082 2081 2080 2078 2077 2075 2072 2070 2067 2065 2061 2058 2054 2052 2048 2046 2042 2038 2035 2032 2031 2029 2028 2025 2022 2020 2019 2018 2017 2016 2015 2015 2013 2011 2010 2008 2006 2004 2002 2000 1999 1998 1996 1995 1995 1995 1995 1995 1995 1995 1995 1995 1995 1994 1994 1994 1994 1994 1994 1994 1993 1992 1992 1992 1991 1991 1991 1991 1992 1993 1993 1994 1995 1996 1997 1999 1999 2000 2000 2000 2000 2000 2000 2000 2001 2002 2002 2002 2002 2002 2002 2002 2002 2002 2001 2000 1999 1999 1998 1998 1997 1995 1994 1993 1992 1991 1991 1991 1991 1991 1991 1991 1990 1990 1990 1990 1990 1991 1991 1991 1991 1991 1991 1991 1991 1991 1991 1991 1992 1992 1993 1993 1993 1993 1993 1991 1990 1989 1989 1989 1991 1991 1991 1991 1990 1987 1987 1987 1985 1985 1983 1976 1976 1976 1980 1983 1986 1992 1999 1999 1999 2000 2002 2003 2004 2018 2022 2022 2018 2014 2003 2003 2003 2007 2009 2011 2013 2013 2017 2024 2032 2042 2048 2048 2048 0 0 0 0 0 0 0 0 0 0 0 0 0
2705 2705 2716 2719 2742 2764 2787 2792 2799 2805 2816 2820 2826 2828 2829 2835 2835 2838 2848 2867 2873 2878 2882 2889 2889 2889 2889 2889 2891 2896 2912 2925 2932 2937 2940 2947 2951 2955 2958 2962 2962 2962 2962 2962 2966 2977 2985 2988 2989 2989 2989 2991 2992 2994 2997 2997 2997 2994 2990 2985 2985 2984 2978 2975 2975 2975 2978 2978 2978 2982 2987 3004 3006 3007 3008 3008 3009 3011 3012 3012 3014 3024 3038 3052 3064 3068 3079 3099 3123 3130 3132 3133 3135 3141 3145 3145 3149 3150 3152 3153 3161 3168 3174 3174 3174 3174 3174 3180 3210 3235 3246 3253 3255 3259 3267 3276 3283 3284 3284 3284 3286 3289 3292 3292 3292 3292 3289 3280 3263 3233 3191 3114 2841 2712 0 0 0 0 0 0 0 0 0 0 0 0 0 0 0 2791 3107 3161 3204 3315 3367 3404 3411 3413 3415 3415 3441 3466 3466 3468 3468 3468 3472 3476 3478 3479 3479 3479 3480 3481 3484 3485 3485 3485 3483 3482 3480 3478 3478 3476 3475 3473 3473 3473 3474 3474 3479 3480 3483 3483 3485 3490 3493 3493 3493 3496 3498 3501 3502 3504 3506 3509 3513 3515 3518 3522 3526 3529 3533 3537 3539 3542 3544 3545 3547 3549 3550 3552 3553 3557 3561 3566 3571 3576 3579 3581 3584 3588 3594 3597 3602 3606 3609 3611 3612 3614 3616 3618 3619 3621 3622 3622 3623 3625 3628 3632 3637 3642 3647 3651 3654 3655 3655 3655 3657 3659 3661 3664 3665 3665 3665 3665 3665 3665 3665 3668 3670 3670 3670 3671 3671 3673 3674 3676 3677 3677 3677 3674 3672 3672 3672 3677 3682 3686 3687 3687 3689 3692 3695 3695 3695 3696 3696 3696 3696 3696 3696 3694 3691 3688 3684 3683 3683 3681 3679 3675 3672 3671 3670 3668 3664 3658 3655 3655 3655 3658 3658 3658 3657 3657 3656 3656 3657 3656 3656 3655 3655 3653 3648 3638 3630 3628 3628 3628 3623 3622 3622 3622 3618 3614 3610 3607 3602 3594 3586 3579 3576 3573 3572 3564 3554 3542 3519 3511 3376 2988 2580 0 0 2223 2211 2196 2176 2174 2174 2170 2169 2169 2166 2166 2164 2156 2148 2138 2131 2130 2129 2128 2121 2114 2113 2113 2113 2113 2113 2114 2115 2116 2119 2120 2121 2121 2122 2122 2122 2122 2122 2121 2121 2121 2120 2119 2118 2117 2114 2113 2112 2111 2110 2108 2106 2104 2104 2104 2103 2103 2101 2100 2099 2099 2098 2097 2096 2094 2093 2092 2090 2088 2086 2084 2082 2080 2078 2077 2076 2073 2072 2070 2068 2064 2061 2057 2054 2051 2048 2046 2043 2040 2035 2031 2029 2028 2027 2025 2022 2020 2019 2018 2017 2016 2015 2014 2013 2012 2011 2009 2006 2005 2002 2000 1998 1997 1996 1994 1993 1992 1992 1992 1992 1992 1992 1992 1992 1991 1991 1991 1992 1992 1992 1992 1991 1990 1990 1990 1989 1989 1990 1990 1990 1990 1991 1991 1991 1992 1993 1995 1996 1999 1999 1999 1998 1998 1998 1998 1998 1999 2000 2000 2000 2000 2000 2000 2000 2000 2000 2000 1999 1999 1998 1997 1996 1995 1994 1993 1992 1991 1991 1991 1991 1991 1990 1990 1989 1989 1989 1989 1989 1989 1989 1989 1990 1990 1990 1990 1989 1989 1988 1988 1988 1988 1991 1991 1991 1989 1987 1987 1986 1986 1985 1985 1985 1985 1985 1984 1984 1981 1981 1981 1981 1983 1983 1983 1975 1975 1975 1976 1977 1978 1981 1984 1991 1992 1992 1992 1994 1995 1999 2002 2002 1999 1999 1998 1998 1998 2000 2007 2013 2015 2017 2017 2024 2032 2042 2048 2048 2048 2040 2035 2034 0 0 0 0 0 0 0 0 0 0
2692 2698 2698 2699 2709 2736 2764 2789 2797 2805 2816 2819 2825 2828 2829 2830 2836 2846 2855 2869 2882 2888 2890 2890 2890 2889 2889 2889 2893 2898 2919 2929 2935 2937 2940 2947 2955 2960 2961 2962 2962 2962 2962 2962 2966 2973 2985 2989 2989 2990 2991 2992 2993 2994 2997 2997 2997 2988 2979 2978 2972 2969 2969 2970 2970 2972 2973 2978 2978 2979 2982 2997 2997 3001 3005 3002 3005 3005 3002 3002 3007 3017 3020 3034 3042 3051 3077 3083 3117 3122 3129 3130 3135 3141 3145 3145 3145 3142 3142 3142 3145 3155 3161 3161 3161 3161 3161 3164 3195 3221 3236 3245 3249 3255 3266 3275 3280 3281 3281 3283 3284 3288 3292 3292 3292 3289 3281 3279 3252 3209 3146 3034 2679 0 0 0 0 0 1366 1364 1360 1360 1360 0 0 0 0 0 0 0 2648 2929 3092 3235 3367 3375 3377 3398 3406 3413 3432 3470 3472 3472 3473 3473 3473 3479 3481 3483 3486 3487 3487 3487 3487 3488 3490 3490 3490 3489 3486 3484 3483 3480 3479 3476 3476 3476 3476 3478 3481 3484 3485 3485 3486 3490 3494 3494 3495 3496 3498 3501 3503 3505 3507 3511 3513 3516 3518 3523 3526 3529 3534 3537 3540 3543 3545 3547 3549 3549 3550 3552 3553 3557 3562 3567 3571 3576 3579 3582 3586 3591 3594 3597 3602 3606 3609 3611 3613 3614 3616 3618 3619 3621 3622 3624 3625 3625 3628 3632 3637 3642 3647 3649 3650 3650 3653 3655 3656 3659 3661 3664 3666 3666 3666 3667 3667 3668 3669 3671 3671 3671 3671 3671 3673 3673 3675 3677 3678 3678 3678 3675 3672 3672 3672 3677 3684 3688 3689 3690 3690 3692 3695 3697 3697 3697 3697 3698 3699 3699 3699 3696 3691 3688 3684 3683 3683 3683 3680 3680 3674 3673 3672 3670 3667 3659 3657 3657 3657 3659 3659 3659 3659 3659 3659 3660 3662 3662 3662 3662 3660 3660 3652 3639 3633 3633 3632 3631 3631 3629 3626 3622 3618 3615 3610 3607 3602 3594 3586 3581 3579 3576 3575 3558 3554 3544 3533 3466 3109 2730 0 0 0 2215 2208 2185 2176 2175 2174 2174 2173 2169 2166 2165 2158 2156 2144 2135 2130 2128 2126 2126 2118 2112 2110 2110 2110 2111 2111 2113 2114 2114 2117 2118 2119 2120 2120 2120 2120 2120 2120 2120 2120 2119 2119 2117 2116 2114 2113 2111 2110 2109 2107 2107 2104 2103 2101 2100 2100 2100 2099 2097 2096 2095 2095 2094 2093 2091 2090 2088 2086 2085 2084 2082 2079 2077 2075 2073 2072 2071 2070 2067 2064 2062 2059 2054 2050 2048 2044 2042 2039 2036 2033 2029 2027 2026 2025 2023 2021 2019 2017 2016 2016 2014 2014 2013 2011 2010 2009 2008 2005 2003 2001 2000 1997 1996 1993 1992 1990 1989 1989 1989 1990 1990 1991 1991 1990 1990 1989 1989 1989 1990 1990 1990 1989 1989 1988 1988 1988 1988 1988 1988 1988 1989 1989 1990 1990 1990 1990 1992 1994 1995 1995 1995 1996 1995 1996 1996 1996 1997 1997 1998 1998 1998 1998 1998 1998 1998 1998 1998 1997 1996 1996 1995 1994 1993 1992 1992 1991 1991 1990 1990 1990 1989 1988 1988 1988 1988 1988 1988 1988 1988 1988 1988 1989 1989 1989 1987 1986 1985 1985 1983 1983 1983 1984 1984 1984 1982 1981 1981 1981 1981 1982 1982 1983 1983 1983 1981 1981 1977 1977 1977 1978 1979 1979 1979 1975 1975 1975 1976 1976 1977 1977 1977 1980 1983 1986 1987 1987 1988 1994 1994 1998 1998 1998 1998 1998 1998 2000 2007 2013 2013 2015 2015 2024 2032 2034 2037 2037 2037 2037 2035 2035 2034 2034 0 0 0 0 0 0 0 0
2692 2698 2698 2699 2709 2736 2745 2772 2797 2804 2815 2819 2824 2825 2828 2832 2848 2865 2876 2879 2890 2890 2891 2891 2895 2896 2896 2901 2908 2913 2923 2934 2937 2939 2941 2952 2961 2961 2962 2962 2962 2962 2962 2962 2966 2970 2981 2984 2989 2990 2992 2993 2993 2995 2996 2996 2996 2988 2976 2971 2963 2953 2946 2942 2942 2946 2950 2950 2950 2950 2950 2967 2978 2978 2978 2974 2973 2973 2974 2978 2978 2985 3008 3024 3040 3049 3066 3080 3087 3103 3117 3127 3129 3133 3133 3133 3133 3129 3129 3129 3129 3136 3140 3140 3140 3140 3140 3163 3191 3215 3230 3240 3246 3250 3261 3272 3278 3280 3280 3280 3280 3282 3289 3289 3289 3289 3278 3274 3238 3189 3113 2963 2660 0 0 0 0 1366 1364 1363 1355 1355 1355 1360 1364 1370 0 0 0 0 0 2761 3015 3221 3289 3364 3377 3395 3402 3409 3416 3460 3473 3474 3478 3479 3480 3482 3484 3488 3492 3492 3492 3491 3491 3491 3495 3495 3495 3495 3493 3491 3489 3485 3484 3482 3480 3480 3480 3483 3483 3485 3486 3489 3493 3494 3495 3495 3495 3496 3499 3501 3503 3506 3508 3511 3515 3518 3521 3526 3529 3531 3535 3539 3541 3544 3546 3549 3550 3550 3551 3552 3553 3558 3563 3568 3572 3576 3579 3582 3586 3591 3594 3597 3602 3606 3609 3611 3613 3614 3616 3617 3619 3621 3622 3624 3626 3626 3628 3631 3636 3639 3642 3643 3644 3646 3651 3654 3656 3658 3661 3664 3666 3666 3666 3667 3667 3668 3671 3671 3671 3673 3673 3673 3674 3675 3676 3677 3678 3678 3677 3675 3672 3672 3672 3677 3685 3690 3693 3694 3695 3696 3696 3697 3700 3700 3700 3700 3700 3699 3699 3698 3692 3688 3687 3686 3685 3685 3683 3680 3676 3674 3672 3671 3667 3665 3662 3662 3662 3662 3662 3660 3660 3660 3661 3663 3668 3668 3668 3666 3663 3660 3653 3644 3638 3638 3638 3638 3638 3634 3626 3622 3618 3615 3610 3607 3602 3594 3586 3581 3570 3570 3569 3552 3544 3533 3511 3260 2883 2543 0 0 2214 2208 2195 2185 2176 2176 2175 2175 2174 2170 2166 2162 2154 2151 2141 2131 2127 2125 2123 2119 2115 2111 2109 2109 2109 2109 2110 2111 2112 2113 2115 2116 2117 2118 2118 2119 2119 2118 2118 2118 2117 2117 2117 2116 2113 2112 2111 2109 2108 2107 2106 2105 2104 2102 2100 2099 2098 2098 2097 2094 2093 2092 2091 2090 2090 2089 2087 2086 2084 2082 2081 2079 2077 2074 2073 2071 2070 2068 2067 2064 2062 2059 2057 2052 2048 2045 2040 2039 2036 2032 2030 2028 2025 2024 2022 2020 2018 2016 2015 2015 2014 2013 2012 2011 2010 2009 2007 2005 2003 2002 2000 1998 1996 1994 1992 1990 1989 1988 1986 1986 1986 1987 1988 1988 1988 1988 1988 1988 1988 1988 1988 1987 1987 1987 1986 1986 1986 1986 1986 1986 1986 1987 1988 1988 1988 1988 1988 1989 1990 1990 1990 1990 1990 1990 1993 1993 1993 1995 1995 1995 1996 1996 1996 1996 1996 1996 1995 1994 1993 1993 1992 1992 1991 1991 1991 1991 1991 1990 1989 1988 1988 1987 1987 1987 1987 1987 1986 1986 1986 1986 1986 1987 1987 1987 1986 1984 1980 1979 1979 1977 1977 1977 1976 1976 1976 1975 1975 1975 1975 1977 1977 1979 1981 1981 1981 1978 1975 1974 1974 1974 1974 1975 1975 1975 1974 1974 1974 1974 1976 1976 1976 1976 1979 1983 1983 1987 1987 1987 1994 1994 1994 1999 1999 1999 2000 2000 2000 2007 2013 2013 2013 2013 2013 2013 2013 2020 2027 2031 2034 2034 2035 2035 2037 2038 2040 0 0 0 0 0 0
2692 2692 2692 2698 2709 2736 2745 2761 2795 2804 2813 2819 2823 2823 2826 2832 2848 2868 2882 2887 2890 2893 2894 2897 2897 2902 2907 2914 2919 2927 2933 2935 2939 2944 2948 2957 2961 2961 2962 2962 2962 2963 2964 2964 2966 2970 2972 2974 2976 2990 2992 2992 2992 2992 2991 2991 2991 2982 2972 2968 2962 2937 2923 2912 2912 2912 2934 2935 2935 2935 2937 2937 2953 2957 2960 2960 2961 2961 2962 2972 2978 2982 3000 3002 3018 3029 3043 3045 3054 3070 3086 3110 3116 3118 3121 3121 3121 3110 3110 3110 3110 3123 3123 3123 3126 3126 3126 3162 3184 3209 3221 3230 3241 3246 3257 3268 3274 3274 3274 3273 3273 3273 3278 3279 3279 3279 3277 3246 3214 3166 3082 2885 0 0 0 0 1368 1364 1360 1360 1351 1351 1351 1358 1361 1364 1386 0 0 0 0 0 2890 3116 3284 3361 3377 3391 3398 3398 3402 3455 3473 3474 3480 3484 3485 3485 3486 3490 3494 3494 3494 3494 3494 3495 3498 3499 3499 3499 3497 3496 3495 3493 3490 3490 3490 3490 3492 3493 3493 3494 3494 3494 3496 3496 3496 3496 3496 3497 3500 3503 3505 3507 3509 3511 3516 3523 3528 3531 3533 3535 3537 3541 3544 3545 3548 3550 3551 3551 3551 3552 3555 3558 3563 3568 3572 3576 3579 3582 3586 3591 3594 3596 3601 3603 3607 3610 3613 3614 3615 3615 3617 3619 3622 3624 3626 3627 3627 3631 3635 3639 3640 3640 3642 3645 3650 3653 3655 3658 3660 3664 3666 3666 3666 3667 3667 3669 3672 3672 3672 3673 3673 3675 3676 3677 3677 3677 3678 3678 3677 3676 3672 3672 3672 3676 3685 3690 3693 3697 3699 3699 3700 3700 3701 3701 3701 3701 3701 3700 3700 3699 3696 3689 3687 3687 3686 3685 3684 3680 3678 3674 3672 3671 3671 3671 3671 3671 3667 3667 3667 3664 3664 3664 3665 3669 3672 3672 3672 3666 3663 3660 3653 3649 3643 3643 3643 3642 3641 3635 3627 3622 3618 3613 3610 3607 3598 3585 3581 3576 3565 3559 3554 3552 3544 3533 3406 3122 2636 0 0 2219 2203 2201 2195 2185 2177 2177 2175 2175 2174 2170 2166 2160 2151 2149 2141 2131 2127 2122 2119 2116 2112 2110 2108 2107 2107 2107 2109 2110 2111 2112 2114 2114 2115 2116 2117 2117 2117 2117 2117 2117 2115 2115 2115 2113 2112 2111 2110 2108 2107 2106 2104 2104 2102 2100 2098 2097 2096 2095 2095 2094 2091 2089 2088 2087 2087 2085 2084 2082 2081 2079 2078 2077 2075 2073 2071 2069 2067 2065 2063 2062 2060 2058 2055 2051 2047 2042 2039 2035 2033 2030 2028 2026 2023 2021 2019 2018 2016 2014 2014 2014 2012 2011 2010 2010 2008 2007 2005 2003 2001 2000 1999 1997 1996 1992 1991 1989 1987 1986 1986 1984 1984 1984 1984 1986 1986 1986 1986 1986 1986 1985 1984 1984 1984 1984 1984 1983 1983 1983 1983 1983 1984 1984 1984 1985 1985 1985 1985 1985 1987 1987 1987 1985 1985 1985 1986 1988 1991 1991 1991 1992 1992 1993 1993 1993 1993 1993 1993 1991 1991 1991 1991 1990 1989 1989 1989 1989 1989 1987 1986 1986 1986 1986 1986 1985 1985 1985 1985 1984 1983 1982 1982 1981 1981 1980 1979 1978 1978 1977 1977 1977 1975 1974 1974 1974 1974 1972 1970 1970 1970 1972 1974 1975 1976 1976 1975 1974 1973 1973 1972 1969 1969 1969 1970 1971 1971 1971 1973 1974 1975 1976 1976 1976 1978 1983 1983 1984 1985 1987 1994 1994 1995 1999 1999 1999 2000 2000 2002 2008 2015 2015 2015 2013 2012 2012 2012 2015 2017 2023 2032 2033 2034 2035 2038 2044 2049 2049 2049 0 0 0 0
2689 2689 2707 2715 2723 2741 2745 2760 2783 2789 2797 2809 2819 2823 2826 2832 2848 2868 2883 2889 2890 2894 2896 2898 2902 2910 2916 2919 2925 2931 2935 2937 2942 2947 2953 2960 2961 2962 2962 2962 2964 2965 2965 2967 2968 2970 2972 2974 2976 2988 2991 2991 2991 2988 2986 2981 2977 2971 2970 2959 2946 2909 2907 2904 2904 2907 2909 2911 2918 2918 2919 2929 2939 2944 2950 2952 2952 2955 2957 2961 2965 2971 2979 2988 3000 3001 3031 3034 3044 3063 3077 3103 3113 3113 3113 3111 3107 3105 3105 3105 3106 3106 3107 3112 3115 3116 3126 3147 3178 3196 3201 3211 3222 3234 3244 3255 3262 3262 3262 3262 3261 3261 3261 3267 3267 3267 3258 3226 3191 3149 3056 2751 0 0 0 0 1367 1364 1359 1352 1350 1350 1350 1353 1357 1360 1369 0 0 0 0 0 2616 3086 3231 3269 3355 3377 3391 3393 3406 3406 3448 3473 3480 3490 3491 3491 3492 3494 3494 3494 3494 3496 3496 3497 3505 3505 3505 3504 3503 3503 3502 3502 3502 3502 3502 3505 3506 3506 3506 3502 3498 3498 3497 3498 3498 3500 3501 3501 3501 3504 3507 3508 3511 3513 3517 3523 3528 3531 3533 3535 3537 3541 3544 3546 3548 3550 3551 3552 3552 3554 3555 3558 3563 3568 3572 3576 3579 3582 3582 3587 3592 3593 3598 3601 3605 3609 3613 3614 3614 3614 3615 3617 3619 3622 3626 3627 3627 3631 3635 3639 3640 3640 3642 3645 3649 3653 3654 3657 3658 3663 3666 3667 3667 3668 3668 3670 3672 3672 3673 3674 3674 3676 3677 3677 3677 3677 3678 3678 3678 3678 3671 3671 3671 3676 3685 3690 3693 3697 3701 3702 3702 3703 3704 3704 3704 3703 3703 3702 3702 3700 3696 3690 3688 3688 3686 3686 3684 3683 3680 3678 3675 3675 3675 3675 3675 3676 3675 3675 3674 3669 3669 3669 3674 3677 3677 3677 3673 3669 3666 3663 3654 3650 3649 3647 3645 3644 3641 3638 3629 3622 3619 3613 3610 3607 3598 3585 3576 3571 3563 3554 3553 3552 3546 3517 3313 2825 0 0 0 2205 2201 2200 2191 2185 2177 2177 2175 2175 2174 2169 2162 2155 2151 2149 2141 2131 2127 2121 2117 2114 2110 2108 2106 2106 2106 2106 2107 2109 2111 2111 2112 2112 2113 2114 2115 2115 2115 2114 2114 2114 2114 2114 2113 2112 2111 2110 2108 2107 2104 2104 2102 2101 2100 2098 2096 2095 2094 2094 2093 2092 2090 2088 2086 2085 2083 2082 2080 2079 2077 2075 2074 2073 2072 2070 2067 2065 2063 2062 2060 2060 2059 2057 2054 2050 2045 2041 2037 2034 2031 2029 2027 2024 2022 2019 2018 2016 2015 2014 2013 2012 2011 2010 2009 2008 2007 2005 2003 2001 2000 1999 1997 1996 1994 1992 1990 1987 1986 1986 1985 1983 1982 1982 1982 1982 1982 1982 1982 1982 1982 1982 1982 1981 1981 1981 1981 1981 1981 1981 1982 1982 1982 1982 1982 1982 1982 1982 1983 1983 1983 1983 1983 1983 1981 1981 1981 1984 1984 1985 1985 1987 1990 1990 1990 1991 1991 1991 1989 1989 1989 1989 1989 1989 1989 1988 1988 1988 1987 1986 1984 1984 1984 1984 1983 1983 1983 1983 1983 1982 1979 1979 1979 1979 1978 1976 1975 1975 1975 1975 1975 1974 1974 1971 1971 1971 1970 1969 1969 1969 1969 1970 1971 1971 1971 1970 1968 1968 1968 1968 1968 1967 1966 1965 1965 1965 1966 1966 1968 1972 1975 1976 1976 1976 1978 1980 1983 1985 1987 1989 1994 1995 1995 1999 1999 1999 2000 2000 2004 2008 2015 2015 2015 2012 2010 2010 2010 2014 2017 2021 2030 2032 2032 2035 2038 2044 2049 2049 2049 2043 2041 0 0
2689 2689 2710 2726 2734 2741 2745 2760 2783 2789 2792 2797 2800 2813 2818 2831 2844 2868 2884 2889 2891 2894 2896 2902 2908 2912 2917 2920 2925 2931 2936 2943 2947 2953 2960 2964 2964 2964 2964 2964 2964 2965 2966 2968 2971 2972 2973 2974 2976 2982 2983 2983 2983 2976 2970 2968 2959 2959 2957 2942 2918 2890 2888 2865 2843 2842 2842 2843 2843 2861 2879 2916 2919 2919 2919 2912 2912 2912 2924 2925 2932 2961 2977 2983 2984 2989 3004 3011 3027 3043 3075 3088 3109 3109 3109 3087 3084 3084 3087 3087 3092 3095 3106 3109 3109 3111 3126 3144 3159 3176 3181 3183 3198 3218 3235 3240 3250 3250 3250 3247 3242 3240 3240 3240 3240 3240 3230 3209 3175 3129 3022 2586 0 0 0 1389 1366 1364 1359 1352 1350 1347 1347 1347 1347 1351 1351 1360 0 0 0 0 0 2863 3135 3203 3303 3369 3393 3395 3398 3404 3436 3464 3480 3490 3491 3491 3492 3494 3494 3494 3494 3496 3496 3497 3506 3509 3509 3509 3509 3509 3509 3509 3509 3515 3515 3515 3515 3515 3515 3511 3505 3501 3501 3501 3503 3507 3507 3507 3507 3507 3509 3510 3512 3515 3518 3523 3528 3532 3533 3535 3537 3541 3544 3547 3548 3550 3550 3552 3553 3555 3556 3558 3560 3566 3572 3576 3578 3579 3582 3584 3589 3593 3597 3601 3604 3608 3611 3613 3613 3614 3614 3616 3618 3620 3624 3627 3627 3629 3632 3637 3639 3640 3642 3645 3649 3652 3654 3655 3658 3662 3665 3668 3668 3669 3671 3672 3673 3673 3673 3674 3674 3676 3677 3677 3677 3675 3675 3675 3675 3675 3675 3671 3671 3671 3683 3689 3692 3697 3701 3702 3702 3703 3704 3706 3706 3706 3706 3705 3705 3702 3696 3690 3689 3689 3689 3689 3689 3689 3686 3681 3679 3679 3679 3681 3683 3685 3685 3685 3683 3677 3677 3677 3680 3684 3684 3684 3679 3674 3668 3663 3654 3651 3650 3649 3647 3644 3642 3639 3629 3622 3619 3613 3609 3606 3598 3585 3576 3571 3559 3558 3554 3553 3546 3490 3043 2596 0 0 2212 2196 2194 2191 2191 2185 2177 2175 2175 2173 2171 2169 2162 2155 2151 2149 2139 2134 2127 2121 2116 2113 2108 2105 2104 2104 2104 2104 2104 2105 2108 2109 2111 2111 2111 2112 2113 2113 2113 2113 2113 2112 2112 2112 2111 2111 2110 2108 2107 2104 2103 2102 2100 2100 2097 2095 2093 2092 2091 2091 2090 2089 2087 2085 2083 2083 2082 2079 2078 2076 2074 2073 2071 2070 2068 2066 2065 2062 2061 2059 2058 2057 2057 2054 2053 2048 2044 2040 2035 2033 2031 2027 2025 2021 2019 2017 2015 2015 2014 2014 2011 2011 2009 2008 2007 2006 2006 2004 2003 2001 1999 1997 1996 1994 1992 1991 1988 1986 1985 1984 1983 1982 1982 1980 1979 1978 1978 1978 1979 1979 1979 1979 1979 1979 1979 1980 1980 1980 1980 1980 1980 1980 1980 1980 1981 1980 1980 1980 1980 1980 1980 1980 1980 1980 1979 1979 1979 1980 1981 1981 1982 1984 1984 1986 1986 1987 1987 1987 1987 1987 1987 1987 1987 1987 1986 1986 1985 1985 1984 1984 1983 1983 1983 1983 1983 1982 1982 1982 1982 1978 1978 1978 1978 1978 1976 1974 1974 1973 1972 1972 1971 1970 1969 1968 1968 1967 1967 1965 1965 1965 1967 1970 1970 1970 1967 1964 1961 1961 1961 1963 1963 1963 1963 1961 1961 1961 1961 1961 1963 1967 1972 1975 1976 1976 1978 1980 1983 1985 1987 1990 1994 1995 1997 1999 1999 1999 2000 2000 2004 2008 2009 2012 2012 2012 2010 2010 2010 2012 2017 2019 2027 2030 2030 2030 2035 2044 2048 2048 2048 2044 2044 2044 2044
2691 2691 2710 2727 2735 2743 2747 2761 2783 2789 2792 2797 2800 2813 2818 2831 2844 2868 2886 2892 2895 2902 2907 2909 2910 2912 2919 2922 2926 2932 2940 2949 2953 2959 2965 2967 2968 2968 2968 2967 2967 2967 2967 2968 2971 2973 2975 2976 2976 2976 2976 2976 2975 2973 2970 2966 2951 2950 2943 2927 2896 2863 2857 2804 2804 2804 2823 2840 2840 2840 2843 2854 2854 2857 2857 2862 2868 2893 2910 2924 2926 2928 2939 2941 2952 2956 2956 2958 2969 3024 3065 3085 3085 3085 3085 3078 3078 3078 3078 3080 3083 3089 3090 3090 3097 3101 3116 3140 3156 3156 3158 3161 3178 3197 3216 3226 3233 3233 3233 3231 3225 3223 3223 3222 3222 3222 3219 3190 3152 3085 2986 0 0 0 0 1387 1366 1364 1358 1352 1351 1348 1347 1347 1347 1351 1351 1360 1379 0 0 0 0 2788 2953 3132 3239 3360 3376 3390 3393 3395 3421 3464 3480 3490 3491 3491 3491 3491 3491 3491 3492 3492 3496 3497 3506 3509 3509 3509 3509 3509 3511 3512 3517 3518 3519 3522 3522 3522 3521 3521 3515 3511 3510 3510 3510 3512 3512 3512 3510 3510 3510 3512 3514 3516 3519 3525 3526 3532 3533 3535 3537 3541 3545 3548 3549 3549 3550 3552 3554 3555 3556 3556 3559 3563 3567 3570 3574 3578 3581 3583 3588 3592 3596 3600 3604 3607 3609 3611 3611 3611 3612 3614 3616 3619 3622 3623 3624 3625 3629 3635 3638 3640 3643 3646 3649 3649 3650 3652 3655 3659 3663 3668 3668 3669 3671 3673 3673 3673 3674 3674 3674 3676 3676 3676 3675 3673 3673 3673 3675 3675 3675 3672 3672 3672 3674 3681 3687 3694 3698 3701 3702 3703 3704 3706 3706 3706 3706 3706 3706 3703 3697 3691 3690 3690 3690 3694 3694 3694 3692 3687 3684 3684 3684 3686 3691 3693 3693 3693 3687 3684 3684 3684 3686 3687 3687 3687 3685 3679 3673 3664 3654 3651 3650 3649 3648 3646 3642 3639 3632 3626 3619 3613 3608 3606 3601 3593 3582 3571 3571 3559 3558 3553 3546 3247 2807 0 0 0 2200 2194 2192 2190 2184 2175 2173 2173 2172 2171 2169 2166 2162 2155 2153 2147 2139 2134 2127 2120 2116 2112 2107 2103 2102 2102 2101 2101 2102 2103 2105 2107 2108 2109 2110 2111 2111 2111 2111 2111 2111 2111 2111 2110 2109 2107 2107 2106 2105 2103 2102 2100 2098 2097 2094 2092 2091 2090 2089 2088 2086 2085 2084 2082 2080 2078 2077 2075 2073 2072 2072 2071 2068 2066 2065 2063 2061 2060 2058 2056 2056 2055 2054 2052 2050 2045 2042 2037 2034 2031 2029 2026 2023 2020 2017 2013 2013 2013 2012 2012 2011 2009 2007 2006 2006 2005 2004 2002 2001 2000 1999 1997 1995 1993 1991 1989 1987 1985 1983 1981 1981 1981 1980 1979 1977 1975 1975 1975 1975 1975 1975 1975 1975 1975 1977 1978 1978 1978 1978 1978 1979 1979 1979 1979 1979 1979 1979 1979 1979 1978 1978 1977 1977 1977 1977 1978 1978 1978 1979 1980 1980 1980 1980 1980 1980 1980 1980 1981 1981 1983 1983 1983 1983 1983 1983 1983 1983 1983 1983 1983 1983 1982 1980 1978 1977 1977 1977 1977 1977 1977 1977 1975 1974 1973 1973 1971 1971 1971 1969 1968 1967 1967 1967 1965 1965 1963 1960 1960 1960 1961 1963 1963 1963 1963 1959 1958 1956 1956 1956 1957 1958 1958 1958 1959 1959 1959 1960 1960 1962 1965 1968 1972 1973 1976 1977 1980 1983 1985 1987 1992 1994 1995 1997 1999 1999 1999 1999 1999 2004 2005 2006 2008 2010 2010 2010 2010 2010 2012 2014 2019 2020 2020 2022 2023 2023 2025 2029 2037 2043 2044 2045 2045 2045
2691 2691 2711 2728 2741 2745 2753 2765 2776 2786 2792 2798 2800 2813 2818 2831 2844 2868 2883 2892 2895 2906 2910 2913 2919 2919 2921 2925 2930 2934 2944 2955 2961 2964 2968 2971 2972 2972 2972 2972 2969 2968 2968 2969 2971 2973 2975 2976 2976 2976 2971 2971 2970 2969 2969 2965 2951 2947 2936 2907 2869 2859 2753 2752 2752 2753 2756 2764 2777 2797 2799 2807 2807 2807 2813 2815 2844 2879 2880 2889 2891 2896 2912 2912 2925 2927 2954 2956 2956 3022 3052 3083 3084 3084 3084 3070 3069 3065 3065 3065 3072 3072 3075 3076 3076 3099 3116 3140 3147 3147 3147 3156 3156 3166 3169 3190 3193 3202 3203 3203 3203 3204 3204 3211 3212 3212 3212 3187 3152 3085 2968 0 0 0 0 1385 1363 1358 1356 1354 1352 1348 1346 1346 1346 1347 1351 1360 1377 0 0 0 0 0 2925 3074 3187 3291 3362 3371 3372 3386 3420 3457 3475 3479 3486 3486 3486 3480 3480 3480 3486 3488 3489 3495 3504 3509 3509 3509 3509 3509 3511 3512 3517 3518 3519 3522 3522 3523 3523 3522 3522 3522 3521 3521 3520 3517 3517 3516 3516 3516 3516 3516 3518 3520 3521 3526 3526 3532 3533 3535 3537 3541 3545 3549 3549 3549 3549 3551 3554 3554 3554 3555 3555 3557 3563 3569 3574 3578 3581 3582 3587 3589 3593 3596 3600 3605 3607 3607 3608 3609 3611 3613 3615 3617 3619 3621 3622 3622 3626 3632 3637 3640 3643 3646 3648 3648 3649 3650 3653 3656 3659 3664 3668 3669 3671 3673 3673 3673 3674 3674 3674 3674 3674 3674 3671 3671 3671 3671 3672 3674 3675 3675 3675 3676 3676 3679 3684 3693 3695 3695 3697 3699 3703 3704 3706 3706 3706 3706 3706 3703 3699 3695 3695 3695 3696 3696 3696 3694 3692 3689 3689 3689 3689 3693 3698 3698 3698 3695 3691 3689 3687 3687 3687 3689 3689 3689 3688 3683 3677 3670 3660 3657 3654 3651 3648 3646 3646 3642 3637 3632 3623 3613 3608 3605 3601 3600 3596 3581 3573 3561 3559 3558 3382 3025 2608 0 0 2225 2197 2189 2187 2184 2175 2174 2173 2173 2172 2171 2169 2166 2162 2156 2153 2147 2139 2134 2127 2120 2115 2111 2105 2101 2100 2100 2100 2101 2101 2101 2103 2106 2107 2108 2108 2109 2110 2110 2110 2110 2109 2109 2109 2107 2107 2106 2105 2104 2102 2101 2100 2099 2097 2094 2092 2091 2088 2087 2086 2084 2082 2081 2080 2079 2076 2074 2072 2071 2070 2069 2069 2067 2065 2063 2063 2061 2059 2057 2055 2054 2053 2051 2050 2048 2046 2042 2038 2035 2033 2030 2027 2024 2020 2017 2014 2011 2011 2011 2010 2010 2009 2008 2006 2005 2005 2004 2002 2002 2000 1999 1997 1995 1994 1992 1990 1988 1986 1984 1983 1980 1979 1979 1978 1977 1974 1973 1972 1971 1971 1971 1973 1973 1973 1974 1974 1976 1977 1977 1977 1977 1977 1978 1978 1978 1978 1978 1977 1977 1977 1977 1976 1974 1974 1974 1975 1976 1976 1977 1978 1978 1978 1979 1979 1979 1979 1978 1978 1978 1978 1980 1980 1980 1980 1980 1980 1980 1980 1980 1980 1980 1979 1978 1977 1975 1973 1973 1972 1972 1972 1971 1971 1971 1970 1968 1968 1968 1968 1968 1966 1964 1963 1962 1962 1962 1961 1956 1956 1956 1957 1957 1958 1958 1958 1957 1953 1952 1951 1951 1951 1953 1955 1956 1956 1956 1957 1958 1958 1959 1962 1965 1968 1970 1972 1974 1977 1980 1984 1987 1989 1992 1994 1995 1997 1999 1999 1999 2000 2000 2004 2004 2004 2004 2004 2004 2005 2006 2007 2012 2014 2019 2019 2019 2019 2019 2019 2019 2021 2024 2032 2034 2044 2044 2044
2691 2691 2714 2741 2758 2764 2765 2765 2776 2786 2798 2812 2823 2828 2845 2854 2860 2875 2886 2895 2899 2906 2914 2916 2920 2921 2921 2925 2931 2940 2955 2964 2964 2966 2968 2972 2976 2976 2976 2974 2970 2969 2969 2970 2971 2973 2974 2974 2974 2971 2971 2970 2969 2969 2967 2962 2951 2943 2925 2889 2847 2797 2745 2728 2728 2728 2728 2739 2739 2773 2776 2796 2796 2796 2796 2757 2757 2757 2784 2840 2874 2874 2879 2874 2871 2871 2906 2935 2939 2956 2990 3034 3038 3057 3063 3063 3063 3059 3059 3059 3059 3059 3059 3059 3059 3065 3091 3111 3111 3121 3133 3140 3148 3148 3149 3160 3171 3180 3191 3191 3195 3198 3199 3199 3202 3202 3202 3186 3152 3072 2943 0 0 0 0 1385 1363 1358 1355 1354 1352 1348 1346 1346 1346 1347 1352 1360 1376 0 0 0 0 0 0 2713 3144 3253 3292 3356 3364 3380 3408 3464 3466 3467 3475 3477 3477 3477 3477 3477 3478 3486 3487 3494 3501 3507 3507 3507 3507 3507 3511 3512 3517 3518 3519 3522 3526 3528 3531 3531 3531 3531 3531 3531 3530 3524 3522 3522 3522 3522 3524 3528 3528 3528 3528 3528 3528 3532 3533 3535 3537 3541 3545 3549 3549 3549 3549 3551 3553 3553 3553 3554 3555 3557 3563 3569 3574 3577 3580 3582 3586 3589 3591 3594 3598 3602 3605 3606 3606 3608 3608 3611 3614 3617 3618 3620 3621 3622 3625 3630 3636 3639 3643 3646 3647 3647 3647 3648 3651 3653 3656 3658 3661 3666 3670 3673 3673 3673 3673 3672 3671 3671 3670 3670 3668 3668 3668 3668 3668 3671 3675 3678 3678 3679 3679 3679 3679 3687 3690 3693 3694 3697 3700 3702 3703 3703 3706 3706 3706 3704 3701 3700 3699 3699 3698 3697 3696 3694 3692 3690 3690 3690 3691 3694 3700 3700 3700 3695 3691 3690 3689 3689 3689 3690 3690 3690 3689 3685 3681 3676 3670 3665 3661 3657 3656 3651 3646 3644 3640 3635 3628 3617 3608 3605 3602 3601 3596 3581 3573 3562 3559 3495 3202 2760 0 0 2241 2213 2189 2187 2183 2177 2175 2174 2173 2173 2172 2170 2169 2166 2162 2157 2153 2147 2139 2131 2126 2119 2114 2107 2101 2100 2099 2099 2099 2099 2100 2101 2102 2103 2106 2107 2107 2107 2108 2108 2107 2107 2107 2107 2106 2105 2105 2103 2103 2102 2101 2099 2099 2097 2094 2093 2090 2089 2086 2085 2082 2081 2078 2078 2076 2075 2072 2069 2069 2068 2068 2066 2066 2064 2063 2061 2060 2058 2057 2055 2054 2052 2050 2048 2046 2045 2042 2039 2036 2032 2029 2027 2024 2020 2018 2015 2013 2011 2010 2009 2009 2008 2008 2006 2005 2004 2003 2003 2001 2000 1999 1998 1996 1995 1993 1991 1989 1988 1986 1983 1981 1979 1979 1977 1977 1976 1972 1972 1971 1969 1969 1969 1969 1970 1970 1971 1971 1972 1975 1976 1976 1977 1977 1977 1977 1977 1977 1976 1976 1976 1976 1975 1973 1973 1972 1972 1972 1973 1973 1974 1975 1975 1976 1976 1977 1977 1977 1976 1976 1976 1976 1976 1976 1976 1976 1975 1975 1975 1975 1975 1975 1974 1974 1974 1973 1973 1973 1972 1970 1966 1966 1966 1966 1966 1966 1964 1964 1964 1964 1964 1961 1960 1959 1958 1958 1956 1955 1954 1951 1951 1951 1952 1953 1953 1953 1951 1949 1949 1949 1949 1949 1949 1950 1950 1952 1954 1955 1955 1956 1958 1961 1965 1968 1970 1971 1973 1976 1980 1984 1987 1989 1992 1994 1995 1997 1998 1998 1999 1999 2000 2003 2004 2004 2004 2003 2003 2003 2003 2006 2009 2014 2018 2019 2019 2019 2016 2016 2016 2016 2019 2029 2031 2040 2044 2044
2694 2694 2725 2750 2761 2765 2766 2769 2774 2783 2803 2826 2834 2850 2863 2865 2872 2876 2886 2895 2899 2906 2919 2921 2922 2922 2927 2936 2943 2950 2960 2966 2966 2967 2970 2973 2976 2976 2976 2975 2972 2971 2971 2971 2971 2972 2972 2972 2972 2971 2971 2970 2969 2969 2967 2962 2951 2941 2904 2852 2797 2786 2639 2528 2528 2528 2537 2587 2655 2712 2712 2712 2712 2731 2706 2706 2714 2714 2714 2802 2813 2813 2812 2802 2812 2812 2855 2858 2887 2923 2961 3020 3021 3029 3029 3020 2985 2985 2985 2999 3003 3027 3027 3035 3045 3055 3060 3062 3069 3076 3112 3139 3145 3146 3147 3153 3170 3170 3170 3169 3164 3164 3164 3169 3171 3171 3171 3170 3138 3066 2932 0 0 0 0 1381 1362 1358 1354 1354 1352 1347 1346 1346 1346 1347 1352 1360 1365 1369 0 0 0 0 0 2664 3019 3145 3259 3297 3348 3365 3408 3464 3464 3464 3459 3459 3459 3467 3467 3472 3474 3475 3482 3491 3496 3498 3499 3500 3501 3502 3506 3509 3510 3511 3513 3519 3526 3529 3531 3531 3531 3537 3537 3537 3537 3533 3530 3530 3530 3530 3533 3534 3534 3534 3534 3532 3532 3532 3533 3538 3539 3541 3545 3549 3549 3549 3549 3551 3551 3552 3553 3554 3555 3557 3563 3569 3574 3577 3580 3582 3585 3588 3591 3593 3596 3598 3600 3602 3603 3605 3607 3609 3613 3615 3616 3617 3617 3621 3625 3629 3632 3636 3642 3644 3645 3646 3646 3646 3648 3649 3650 3650 3651 3655 3662 3664 3668 3668 3668 3668 3668 3667 3667 3666 3666 3665 3665 3666 3666 3669 3675 3679 3681 3681 3681 3681 3681 3683 3690 3693 3693 3695 3698 3700 3700 3700 3703 3705 3705 3705 3704 3702 3702 3699 3698 3698 3696 3694 3693 3692 3692 3692 3694 3698 3700 3700 3700 3695 3693 3693 3693 3693 3693 3694 3694 3694 3692 3688 3683 3682 3675 3668 3665 3664 3661 3654 3648 3647 3644 3641 3634 3626 3613 3605 3602 3601 3596 3581 3580 3573 3566 3389 2887 2516 0 0 2224 2199 2189 2185 2180 2177 2175 2175 2174 2173 2172 2170 2168 2166 2164 2158 2151 2145 2136 2129 2122 2117 2110 2105 2100 2098 2097 2097 2097 2098 2099 2100 2101 2102 2104 2105 2106 2106 2106 2106 2106 2105 2105 2104 2104 2102 2102 2101 2099 2098 2097 2096 2096 2095 2092 2090 2089 2086 2085 2082 2080 2078 2075 2074 2071 2070 2068 2066 2065 2065 2064 2064 2062 2062 2060 2059 2058 2055 2054 2052 2051 2049 2046 2043 2043 2041 2038 2034 2032 2028 2027 2023 2021 2018 2016 2013 2012 2010 2009 2007 2007 2007 2006 2005 2004 2003 2002 2001 2000 1999 1997 1996 1995 1993 1992 1991 1988 1987 1985 1983 1981 1979 1978 1976 1975 1975 1972 1969 1968 1968 1967 1966 1966 1967 1968 1969 1969 1970 1972 1975 1975 1975 1976 1976 1976 1975 1975 1975 1975 1975 1975 1973 1972 1971 1970 1970 1970 1971 1971 1972 1973 1973 1974 1974 1975 1975 1975 1975 1974 1974 1974 1974 1973 1973 1973 1972 1972 1972 1971 1971 1971 1971 1970 1970 1970 1969 1969 1968 1967 1964 1962 1962 1961 1961 1961 1961 1960 1960 1960 1960 1956 1956 1955 1954 1954 1953 1949 1949 1948 1948 1947 1947 1947 1947 1947 1944 1944 1944 1945 1946 1946 1947 1947 1947 1949 1951 1952 1952 1954 1957 1961 1965 1967 1970 1971 1973 1975 1980 1984 1987 1989 1992 1994 1995 1997 1997 1998 1999 1999 2000 2001 2002 2003 2003 2003 2003 2003 2003 2005 2007 2012 2017 2019 2019 2019 2016 2014 2011 2011 2011 2023 2028 2030 2031 2031
2714 2714 2745 2761 2764 2767 2767 2771 2774 2783 2806 2826 2837 2854 2863 2865 2872 2878 2886 2894 2897 2906 2921 2924 2927 2933 2938 2949 2958 2962 2964 2967 2967 2967 2971 2974 2977 2977 2977 2977 2976 2974 2971 2971 2971 2972 2972 2972 2972 2973 2971 2970 2968 2967 2963 2954 2946 2918 2873 2806 2735 2718 2528 2127 0 0 0 0 0 0 0 0 0 0 0 0 0 0 0 0 0 2501 2643 2653 2712 2721 2842 2845 2854 2859 2870 2936 2973 2995 2995 2995 2962 2952 2952 2952 2958 2972 2978 2985 2986 3000 3014 3023 3030 3041 3072 3129 3133 3134 3142 3148 3148 3151 3151 3150 3150 3151 3152 3162 3163 3170 3170 3170 3138 3066 2968 0 0 0 0 1376 1356 1352 1351 1350 1348 1344 1344 1344 1344 1345 1352 1359 1359 1361 1370 0 0 0 0 0 2655 3125 3181 3262 3279 3363 3406 3430 3438 3438 3438 3438 3445 3451 3458 3463 3465 3465 3472 3477 3482 3483 3486 3491 3495 3501 3503 3506 3507 3507 3513 3518 3525 3529 3531 3531 3531 3537 3542 3542 3542 3542 3541 3541 3541 3541 3540 3540 3541 3539 3539 3537 3537 3537 3537 3541 3544 3545 3547 3548 3549 3549 3550 3551 3551 3552 3553 3554 3555 3559 3565 3571 3574 3577 3579 3582 3585 3588 3589 3592 3593 3594 3595 3596 3599 3603 3605 3608 3612 3613 3613 3614 3614 3619 3624 3626 3627 3629 3632 3635 3637 3640 3640 3641 3641 3641 3642 3643 3643 3646 3651 3657 3659 3661 3663 3664 3664 3664 3663 3663 3663 3664 3664 3665 3665 3669 3673 3678 3681 3681 3681 3681 3681 3681 3690 3693 3693 3694 3697 3697 3697 3698 3702 3704 3705 3705 3705 3704 3702 3701 3699 3698 3696 3694 3694 3694 3695 3698 3700 3701 3701 3701 3701 3697 3697 3697 3697 3698 3698 3698 3698 3698 3694 3689 3686 3685 3679 3671 3668 3668 3667 3660 3652 3648 3644 3642 3640 3634 3628 3616 3609 3600 3595 3580 3580 3567 3513 3092 2653 0 0 2222 2204 2198 2189 2185 2179 2177 2176 2176 2175 2173 2172 2170 2168 2166 2164 2160 2151 2145 2136 2129 2122 2115 2109 2105 2100 2098 2096 2096 2096 2096 2097 2099 2100 2100 2102 2103 2103 2104 2104 2104 2104 2104 2102 2102 2102 2101 2099 2098 2097 2096 2094 2094 2093 2091 2090 2088 2086 2084 2082 2079 2077 2075 2072 2071 2069 2067 2065 2063 2063 2063 2061 2061 2059 2059 2057 2055 2054 2052 2050 2049 2047 2046 2044 2041 2039 2037 2033 2031 2027 2025 2024 2022 2019 2017 2013 2012 2011 2009 2008 2007 2006 2005 2004 2004 2002 2000 2000 1999 1999 1997 1996 1995 1993 1992 1991 1989 1988 1987 1984 1983 1981 1978 1977 1975 1973 1972 1970 1968 1967 1965 1965 1965 1965 1965 1965 1966 1967 1967 1970 1971 1973 1974 1974 1974 1974 1974 1974 1974 1974 1974 1974 1972 1971 1970 1969 1969 1969 1969 1969 1969 1969 1970 1971 1973 1973 1973 1972 1972 1971 1971 1971 1971 1970 1970 1969 1969 1969 1969 1968 1967 1967 1967 1967 1967 1965 1964 1963 1963 1961 1960 1958 1958 1957 1957 1957 1957 1957 1956 1956 1955 1952 1951 1951 1950 1949 1949 1948 1946 1944 1942 1942 1942 1942 1942 1942 1938 1938 1938 1940 1942 1943 1943 1945 1946 1947 1949 1949 1950 1953 1956 1960 1964 1967 1969 1971 1972 1975 1978 1982 1985 1989 1990 1993 1994 1995 1996 1997 1997 1997 1998 2000 2001 2003 2003 2003 2003 2003 2003 2005 2007 2011 2015 2018 2018 2018 2018 2014 2010 2010 2010 2011 2012 2013 2013 2015
2736 2736 2754 2764 2770 2770 2771 2772 2774 2783 2806 2829 2837 2854 2863 2865 2872 2878 2886 2894 2897 2906 2921 2928 2933 2941 2945 2951 2958 2962 2968 2970 2970 2972 2976 2978 2978 2978 2978 2977 2977 2974 2973 2973 2972 2972 2972 2972 2972 2973 2972 2972 2968 2959 2948 2937 2934 2897 2845 2778 2695 2653 2065 1702 0 0 0 0 0 0 0 0 0 0 0 0 0 0 0 0 0 0 0 0 0 0 0 0 0 2572 2697 2890 2925 2959 2959 2959 2939 2914 2902 2891 2891 2891 2923 2929 2931 2952 2952 2953 2962 2997 3027 3056 3069 3070 3071 3104 3133 3140 3140 3147 3148 3150 3151 3151 3151 3150 3149 3148 3102 3061 2964 2568 0 0 0 1376 1348 1347 1347 1345 1345 1342 1342 1342 1344 1345 1347 1349 1351 1352 1363 1384 0 0 0 0 0 2884 3137 3169 3232 3300 3403 3405 3416 3422 3434 3434 3435 3448 3449 3449 3452 3452 3459 3465 3466 3472 3475 3482 3487 3493 3500 3504 3505 3505 3508 3513 3520 3528 3529 3529 3530 3538 3544 3545 3545 3550 3551 3551 3551 3551 3547 3544 3544 3544 3544 3545 3547 3547 3550 3550 3550 3548 3548 3548 3549 3549 3550 3551 3552 3553 3554 3555 3556 3563 3569 3572 3574 3577 3579 3581 3583 3583 3585 3589 3590 3591 3592 3593 3598 3600 3603 3606 3610 3610 3611 3611 3611 3613 3620 3620 3620 3622 3622 3624 3628 3632 3634 3636 3636 3636 3637 3637 3637 3642 3646 3650 3651 3652 3654 3658 3658 3658 3659 3659 3660 3663 3664 3664 3664 3667 3672 3676 3681 3681 3681 3680 3680 3680 3690 3693 3693 3693 3694 3696 3696 3696 3700 3703 3705 3705 3705 3705 3703 3701 3699 3698 3696 3696 3696 3696 3700 3704 3706 3706 3706 3704 3702 3702 3702 3702 3703 3703 3703 3703 3702 3698 3695 3690 3686 3685 3680 3674 3672 3671 3668 3661 3652 3648 3644 3642 3640 3634 3628 3618 3609 3595 3583 3580 3580 3567 3234 2804 0 0 0 2217 2204 2196 2188 2185 2179 2177 2176 2176 2175 2173 2172 2170 2168 2166 2164 2160 2150 2145 2136 2129 2122 2115 2108 2104 2099 2096 2094 2094 2094 2095 2096 2097 2098 2100 2100 2101 2102 2102 2102 2102 2102 2102 2101 2100 2099 2099 2098 2097 2094 2093 2091 2089 2088 2088 2086 2085 2083 2080 2078 2076 2074 2072 2070 2068 2066 2065 2063 2062 2060 2060 2059 2058 2057 2055 2054 2052 2051 2048 2046 2045 2044 2042 2040 2038 2036 2033 2031 2028 2025 2023 2021 2020 2016 2015 2011 2009 2007 2007 2006 2005 2004 2003 2003 2002 2001 1999 1998 1997 1997 1997 1995 1994 1993 1992 1990 1988 1986 1985 1984 1982 1980 1978 1975 1973 1971 1968 1967 1966 1963 1963 1962 1962 1962 1962 1963 1964 1964 1965 1966 1969 1971 1973 1974 1974 1974 1972 1971 1971 1971 1971 1971 1970 1970 1968 1967 1967 1967 1967 1967 1967 1968 1968 1969 1970 1970 1970 1969 1968 1968 1968 1968 1968 1967 1967 1967 1967 1966 1966 1966 1965 1965 1964 1964 1964 1962 1961 1959 1958 1958 1956 1954 1954 1953 1953 1953 1953 1952 1951 1951 1951 1949 1948 1948 1947 1947 1945 1943 1942 1941 1939 1939 1938 1938 1938 1937 1936 1935 1935 1935 1936 1937 1939 1941 1942 1943 1945 1948 1949 1952 1956 1960 1963 1964 1966 1969 1972 1975 1978 1981 1984 1985 1989 1991 1992 1994 1994 1995 1995 1996 1997 1999 2001 2002 2002 2002 2002 2002 2003 2004 2005 2011 2015 2017 2018 2018 2018 2014 2010 2007 2006 2002 2000 2000 2002 2002
2736 2736 2754 2764 2770 2772 2776 2777 2785 2785 2812 2831 2837 2854 2859 2863 2869 2878 2886 2895 2899 2907 2921 2931 2938 2943 2950 2955 2958 2962 2969 2976 2979 2982 2983 2983 2983 2980 2979 2977 2977 2976 2973 2973 2973 2973 2973 2973 2973 2973 2972 2972 2964 2951 2937 2936 2916 2873 2826 2747 2671 0 0 0 0 0 0 0 0 0 0 0 0 0 0 0 0 0 0 0 0 0 0 0 0 0 0 0 0 0 0 0 0 2700 2701 2827 2829 2831 2831 2831 2827 2827 2827 2844 2856 2903 2936 2940 2949 2953 2988 3000 3002 3002 3010 3012 3032 3065 3065 3065 3065 3065 3065 3103 3127 3127 3127 3123 3091 3053 2917 2644 0 0 0 1368 1348 1345 1344 1344 1343 1342 1342 1342 1343 1344 1346 1349 1349 1352 1359 1373 1391 0 0 0 0 0 2820 2997 3171 3221 3249 3333 3400 3414 3420 3423 3433 3437 3437 3437 3432 3432 3432 3442 3451 3463 3466 3470 3475 3483 3491 3496 3496 3499 3500 3502 3511 3515 3520 3523 3529 3537 3544 3545 3545 3550 3551 3551 3553 3553 3553 3551 3551 3551 3555 3555 3555 3556 3559 3559 3559 3554 3549 3549 3549 3550 3550 3553 3559 3559 3559 3562 3563 3565 3571 3572 3573 3573 3576 3576 3576 3578 3582 3585 3589 3590 3591 3593 3595 3597 3601 3606 3606 3607 3607 3607 3607 3608 3613 3614 3614 3614 3615 3615 3622 3627 3628 3632 3633 3634 3634 3635 3636 3639 3643 3644 3644 3644 3646 3647 3651 3653 3653 3654 3658 3661 3662 3662 3663 3665 3667 3670 3673 3675 3676 3677 3677 3680 3689 3693 3693 3693 3693 3693 3694 3695 3698 3702 3705 3705 3705 3705 3704 3702 3701 3701 3700 3700 3700 3702 3703 3706 3707 3707 3707 3704 3703 3703 3703 3705 3706 3706 3706 3706 3705 3700 3695 3690 3687 3685 3682 3678 3676 3674 3670 3661 3653 3648 3643 3642 3640 3634 3628 3618 3609 3593 3583 3578 3567 3517 3017 2607 0 0 2235 2216 2203 2191 2188 2183 2179 2176 2176 2176 2173 2172 2171 2169 2168 2166 2164 2160 2150 2145 2138 2131 2124 2114 2106 2101 2098 2094 2093 2093 2093 2093 2095 2096 2097 2099 2099 2100 2100 2101 2101 2101 2101 2101 2100 2099 2097 2097 2096 2094 2093 2091 2088 2086 2086 2084 2084 2082 2080 2078 2075 2072 2071 2070 2068 2065 2064 2062 2061 2059 2057 2057 2055 2055 2054 2053 2052 2050 2047 2046 2043 2042 2040 2037 2037 2035 2033 2030 2028 2025 2023 2020 2019 2017 2014 2011 2009 2007 2006 2005 2004 2003 2003 2002 2001 2000 1999 1998 1997 1996 1995 1995 1994 1993 1991 1990 1989 1987 1986 1984 1982 1980 1979 1976 1974 1971 1969 1967 1966 1964 1962 1960 1960 1960 1960 1960 1961 1961 1962 1963 1965 1967 1968 1971 1972 1972 1972 1971 1969 1969 1969 1969 1969 1968 1968 1966 1966 1965 1965 1965 1965 1965 1965 1965 1966 1966 1967 1967 1967 1966 1966 1965 1965 1965 1965 1965 1965 1964 1964 1965 1965 1964 1964 1962 1961 1960 1960 1957 1955 1954 1954 1953 1951 1950 1948 1948 1948 1948 1947 1947 1947 1946 1945 1945 1944 1944 1944 1943 1940 1939 1939 1938 1937 1937 1937 1935 1934 1934 1934 1934 1934 1934 1934 1935 1938 1939 1942 1943 1946 1948 1950 1954 1957 1958 1960 1963 1967 1970 1973 1977 1980 1982 1983 1987 1988 1990 1991 1993 1993 1994 1994 1996 1999 2000 2001 2001 2002 2002 2002 2003 2004 2004 2005 2010 2013 2015 2015 2015 2014 2010 2010 2006 1999 1997 1996 1995 1995
2736 2736 2754 2756 2770 2772 2785 2788 2788 2795 2816 2831 2837 2851 2855 2862 2869 2871 2886 2897 2900 2911 2921 2931 2941 2946 2950 2955 2958 2961 2969 2980 2983 2985 2985 2985 2985 2985 2982 2981 2979 2976 2973 2973 2973 2975 2975 2975 2975 2972 2972 2966 2953 2937 2922 2920 2903 2850 2785 2688 0 0 0 0 1298 1280 1277 1276 1274 1274 1274 1274 1275 1276 1278 1282 1283 1283 1284 1284 0 0 0 0 0 0 0 0 0 0 0 0 0 0 0 0 0 0 0 2608 2609 2810 2810 2810 2826 2810 2830 2852 2859 2905 2928 2935 2968 2968 2997 3003 3007 3042 3042 3042 3017 3017 3017 3035 3050 3057 3057 3057 3027 2997 2917 2644 0 0 0 0 1348 1345 1342 1340 1340 1340 1341 1341 1343 1344 1346 1347 1348 1351 1357 1363 1370 0 0 0 0 0 0 2884 2996 3161 3173 3259 3347 3413 3414 3422 3425 3425 3422 3420 3420 3420 3420 3426 3441 3451 3457 3460 3460 3464 3475 3484 3484 3484 3484 3484 3491 3500 3514 3520 3527 3537 3544 3544 3545 3550 3551 3551 3553 3553 3553 3551 3551 3551 3555 3555 3563 3565 3566 3566 3566 3559 3550 3550 3550 3550 3554 3563 3567 3567 3567 3565 3565 3565 3571 3571 3571 3571 3571 3571 3572 3572 3578 3582 3585 3586 3587 3589 3591 3594 3597 3598 3599 3600 3602 3603 3603 3605 3606 3606 3606 3607 3609 3610 3615 3619 3623 3629 3629 3629 3629 3632 3634 3635 3636 3636 3636 3636 3636 3639 3641 3644 3648 3651 3655 3656 3658 3658 3658 3658 3659 3663 3667 3671 3672 3673 3674 3680 3688 3692 3692 3692 3692 3692 3692 3692 3697 3701 3704 3705 3705 3705 3705 3704 3704 3701 3700 3700 3700 3702 3703 3706 3707 3707 3707 3704 3704 3704 3704 3705 3707 3708 3708 3708 3707 3702 3697 3691 3687 3686 3682 3682 3681 3676 3670 3661 3653 3649 3643 3641 3637 3632 3625 3618 3603 3593 3583 3577 3567 3213 2734 0 0 0 2212 2200 2196 2191 2185 2181 2178 2176 2175 2173 2172 2171 2169 2168 2166 2165 2163 2158 2151 2146 2140 2131 2124 2114 2103 2097 2094 2092 2092 2092 2092 2093 2093 2095 2097 2097 2098 2098 2098 2099 2100 2100 2100 2100 2099 2097 2095 2095 2094 2093 2090 2089 2086 2084 2082 2081 2080 2079 2078 2075 2072 2069 2068 2066 2065 2063 2061 2059 2058 2057 2056 2054 2053 2052 2052 2052 2050 2048 2045 2042 2041 2039 2037 2034 2032 2032 2030 2028 2024 2022 2020 2018 2016 2014 2011 2009 2008 2006 2003 2002 2001 2001 2001 2000 1999 1998 1997 1997 1996 1995 1995 1994 1993 1991 1990 1988 1988 1986 1984 1983 1981 1979 1977 1976 1973 1970 1968 1967 1965 1963 1960 1958 1957 1957 1957 1960 1960 1960 1960 1961 1963 1965 1966 1967 1968 1968 1968 1968 1968 1967 1966 1966 1966 1966 1965 1964 1964 1964 1964 1964 1963 1964 1964 1964 1964 1964 1964 1964 1964 1964 1963 1963 1962 1962 1962 1962 1962 1962 1962 1963 1963 1963 1962 1960 1959 1958 1957 1955 1954 1953 1951 1950 1949 1947 1944 1944 1944 1944 1944 1942 1940 1940 1940 1940 1940 1939 1938 1937 1935 1935 1935 1935 1936 1936 1936 1933 1933 1931 1931 1931 1931 1933 1933 1934 1936 1937 1940 1943 1945 1948 1949 1952 1953 1955 1958 1960 1964 1969 1972 1976 1979 1980 1982 1985 1987 1988 1990 1991 1992 1993 1994 1995 1997 1999 2001 2001 2003 2003 2003 2003 2004 2003 2004 2005 2008 2011 2014 2014 2014 2010 2010 2004 1999 1997 1996 1995 1995
2730 2730 2747 2749 2768 2778 2786 2788 2800 2814 2831 2833 2838 2845 2853 2859 2861 2869 2886 2897 2904 2917 2927 2934 2942 2946 2950 2955 2956 2961 2971 2981 2984 2986 2986 2986 2986 2986 2983 2982 2980 2977 2973 2973 2973 2976 2976 2976 2975 2970 2963 2950 2936 2919 2904 2903 2882 2825 2728 2594 0 0 0 0 1287 1275 1272 1271 1271 1272 1272 1273 1274 1274 1274 1275 1277 1278 1281 1283 1283 0 0 0 0 0 0 0 0 0 0 0 0 0 0 0 0 0 0 0 0 0 2549 2718 2796 2796 2796 2813 2813 2857 2862 2891 2913 2913 2913 2914 2925 2975 2990 2990 2994 2994 2994 3000 3028 3040 3040 3040 2962 2932 2840 2644 0 0 0 0 1354 1344 1342 1340 1339 1339 1341 1341 1343 1344 1346 1346 1348 1349 1356 1362 1369 1373 0 0 0 0 0 0 2856 2858 3001 3249 3281 3379 3405 3409 3412 3409 3409 3412 3413 3413 3414 3421 3424 3429 3438 3447 3448 3450 3455 3463 3463 3465 3466 3466 3467 3478 3491 3515 3526 3534 3536 3536 3537 3537 3542 3546 3553 3553 3553 3551 3551 3551 3555 3555 3563 3565 3569 3569 3569 3566 3556 3556 3556 3556 3564 3570 3574 3574 3574 3571 3571 3571 3571 3571 3571 3571 3571 3571 3571 3572 3577 3582 3582 3583 3584 3585 3588 3590 3593 3593 3594 3594 3598 3600 3600 3600 3600 3600 3600 3602 3603 3607 3609 3613 3620 3621 3623 3624 3624 3625 3626 3626 3626 3627 3627 3628 3628 3628 3631 3637 3641 3648 3651 3651 3651 3651 3651 3651 3651 3651 3655 3663 3666 3667 3669 3675 3683 3690 3691 3691 3691 3691 3691 3691 3696 3701 3703 3703 3704 3704 3704 3704 3704 3701 3700 3700 3700 3702 3703 3706 3706 3706 3705 3704 3704 3704 3705 3706 3708 3709 3709 3709 3707 3703 3699 3694 3687 3686 3685 3684 3683 3676 3670 3661 3653 3647 3643 3641 3629 3621 3608 3603 3602 3593 3578 3577 3481 2914 2530 0 0 2215 2198 2190 2187 2185 2180 2179 2178 2177 2175 2173 2172 2171 2169 2168 2165 2164 2162 2158 2151 2146 2141 2131 2124 2114 2103 2097 2093 2091 2091 2091 2092 2092 2092 2094 2094 2095 2096 2097 2097 2098 2098 2098 2098 2097 2096 2096 2093 2093 2092 2090 2088 2086 2085 2082 2081 2078 2077 2075 2074 2071 2070 2067 2065 2063 2062 2061 2059 2056 2055 2054 2053 2053 2052 2051 2050 2049 2048 2045 2041 2039 2038 2036 2034 2031 2029 2028 2026 2024 2023 2020 2017 2015 2013 2010 2009 2008 2005 2004 2001 2000 1999 1998 1998 1998 1997 1997 1996 1994 1993 1992 1992 1991 1990 1988 1988 1987 1986 1985 1983 1981 1980 1977 1976 1973 1972 1969 1968 1966 1964 1962 1958 1956 1954 1954 1954 1955 1957 1958 1959 1960 1961 1963 1963 1964 1965 1966 1966 1966 1965 1964 1964 1964 1964 1964 1964 1963 1962 1962 1962 1962 1962 1962 1962 1962 1962 1962 1962 1962 1962 1961 1961 1960 1960 1960 1960 1960 1959 1960 1960 1960 1960 1960 1959 1957 1957 1955 1955 1953 1950 1950 1948 1947 1946 1944 1943 1941 1941 1940 1939 1939 1937 1937 1936 1936 1935 1934 1932 1932 1932 1932 1932 1932 1932 1932 1932 1931 1929 1928 1928 1928 1930 1930 1933 1934 1935 1937 1940 1942 1944 1947 1948 1950 1950 1953 1956 1959 1963 1967 1971 1975 1978 1978 1980 1984 1986 1988 1989 1990 1990 1992 1993 1995 1996 1999 2000 2000 2002 2004 2004 2004 2002 2002 2002 2002 2003 2006 2010 2010 2010 2010 2010 2004 2002 1997 1996 1995 1995
2730 2730 2735 2747 2768 2778 2786 2788 2803 2816 2836 2840 2841 2845 2852 2857 2859 2868 2885 2897 2904 2917 2927 2934 2942 2946 2946 2953 2956 2961 2971 2982 2986 2986 2987 2987 2986 2986 2983 2983 2980 2977 2973 2973 2973 2976 2976 2976 2975 2967 2953 2940 2919 2914 2903 2889 2867 2818 2723 2592 0 0 0 0 1286 1274 1271 1270 1270 1270 1270 1272 1273 1273 1273 1274 1274 1277 1280 1280 1280 1280 1280 1280 1282 1290 1290 1290 1287 0 0 0 0 0 0 0 0 0 0 0 0 0 0 0 0 0 2565 2588 2620 2620 2660 2760 2829 2829 2864 2904 2913 2923 2948 2948 2948 2907 2907 2907 2990 2990 2990 2936 2878 2848 2708 2644 0 0 0 0 1354 1344 1340 1338 1338 1338 1338 1339 1342 1343 1344 1346 1347 1349 1354 1361 1365 1371 1379 0 0 0 0 0 0 0 2930 3173 3242 3362 3363 3399 3399 3399 3387 3387 3387 3401 3413 3417 3419 3428 3435 3435 3435 3423 3423 3423 3428 3432 3435 3443 3456 3470 3477 3485 3512 3529 3529 3529 3527 3527 3527 3531 3540 3549 3549 3549 3548 3548 3548 3553 3563 3565 3569 3571 3571 3571 3570 3568 3567 3568 3568 3573 3583 3583 3583 3579 3571 3571 3571 3571 3571 3571 3571 3571 3571 3572 3577 3582 3582 3582 3583 3583 3585 3588 3590 3591 3592 3594 3595 3599 3599 3599 3597 3597 3597 3597 3600 3602 3604 3607 3612 3614 3615 3615 3617 3618 3619 3619 3619 3618 3618 3618 3619 3620 3623 3629 3638 3643 3645 3645 3645 3645 3645 3645 3645 3645 3647 3653 3659 3660 3660 3668 3676 3681 3686 3686 3687 3687 3688 3690 3695 3699 3699 3699 3700 3700 3702 3702 3702 3701 3697 3697 3697 3699 3701 3704 3704 3704 3703 3703 3703 3704 3705 3706 3708 3709 3709 3709 3707 3703 3699 3695 3690 3687 3686 3686 3685 3676 3665 3654 3652 3647 3643 3639 3627 3609 3608 3603 3602 3581 3578 3525 3170 2685 0 0 2227 2207 2198 2190 2183 2179 2179 2178 2177 2176 2175 2173 2172 2170 2168 2167 2165 2163 2162 2158 2154 2148 2142 2132 2124 2114 2103 2097 2093 2091 2090 2090 2090 2090 2091 2092 2093 2093 2094 2095 2096 2096 2096 2096 2096 2095 2094 2092 2091 2090 2089 2087 2086 2085 2083 2080 2078 2076 2073 2072 2070 2068 2067 2065 2063 2061 2059 2058 2056 2055 2054 2053 2052 2052 2051 2050 2048 2046 2043 2041 2037 2036 2035 2033 2031 2028 2026 2024 2022 2021 2019 2016 2014 2012 2009 2008 2007 2006 2003 2002 2000 1998 1997 1997 1996 1996 1996 1995 1994 1992 1991 1991 1990 1990 1988 1987 1987 1985 1985 1983 1982 1980 1977 1976 1974 1972 1971 1969 1967 1964 1962 1960 1956 1955 1951 1950 1950 1950 1952 1955 1957 1958 1959 1959 1960 1962 1962 1963 1963 1963 1963 1963 1962 1962 1962 1962 1961 1961 1961 1961 1961 1961 1961 1960 1960 1960 1960 1960 1960 1960 1959 1958 1958 1958 1957 1957 1957 1957 1956 1956 1956 1955 1955 1955 1955 1954 1954 1954 1952 1949 1946 1946 1945 1945 1945 1943 1941 1938 1937 1937 1936 1935 1934 1933 1932 1931 1931 1930 1929 1929 1928 1928 1928 1929 1930 1930 1930 1929 1928 1928 1928 1928 1929 1930 1933 1934 1935 1937 1940 1941 1944 1947 1948 1948 1949 1951 1955 1959 1962 1967 1971 1974 1976 1978 1980 1983 1985 1987 1988 1988 1990 1992 1993 1994 1994 1996 2000 2000 2001 2003 2003 2003 2000 1999 1999 1999 2002 2004 2004 2005 2005 2005 2004 2004 2002 2000 2000 1999 1999
2727 2727 2735 2744 2764 2778 2786 2791 2804 2823 2836 2841 2843 2845 2852 2857 2859 2868 2879 2899 2904 2917 2927 2934 2942 2944 2946 2953 2957 2961 2971 2983 2987 2987 2988 2987 2988 2988 2987 2985 2981 2978 2973 2973 2973 2974 2974 2974 2973 2963 2947 2931 2917 2914 2902 2889 2863 2808 2708 2581 0 0 0 0 1284 1274 1271 1270 1270 1270 1270 1272 1273 1273 1273 1274 1274 1276 1280 1280 1280 1280 1280 1280 1280 1282 1284 1284 1284 1284 1284 1284 1284 1288 1289 1291 1291 1291 1292 0 0 0 0 0 0 0 0 0 0 0 0 0 0 0 0 0 0 0 0 0 2514 2599 2654 2763 2908 2927 2927 2908 2784 2761 2648 2545 0 0 0 0 1354 1344 1338 1338 1336 1336 1338 1338 1339 1341 1343 1344 1345 1349 1350 1354 1362 1367 1379 0 0 0 0 0 0 0 0 2938 3052 3240 3310 3343 3364 3364 3374 3376 3376 3384 3384 3389 3389 3397 3414 3414 3414 3416 3416 3416 3417 3424 3434 3442 3455 3457 3464 3469 3486 3510 3510 3510 3508 3508 3508 3515 3527 3529 3529 3531 3529 3532 3532 3536 3548 3563 3569 3572 3573 3578 3578 3578 3578 3576 3576 3576 3585 3585 3585 3585 3577 3573 3573 3573 3573 3573 3573 3572 3572 3572 3577 3583 3583 3583 3583 3583 3585 3585 3587 3591 3592 3593 3595 3596 3596 3596 3594 3593 3593 3593 3596 3597 3599 3604 3607 3609 3609 3610 3611 3611 3612 3613 3613 3613 3614 3614 3616 3619 3623 3627 3632 3638 3641 3641 3641 3641 3640 3638 3638 3638 3641 3647 3651 3651 3653 3661 3666 3669 3673 3678 3682 3684 3686 3689 3693 3694 3694 3695 3695 3695 3696 3696 3696 3695 3695 3695 3695 3695 3698 3700 3701 3701 3701 3702 3704 3705 3706 3708 3709 3710 3710 3710 3707 3702 3699 3695 3690 3687 3686 3686 3685 3672 3665 3654 3647 3645 3643 3639 3626 3608 3602 3597 3593 3573 3551 3367 2851 2504 0 0 2211 2206 2195 2186 2182 2179 2178 2177 2176 2176 2175 2173 2171 2170 2168 2167 2165 2163 2161 2158 2156 2149 2142 2133 2124 2112 2103 2096 2092 2089 2089 2088 2088 2088 2088 2089 2091 2091 2091 2093 2093 2094 2094 2094 2093 2093 2091 2090 2090 2088 2087 2085 2084 2082 2081 2079 2076 2074 2071 2070 2068 2066 2064 2063 2061 2061 2058 2056 2055 2053 2052 2050 2050 2049 2047 2046 2044 2042 2040 2037 2035 2033 2031 2029 2027 2023 2023 2021 2019 2017 2015 2012 2010 2007 2006 2004 2003 2002 2002 2000 1998 1996 1996 1995 1995 1994 1993 1992 1992 1990 1990 1989 1988 1988 1987 1985 1985 1983 1983 1982 1980 1978 1976 1974 1972 1971 1970 1967 1965 1963 1961 1958 1955 1953 1951 1947 1945 1945 1945 1948 1952 1953 1954 1954 1956 1958 1960 1960 1960 1960 1959 1959 1959 1959 1959 1959 1958 1958 1958 1958 1959 1959 1959 1959 1959 1959 1959 1959 1958 1958 1958 1957 1956 1956 1956 1955 1955 1954 1954 1953 1953 1953 1953 1952 1952 1951 1951 1949 1947 1944 1943 1942 1942 1942 1941 1940 1937 1935 1934 1934 1933 1932 1931 1929 1929 1928 1928 1928 1927 1926 1926 1926 1926 1926 1927 1927 1927 1927 1927 1927 1927 1928 1929 1930 1933 1934 1935 1937 1939 1941 1943 1945 1946 1947 1947 1948 1952 1958 1962 1966 1971 1974 1974 1976 1979 1982 1984 1984 1984 1985 1988 1990 1992 1992 1992 1993 1997 1999 2001 2001 2001 1999 1999 1999 1998 1998 1998 1999 1999 1999 1999 1999 1999 1999 2000 2002 2003 2003 2003
2725 2725 2732 2744 2764 2789 2789 2791 2807 2823 2836 2841 2843 2852 2857 2857 2859 2868 2878 2892 2900 2919 2928 2934 2938 2944 2946 2952 2958 2962 2972 2983 2987 2989 2989 2990 2990 2990 2990 2988 2984 2978 2974 2973 2973 2973 2973 2971 2969 2960 2947 2931 2917 2914 2902 2886 2860 2795 2681 2555 0 0 0 0 1283 1274 1271 1271 1271 1271 1271 1272 1273 1273 1273 1273 1273 1276 1279 1279 1279 1278 1278 1278 1279 1281 1283 1283 1283 1283 1283 1283 1284 1288 1288 1288 1288 1288 1288 1288 1292 1294 1294 1296 1296 0 0 0 0 0 0 0 0 0 0 0 0 0 0 0 0 0 0 0 0 0 0 2650 2650 2650 2632 0 0 0 0 0 1345 1344 1338 1335 1335 1335 1335 1336 1338 1338 1340 1342 1343 1343 1344 1349 1355 1364 1377 1395 0 0 0 0 0 0 0 0 2883 3044 3222 3302 3323 3332 3350 3356 3358 3368 3368 3368 3376 3376 3399 3399 3399 3397 3396 3396 3396 3396 3402 3414 3437 3449 3451 3464 3483 3500 3500 3500 3496 3496 3495 3495 3496 3496 3499 3502 3509 3518 3520 3520 3535 3548 3559 3568 3572 3580 3580 3580 3578 3576 3576 3576 3585 3589 3589 3590 3590 3590 3589 3588 3588 3587 3585 3584 3582 3582 3582 3588 3588 3588 3585 3585 3585 3585 3587 3591 3592 3593 3594 3594 3594 3594 3594 3593 3593 3593 3595 3596 3597 3600 3605 3608 3608 3608 3608 3608 3608 3611 3611 3612 3612 3614 3616 3619 3623 3627 3630 3632 3636 3636 3637 3637 3637 3634 3633 3633 3633 3639 3644 3645 3646 3654 3655 3655 3657 3665 3674 3680 3683 3686 3688 3690 3691 3691 3691 3692 3692 3693 3694 3694 3694 3692 3692 3692 3696 3700 3701 3701 3701 3702 3704 3708 3710 3712 3712 3712 3712 3710 3706 3701 3698 3695 3690 3687 3686 3686 3682 3670 3664 3654 3641 3639 3633 3629 3613 3613 3608 3593 3584 3572 3487 3251 2671 0 0 2233 2201 2196 2194 2184 2182 2179 2177 2176 2176 2176 2175 2173 2171 2170 2168 2167 2165 2163 2161 2158 2157 2150 2142 2133 2125 2112 2103 2096 2091 2089 2087 2086 2085 2085 2085 2087 2089 2089 2090 2091 2091 2091 2091 2091 2091 2090 2089 2088 2087 2085 2084 2082 2081 2080 2078 2076 2074 2072 2069 2066 2065 2063 2062 2061 2059 2058 2057 2055 2053 2051 2050 2049 2047 2045 2044 2042 2039 2036 2035 2034 2032 2030 2029 2027 2023 2021 2020 2017 2016 2014 2012 2009 2007 2005 2004 2002 2001 2001 1999 1998 1996 1995 1994 1994 1993 1992 1992 1990 1989 1988 1988 1988 1987 1986 1985 1984 1983 1982 1982 1980 1978 1977 1975 1973 1971 1969 1968 1966 1963 1961 1958 1955 1952 1950 1947 1943 1940 1940 1940 1941 1944 1947 1950 1950 1952 1954 1956 1956 1956 1956 1956 1956 1956 1957 1957 1957 1957 1956 1956 1956 1957 1957 1957 1957 1957 1957 1956 1956 1956 1955 1955 1955 1954 1954 1953 1952 1952 1951 1951 1951 1951 1951 1948 1947 1947 1947 1946 1943 1941 1941 1940 1940 1940 1938 1937 1936 1934 1932 1931 1930 1929 1928 1927 1926 1925 1925 1924 1924 1924 1924 1924 1924 1924 1924 1924 1924 1925 1926 1927 1927 1927 1928 1929 1931 1933 1935 1936 1937 1939 1940 1942 1944 1945 1945 1946 1946 1949 1955 1961 1966 1970 1971 1972 1973 1976 1979 1981 1982 1982 1983 1984 1986 1988 1989 1989 1989 1992 1997 1998 1999 1999 1999 1997 1997 1997 1997 1998 1999 1999 1999 1999 1997 1996 1996 1996 2000 2003 2003 2003
2715 2715 2718 2732 2764 2789 2800 2803 2807 2820 2829 2839 2842 2858 2869 2870 2871 2871 2876 2888 2898 2918 2928 2934 2938 2944 2946 2952 2958 2962 2972 2983 2987 2987 2991 2994 2995 2995 2995 2990 2985 2980 2977 2976 2973 2971 2970 2966 2963 2958 2945 2931 2917 2916 2902 2883 2846 2782 2671 2522 0 0 0 0 1283 1274 1271 1271 1271 1271 1271 1272 1272 1272 1273 1273 1273 1275 1277 1278 1278 1278 1278 1278 1279 1280 1281 1281 1283 1283 1283 1283 1284 1286 1287 1288 1288 1288 1288 1288 1291 1292 1293 1295 1295 1296 1297 1298 1299 1299 1301 1307 0 0 0 0 0 0 0 0 0 0 0 0 0 0 0 0 0 0 0 0 0 0 0 1344 1340 1334 1334 1334 1333 1333 1333 1334 1334 1336 1338 1339 1340 1340 1340 1343 1352 1360 1365 1379 1397 0 0 0 0 0 0 0 0 2900 3032 3201 3294 3318 3323 3330 3330 3347 3359 3360 3363 3374 3378 3378 3379 3378 3376 3364 3364 3364 3375 3407 3425 3432 3433 3444 3458 3470 3473 3473 3473 3474 3478 3479 3481 3483 3487 3500 3507 3513 3516 3518 3518 3528 3545 3554 3568 3580 3580 3580 3578 3576 3576 3576 3585 3590 3590 3591 3597 3600 3601 3601 3601 3599 3598 3598 3593 3593 3593 3593 3593 3593 3590 3586 3586 3586 3587 3591 3592 3594 3594 3594 3594 3594 3594 3593 3593 3593 3595 3596 3597 3599 3603 3606 3607 3607 3607 3607 3607 3608 3610 3611 3612 3614 3616 3619 3622 3625 3628 3629 3630 3632 3633 3633 3633 3630 3629 3629 3629 3634 3635 3636 3642 3640 3641 3643 3643 3652 3663 3670 3676 3678 3681 3682 3685 3687 3687 3688 3688 3688 3688 3688 3688 3688 3688 3688 3693 3699 3701 3701 3701 3704 3707 3711 3714 3714 3714 3713 3712 3710 3706 3700 3696 3691 3688 3686 3683 3681 3678 3668 3659 3649 3636 3631 3623 3616 3616 3616 3599 3593 3584 3520 3397 2900 0 0 0 2211 2198 2192 2186 2183 2179 2179 2177 2176 2176 2175 2174 2172 2170 2168 2168 2166 2165 2163 2161 2158 2157 2152 2142 2133 2125 2112 2102 2094 2089 2086 2086 2085 2085 2085 2085 2085 2087 2088 2088 2088 2089 2089 2089 2089 2089 2088 2087 2086 2084 2084 2083 2081 2079 2077 2076 2074 2072 2069 2066 2065 2063 2060 2059 2058 2057 2056 2055 2052 2051 2050 2048 2046 2044 2043 2040 2038 2035 2032 2031 2030 2029 2027 2025 2023 2022 2019 2017 2015 2013 2011 2009 2007 2005 2003 2002 2001 2000 1999 1997 1995 1994 1991 1991 1991 1991 1990 1989 1989 1988 1987 1987 1987 1985 1985 1983 1983 1982 1980 1980 1978 1977 1976 1974 1972 1969 1968 1966 1964 1961 1959 1956 1952 1948 1946 1944 1941 1937 1936 1936 1936 1939 1942 1944 1945 1946 1949 1952 1953 1953 1953 1953 1953 1953 1953 1954 1954 1954 1955 1955 1955 1955 1954 1954 1954 1954 1954 1954 1954 1954 1953 1953 1951 1951 1951 1950 1950 1949 1949 1949 1949 1949 1947 1947 1946 1946 1944 1944 1940 1939 1937 1936 1935 1935 1935 1934 1933 1932 1931 1930 1927 1926 1925 1923 1922 1921 1921 1920 1920 1920 1920 1921 1921 1921 1922 1922 1922 1924 1924 1926 1927 1927 1928 1929 1932 1934 1936 1937 1938 1939 1940 1942 1943 1944 1944 1944 1946 1947 1953 1960 1963 1967 1968 1968 1971 1973 1976 1979 1980 1981 1982 1982 1983 1983 1985 1986 1986 1987 1992 1994 1995 1996 1996 1996 1996 1996 1996 1998 1999 1999 1999 1998 1996 1992 1992 1992 1997 2003 2003 2003
2715 2715 2718 2732 2759 2789 2800 2803 2807 2816 2824 2829 2842 2863 2878 2878 2878 2878 2878 2884 2894 2918 2928 2934 2938 2942 2946 2952 2958 2962 2972 2978 2982 2985 2991 2997 2999 2999 2999 2993 2985 2981 2980 2979 2975 2971 2969 2963 2961 2955 2944 2931 2922 2916 2901 2870 2821 2766 2671 0 0 0 0 0 1283 1276 1275 1273 1272 1272 1272 1272 1272 1273 1273 1273 1274 1275 1277 1278 1278 1278 1278 1278 1279 1280 1281 1281 1282 1283 1283 1283 1285 1286 1286 1287 1287 1287 1287 1288 1290 1291 1293 1295 1295 1296 1296 1298 1298 1298 1299 1303 1303 1305 1305 1305 1306 1307 1308 1311 1318 1318 1320 1320 0 0 0 0 0 0 0 0 0 0 0 1331 1331 1331 1330 1332 1332 1332 1333 1333 1334 1335 1335 1337 1337 1339 1339 1342 1349 1354 1361 1372 1380 1405 0 0 0 0 0 0 0 0 2829 2977 3094 3222 3265 3266 3266 3285 3298 3307 3309 3309 3332 3343 3352 3352 3352 3349 3353 3353 3362 3387 3400 3400 3401 3406 3406 3410 3411 3414 3444 3444 3444 3443 3443 3443 3447 3465 3482 3489 3494 3503 3507 3524 3539 3547 3567 3578 3578 3578 3572 3557 3557 3557 3568 3581 3589 3590 3597 3600 3604 3605 3605 3604 3599 3598 3593 3593 3593 3593 3597 3601 3601 3601 3596 3595 3595 3595 3597 3597 3597 3594 3594 3594 3594 3595 3595 3596 3596 3597 3597 3599 3603 3603 3603 3602 3602 3602 3604 3605 3608 3609 3610 3614 3616 3619 3622 3623 3624 3624 3625 3627 3628 3628 3627 3627 3627 3627 3628 3632 3632 3632 3634 3634 3634 3635 3635 3645 3657 3666 3670 3671 3673 3675 3679 3681 3683 3683 3683 3684 3687 3687 3687 3686 3686 3686 3692 3698 3701 3704 3705 3706 3709 3712 3714 3714 3714 3714 3713 3710 3706 3700 3696 3690 3686 3686 3682 3681 3674 3666 3657 3646 3633 3626 3619 3611 3611 3611 3599 3593 3576 3475 3080 2605 0 0 2216 2200 2189 2185 2183 2183 2179 2179 2177 2175 2175 2174 2172 2171 2169 2168 2166 2165 2164 2162 2158 2158 2157 2152 2142 2133 2125 2112 2101 2091 2086 2085 2084 2084 2084 2084 2084 2085 2086 2086 2086 2087 2087 2087 2087 2087 2087 2086 2085 2084 2083 2082 2081 2079 2077 2075 2074 2071 2068 2065 2064 2061 2059 2059 2057 2056 2054 2054 2052 2051 2049 2048 2046 2044 2041 2039 2037 2035 2033 2030 2028 2027 2025 2023 2021 2019 2018 2015 2013 2012 2010 2009 2006 2005 2004 2002 2001 1999 1998 1997 1994 1993 1990 1989 1989 1989 1988 1987 1986 1986 1986 1985 1984 1984 1984 1983 1982 1981 1981 1979 1978 1976 1975 1975 1972 1971 1969 1967 1965 1962 1959 1957 1954 1949 1946 1942 1941 1939 1936 1933 1933 1933 1934 1937 1939 1941 1942 1944 1948 1949 1950 1950 1950 1950 1951 1951 1951 1951 1952 1952 1952 1952 1952 1952 1952 1952 1952 1952 1952 1952 1952 1950 1950 1949 1949 1948 1948 1948 1948 1947 1947 1947 1947 1945 1945 1944 1944 1942 1941 1937 1936 1935 1933 1932 1931 1930 1930 1929 1929 1929 1927 1926 1923 1921 1919 1919 1918 1918 1917 1917 1917 1918 1919 1919 1920 1921 1921 1921 1923 1924 1925 1927 1928 1929 1930 1932 1935 1936 1938 1939 1939 1940 1941 1942 1943 1943 1944 1945 1947 1951 1955 1962 1964 1965 1967 1969 1971 1974 1977 1980 1980 1981 1981 1981 1981 1982 1982 1983 1986 1990 1990 1990 1991 1992 1995 1995 1995 1996 1997 1998 1998 1998 1998 1996 1991 1991 1991 1993 1996 1997 1999
2711 2711 2716 2731 2757 2786 2800 2803 2804 2806 2809 2820 2838 2863 2881 2881 2881 2881 2881 2884 2894 2919 2928 2936 2942 2944 2949 2952 2958 2962 2969 2973 2978 2984 2991 2999 3000 3000 3000 2996 2988 2986 2985 2983 2978 2971 2969 2963 2959 2955 2941 2929 2922 2916 2900 2857 2799 2752 2665 0 0 0 0 0 1282 1276 1276 1274 1272 1272 1272 1272 1272 1273 1273 1273 1274 1275 1277 1278 1279 1279 1279 1279 1279 1280 1281 1282 1283 1283 1284 1284 1285 1286 1286 1287 1287 1287 1288 1289 1290 1291 1292 1293 1294 1295 1295 1296 1297 1298 1298 1300 1303 1303 1303 1305 1305 1306 1308 1310 1310 1313 1314 1314 1314 1313 1313 1313 1315 1321 1322 1330 1334 1334 1334 1328 1328 1327 1327 1328 1328 1332 1333 1333 1333 1333 1333 1333 1335 1338 1339 1340 1344 1347 1356 1363 1367 1382 1383 0 0 0 0 0 0 0 0 2594 2825 2932 3169 3220 3230 3251 3288 3294 3294 3288 3244 3244 3244 3265 3305 3324 3324 3327 3338 3377 3389 3390 3391 3390 3390 3390 3394 3410 3429 3430 3430 3435 3439 3439 3441 3443 3443 3454 3466 3471 3488 3515 3522 3527 3540 3561 3561 3561 3555 3555 3555 3555 3557 3570 3589 3589 3597 3600 3604 3605 3605 3604 3599 3598 3593 3593 3593 3593 3598 3601 3604 3605 3605 3601 3600 3600 3598 3597 3598 3600 3601 3604 3604 3604 3603 3600 3600 3599 3599 3599 3603 3603 3603 3602 3602 3602 3604 3605 3606 3608 3610 3611 3614 3619 3621 3621 3622 3622 3622 3622 3622 3623 3623 3623 3625 3625 3625 3626 3626 3626 3626 3630 3630 3630 3635 3643 3657 3666 3668 3668 3669 3671 3673 3676 3676 3676 3676 3676 3681 3682 3682 3684 3684 3684 3690 3698 3704 3706 3707 3708 3711 3712 3714 3714 3714 3714 3714 3710 3706 3700 3694 3690 3684 3683 3677 3674 3672 3665 3651 3639 3632 3624 3617 3608 3608 3608 3605 3605 3535 3301 2876 0 0 2232 2208 2193 2187 2180 2179 2179 2177 2176 2175 2175 2174 2173 2171 2170 2168 2167 2166 2164 2163 2162 2158 2158 2156 2152 2142 2133 2122 2111 2100 2090 2086 2084 2083 2082 2082 2082 2083 2084 2085 2086 2086 2086 2085 2085 2085 2085 2085 2083 2083 2081 2081 2080 2079 2077 2075 2074 2071 2067 2065 2062 2060 2058 2057 2056 2055 2054 2052 2051 2049 2049 2047 2045 2044 2043 2040 2037 2035 2032 2030 2029 2025 2024 2021 2020 2020 2018 2015 2013 2010 2009 2007 2006 2004 2003 2001 2000 1998 1996 1995 1993 1991 1989 1988 1987 1986 1985 1985 1983 1983 1983 1983 1982 1981 1981 1981 1980 1980 1980 1979 1977 1976 1975 1973 1972 1971 1969 1968 1966 1963 1961 1959 1956 1952 1949 1945 1942 1940 1938 1934 1931 1931 1931 1931 1932 1935 1938 1939 1941 1945 1948 1948 1948 1948 1948 1948 1948 1949 1949 1949 1950 1951 1951 1951 1951 1950 1950 1950 1950 1950 1950 1949 1948 1948 1947 1946 1946 1946 1945 1944 1944 1944 1944 1943 1942 1942 1941 1941 1939 1937 1935 1933 1931 1930 1929 1928 1926 1926 1926 1925 1925 1921 1918 1917 1917 1916 1915 1914 1914 1914 1914 1915 1917 1918 1918 1919 1919 1919 1921 1922 1924 1925 1927 1928 1929 1930 1932 1935 1936 1938 1939 1939 1940 1941 1942 1942 1943 1943 1944 1946 1951 1954 1958 1962 1963 1966 1967 1970 1974 1977 1979 1979 1980 1980 1980 1980 1981 1981 1983 1984 1987 1988 1988 1989 1992 1992 1994 1994 1995 1997 1998 1998 1998 1996 1994 1991 1991 1991 1991 1992 1992 1993
2711 2711 2718 2722 2746 2761 2775 2778 2791 2795 2807 2820 2837 2863 2881 2881 2881 2884 2884 2884 2894 2922 2931 2938 2943 2946 2950 2954 2956 2959 2963 2971 2976 2982 2991 2999 3000 3000 3000 3000 2994 2991 2990 2987 2982 2975 2969 2963 2953 2945 2934 2923 2922 2915 2884 2834 2786 2728 2641 0 0 0 0 0 1281 1276 1276 1274 1272 1272 1272 1272 1272 1273 1273 1274 1274 1275 1277 1278 1279 1279 1279 1280 1280 1280 1281 1282 1283 1283 1284 1284 1285 1285 1286 1286 1287 1287 1287 1289 1290 1291 1291 1293 1294 1294 1294 1296 1296 1297 1297 1298 1300 1300 1300 1301 1302 1303 1307 1308 1309 1309 1310 1311 1311 1311 1311 1311 1314 1316 1318 1329 1329 1329 1321 1321 1321 1322 1323 1324 1328 1329 1330 1330 1331 1331 1331 1331 1333 1333 1334 1334 1335 1344 1349 1351 1361 1364 1367 1374 0 0 0 0 0 0 0 0 0 2679 2905 3183 3208 3210 3210 3210 3200 3200 3200 3206 3242 3255 3262 3288 3308 3313 3326 3338 3340 3343 3354 3360 3360 3361 3366 3378 3397 3417 3417 3418 3424 3424 3424 3427 3439 3449 3458 3459 3468 3468 3476 3477 3483 3500 3519 3519 3521 3525 3525 3528 3531 3541 3556 3575 3581 3583 3588 3597 3597 3597 3597 3585 3580 3580 3580 3590 3598 3601 3604 3605 3605 3601 3600 3600 3598 3597 3598 3600 3607 3611 3614 3614 3614 3612 3611 3608 3605 3604 3604 3603 3603 3602 3602 3602 3604 3605 3606 3608 3610 3611 3614 3618 3618 3618 3619 3622 3622 3622 3622 3619 3619 3619 3621 3622 3623 3622 3621 3621 3621 3621 3629 3630 3631 3642 3656 3665 3665 3665 3667 3667 3671 3671 3671 3668 3668 3668 3672 3677 3679 3682 3682 3684 3690 3698 3705 3708 3708 3710 3712 3712 3714 3715 3715 3715 3714 3710 3706 3700 3694 3688 3683 3676 3670 3669 3663 3659 3647 3637 3632 3624 3611 3611 3611 3608 3599 3595 3409 3075 2671 0 0 2226 2204 2190 2184 2179 2178 2177 2174 2174 2173 2173 2173 2171 2170 2169 2168 2167 2166 2164 2163 2161 2158 2157 2156 2151 2139 2132 2117 2107 2098 2089 2084 2083 2081 2081 2081 2081 2082 2083 2083 2083 2083 2083 2082 2082 2082 2082 2082 2081 2080 2079 2078 2077 2075 2074 2071 2069 2067 2064 2061 2059 2057 2055 2054 2053 2052 2052 2050 2048 2047 2045 2045 2044 2042 2041 2039 2035 2031 2030 2028 2025 2023 2020 2018 2017 2017 2015 2013 2010 2008 2006 2005 2004 2002 2000 1999 1997 1994 1993 1991 1990 1988 1986 1984 1984 1983 1982 1981 1981 1981 1980 1980 1980 1979 1979 1978 1978 1978 1978 1977 1974 1973 1972 1971 1970 1969 1967 1966 1964 1962 1960 1957 1955 1952 1948 1945 1942 1940 1936 1934 1930 1928 1928 1928 1928 1932 1936 1936 1937 1942 1945 1945 1945 1945 1945 1945 1945 1946 1946 1947 1948 1949 1949 1949 1949 1949 1949 1948 1948 1948 1948 1947 1947 1946 1945 1945 1944 1943 1942 1941 1941 1940 1940 1938 1937 1937 1936 1936 1935 1933 1932 1930 1927 1925 1925 1923 1922 1921 1920 1919 1917 1915 1913 1913 1913 1912 1912 1912 1912 1912 1913 1914 1915 1916 1917 1917 1918 1919 1920 1922 1923 1924 1926 1928 1929 1931 1932 1935 1937 1938 1939 1939 1940 1940 1942 1942 1943 1943 1944 1946 1950 1953 1956 1959 1962 1965 1967 1969 1972 1974 1976 1977 1977 1977 1977 1979 1980 1980 1981 1983 1984 1985 1986 1987 1989 1991 1991 1991 1992 1993 1993 1993 1993 1992 1991 1990 1990 1990 1990 1990 1990 1990
2715 2715 2718 2731 2736 2741 2742 2759 2781 2786 2807 2820 2837 2855 2878 2887 2887 2890 2891 2891 2901 2926 2933 2940 2944 2946 2952 2954 2956 2959 2963 2971 2976 2982 2990 2999 2999 3000 3000 3000 2994 2991 2990 2987 2983 2975 2969 2962 2953 2942 2928 2923 2911 2889 2879 2833 2780 2706 2629 0 0 0 0 0 1280 1276 1276 1274 1272 1272 1272 1272 1273 1273 1274 1274 1275 1275 1277 1278 1279 1279 1280 1280 1280 1280 1281 1282 1282 1283 1284 1284 1284 1285 1285 1285 1286 1287 1287 1289 1290 1290 1291 1293 1293 1293 1293 1293 1293 1294 1294 1295 1296 1298 1298 1299 1299 1302 1303 1305 1306 1306 1307 1307 1307 1307 1307 1307 1311 1313 1313 1313 1313 1313 1316 1320 1320 1322 1322 1323 1326 1328 1328 1328 1328 1328 1329 1330 1331 1332 1332 1333 1333 1341 1342 1345 1348 1348 1348 1357 1372 0 0 0 0 0 0 0 0 2474 2751 2936 2955 3059 3059 3105 3132 3153 3153 3205 3206 3210 3217 3229 3229 3266 3268 3297 3303 3327 3340 3349 3349 3349 3337 3302 3302 3302 3343 3397 3402 3405 3410 3413 3413 3413 3433 3450 3454 3459 3468 3469 3476 3496 3514 3514 3514 3495 3495 3495 3503 3512 3522 3530 3534 3541 3549 3557 3572 3572 3572 3562 3562 3562 3575 3585 3591 3597 3600 3601 3600 3600 3600 3593 3587 3587 3587 3596 3611 3616 3624 3628 3628 3628 3628 3625 3618 3613 3611 3609 3609 3609 3609 3609 3607 3607 3608 3608 3611 3612 3614 3618 3618 3618 3619 3622 3622 3622 3622 3619 3619 3619 3621 3622 3623 3622 3621 3621 3621 3621 3629 3630 3631 3635 3653 3659 3661 3661 3663 3665 3665 3665 3664 3661 3661 3661 3661 3664 3668 3674 3679 3684 3690 3698 3705 3708 3708 3711 3714 3715 3715 3715 3715 3715 3714 3712 3708 3702 3694 3686 3674 3664 3662 3660 3659 3653 3646 3637 3632 3624 3613 3613 3613 3613 3613 3537 3276 2809 2455 0 0 2216 2195 2186 2184 2179 2177 2175 2173 2172 2172 2172 2171 2170 2170 2169 2167 2166 2165 2164 2163 2161 2158 2156 2155 2147 2136 2128 2115 2101 2093 2087 2083 2080 2080 2080 2080 2080 2081 2081 2081 2081 2081 2080 2080 2080 2080 2080 2079 2078 2077 2077 2076 2075 2072 2070 2067 2065 2063 2061 2059 2056 2054 2052 2051 2051 2050 2048 2047 2045 2045 2044 2043 2042 2040 2038 2035 2031 2028 2026 2024 2021 2019 2017 2016 2015 2014 2013 2011 2007 2005 2003 2002 2001 2000 1999 1997 1994 1992 1990 1989 1987 1985 1983 1981 1981 1981 1979 1978 1978 1978 1978 1978 1977 1977 1977 1976 1976 1975 1975 1974 1972 1971 1970 1970 1969 1967 1965 1964 1963 1960 1958 1956 1954 1951 1948 1945 1941 1938 1934 1930 1928 1926 1924 1924 1924 1929 1933 1933 1934 1936 1940 1942 1943 1943 1943 1943 1943 1944 1944 1945 1946 1947 1947 1947 1947 1947 1946 1946 1946 1946 1946 1946 1945 1944 1943 1942 1941 1940 1939 1938 1937 1936 1936 1936 1934 1932 1932 1931 1931 1930 1928 1926 1923 1921 1921 1918 1917 1916 1916 1915 1913 1912 1910 1909 1909 1909 1910 1911 1911 1911 1912 1912 1914 1914 1915 1916 1916 1917 1918 1921 1923 1924 1926 1927 1929 1931 1933 1935 1937 1938 1938 1939 1940 1941 1942 1942 1943 1943 1944 1946 1950 1953 1954 1957 1959 1963 1966 1967 1968 1970 1971 1972 1973 1974 1974 1975 1977 1979 1980 1981 1981 1982 1983 1985 1988 1989 1989 1989 1989 1989 1989 1989 1990 1989 1989 1989 1989 1989 1990 1990 1990 1990
