2973 2973 2998 3022 3037 3037 3037 3033 3032 3032 3033 3034 3049 3052 3069 3070 3070 3071 3081 3081 3081 3082 3088 3097 3109 3109 3109 3109 3109 3126 3132 3135 3141 3152 3152 3152 3150 3150 3150 3155 3160 3164 3175 3189 3197 3198 3198 3198 3192 3192 3192 3192 3216 3239 3239 3239 3238 3232 3232 3232 3236 3245 3253 3253 3253 3254 3254 3256 3264 3272 3279 3289 3289 3290 3292 3292 3299 3303 3305 3308 3313 3315 3319 3323 3328 3332 3338 3349 3351 3355 3355 3358 3361 3363 3366 3369 3373 3375 3378 3380 3382 3385 3389 3394 3400 3408 3412 3418 3421 3422 3423 3426 3432 3435 3437 3439 3441 3442 3448 3454 3462 3469 3473 3475 3475 3475 3475 3475 3475 3476 3480 3487 3493 3499 3506 3510 3513 3517 3521 3522 3522 3522 3522 3522 3531 3536 3539 3542 3543 3544 3544 3543 3543 3538 3536 3536 3536 3539 3541 3542 3543 3545 3548 3552 3552 3552 3552 3552 3553 3554 3554 3554 3556 3556 3559 3559 3559 3559 3557 3557 3557 3557 3559 3561 3563 3565 3566 3566 3567 3566 3567 3566 3566 3566 3563 3555 3541 3531 3530 3523 3521 3518 3517 3517 3517 3517 3517 3519 3522 3522 3522 3520 3518 3516 3511 3506 3506 3506 3506 3506 3505 3501 3494 3488 3483 3483 3483 3482 3481 3478 3477 3477 3477 3484 3489 3494 3495 3494 3494 3491 3491 3490 3481 3481 3481 3481 3481 3464 3463 3436 3344 3260 3192 3152 2541 2343 2283 2269 2258 2250 2244 2239 2230 2222 2219 2210 2208 2204 2202 2200 2193 2185 2184 2179 2168 2168 2162 2153 2145 2128 2109 2102 2099 2098 2091 2085 2077 2072 2068 2068 2068 2068 2066 2063 2053 2029 2020 2014 0 0 0 0 0 0 0 0 0 1219 1210 1209 1209 1209 1210 1210 1210 1210 1210 1209 1208 1207 1206 1206 1205 1205 1205 1205 1204 1204 1204 1203 1203 1203 1203 1202 1202 1202 1201 1201 1200 1200 1199 1198 1198 1197 1197 1196 1196 1195 1195 1194 1194 1194 1194 1194 1192 1192 1190 1190 1189 1189 1189 1189 1188 1188 1188 1188 1188 1188 1188 1187 1187 1187 1187 1187 1187 1187 1187 1187 1187 1188 1188 1188 1188 1188 1188 1188 1188 1187 1187 1186 1186 1185 1184 1183 1182 1182 1181 1180 1179 1178 1178 1178 1178 1177 1176 1176 1175 1174 1173 1173 1173 1173 1173 1173 1173 1174 1174 1176 1176 1176 1176 1177 1177 1177 1177 1177 1177 1177 1177 1177 1176 1176 1176 1176 1176 1175 1174 1174 1173 1173 1173 1173 1172 1172 1172 1172 1173 1175 1175 1175 1175 1175 1175 0 0 0 0 0 0 0 1955 1976 1977 1986 1998 2006 2007 2008 2008 2008 2009 2011 2013 2016 2019 2021 2022 2024 2025 2026 2028 2029 2030 2031 2032 2033 2034 2035 2035 2035 2036 2036 2037 2040 2044 2045 2045 2046 2047 2048 2050 2050 2050 2049 2049 2049 2050 2053 2054 2055 2057 2057 2059 2060 2061 2061 2061 2059 2057 2057 2057 2062 2062 2062 2062 2060 2057 2057 2053 2051 2046 2038 2038 2046 2046 2046 2046 2036 2029 2029 2028 1998 1996 1975 0 0 0 0 0 0 0 0 0 0 0 0 0 0 0 0 0 0 0 0 0 0 0 0 0 0 0 0 0 0 0 0 0 0 0 0 0 0 0 0 0 0 0 0 0 0 0 0 0 0 0 0 0 0 0 1142 1142 1131 1122 1122 1121 1121 1121 1109 1109 1081 1074 1060 1044 1027 1012 1008 1006 1002 993 988 975 962 958 942 936 929 920 907 891 882 877 877 877 876 874 871 869 868 867 867
2973 2973 2998 3026 3028 3030 3030 3030 3030 3033 3039 3048 3051 3052 3071 3071 3071 3072 3081 3081 3081 3084 3089 3106 3111 3111 3111 3111 3111 3126 3131 3136 3139 3150 3153 3153 3153 3153 3153 3157 3160 3167 3178 3190 3199 3202 3202 3202 3198 3194 3194 3198 3216 3238 3239 3239 3239 3236 3236 3236 3243 3249 3254 3256 3257 3257 3257 3261 3267 3273 3279 3289 3293 3295 3296 3296 3300 3304 3306 3309 3313 3317 3324 3330 3334 3340 3347 3350 3354 3358 3361 3362 3365 3369 3372 3375 3379 3383 3387 3388 3389 3392 3396 3401 3408 3412 3416 3418 3421 3422 3425 3430 3434 3439 3442 3443 3445 3448 3453 3459 3465 3471 3474 3477 3479 3480 3480 3480 3480 3480 3484 3491 3497 3504 3508 3513 3518 3521 3526 3526 3526 3529 3529 3529 3532 3536 3539 3542 3544 3544 3544 3544 3544 3544 3543 3543 3543 3543 3545 3547 3548 3550 3553 3557 3557 3557 3556 3556 3556 3556 3557 3557 3557 3557 3559 3559 3559 3559 3559 3559 3559 3560 3562 3567 3569 3569 3569 3570 3570 3570 3572 3573 3573 3573 3571 3564 3557 3545 3539 3529 3524 3522 3518 3517 3517 3517 3517 3519 3520 3520 3520 3520 3519 3517 3512 3507 3507 3507 3506 3506 3506 3502 3496 3491 3487 3486 3486 3484 3483 3483 3483 3483 3483 3496 3498 3500 3500 3500 3500 3494 3491 3491 3491 3494 3491 3491 3491 3481 3457 3436 3323 3260 3192 2986 2458 2333 2276 2266 2253 2245 2239 2235 2227 2222 2220 2210 2208 2206 2205 2202 2195 2188 2187 2181 2168 2167 2165 2150 2144 2129 2113 2104 2097 2095 2090 2081 2076 2072 2068 2066 2066 2064 2064 2063 2048 2014 2013 0 0 0 0 0 0 0 0 0 1216 1216 1210 1209 1209 1209 1210 1210 1210 1210 1210 1209 1208 1207 1207 1207 1206 1206 1206 1205 1205 1205 1205 1205 1204 1204 1204 1203 1203 1202 1202 1201 1200 1200 1199 1199 1199 1198 1198 1198 1197 1196 1196 1195 1195 1195 1195 1195 1194 1193 1191 1191 1190 1190 1190 1190 1190 1190 1189 1189 1189 1188 1188 1188 1188 1188 1188 1188 1188 1188 1188 1188 1188 1188 1188 1188 1189 1189 1189 1189 1188 1188 1188 1187 1187 1187 1186 1185 1183 1182 1182 1182 1180 1179 1178 1178 1178 1177 1177 1177 1176 1175 1174 1174 1174 1174 1174 1174 1174 1174 1175 1176 1176 1177 1177 1177 1177 1177 1177 1178 1178 1178 1178 1178 1178 1177 1177 1177 1177 1176 1176 1176 1175 1175 1174 1174 1174 1173 1173 1173 1175 1176 1176 1176 1175 1175 1175 1179 0 0 0 0 0 0 1935 1959 1974 1979 1993 2001 2001 2005 2006 2008 2009 2010 2011 2014 2017 2020 2020 2020 2021 2023 2026 2027 2028 2029 2030 2031 2032 2032 2033 2033 2033 2033 2035 2037 2040 2042 2043 2043 2045 2045 2047 2047 2047 2047 2047 2047 2049 2053 2053 2055 2057 2057 2058 2060 2058 2057 2056 2050 2050 2050 2053 2057 2058 2058 2058 2058 2057 2057 2053 2052 2052 2046 2036 2036 2036 2036 2036 2036 2036 2036 2031 2026 2011 1975 1955 1946 0 0 0 0 0 0 0 0 0 0 0 0 0 0 0 0 0 0 0 0 0 0 0 0 0 0 0 0 0 0 0 0 0 0 0 0 0 0 0 0 0 0 0 0 0 0 0 0 0 0 0 0 1148 1148 1144 1130 1108 1102 1102 1102 1098 1098 1098 1069 1057 1049 1026 1014 1007 1006 1005 1000 993 982 975 960 957 937 935 929 912 902 886 881 877 877 876 873 870 867 866 866 866 866
2973 2973 2998 3026 3035 3037 3037 3037 3038 3040 3045 3049 3056 3062 3071 3071 3076 3081 3081 3083 3084 3084 3089 3107 3119 3119 3119 3116 3116 3116 3129 3136 3139 3150 3154 3154 3154 3154 3154 3159 3164 3171 3179 3190 3199 3202 3204 3204 3204 3204 3205 3205 3216 3238 3239 3243 3243 3244 3245 3250 3251 3255 3259 3261 3261 3261 3262 3263 3268 3274 3283 3290 3296 3296 3297 3297 3303 3306 3307 3311 3313 3321 3330 3334 3341 3350 3358 3361 3362 3362 3362 3364 3367 3373 3378 3381 3384 3388 3390 3392 3393 3396 3399 3406 3410 3413 3418 3420 3423 3424 3426 3432 3439 3444 3444 3448 3450 3455 3459 3462 3467 3473 3476 3479 3482 3484 3487 3487 3488 3488 3489 3493 3499 3505 3511 3517 3524 3528 3531 3531 3531 3530 3530 3530 3532 3537 3540 3542 3544 3546 3546 3546 3546 3546 3547 3546 3547 3547 3548 3549 3552 3552 3556 3560 3560 3560 3560 3560 3559 3559 3558 3558 3557 3557 3557 3559 3560 3560 3560 3560 3560 3560 3563 3567 3569 3569 3569 3570 3571 3573 3575 3575 3575 3574 3571 3564 3557 3546 3541 3540 3534 3534 3532 3531 3531 3530 3524 3522 3521 3520 3521 3520 3520 3518 3512 3509 3509 3508 3508 3508 3507 3502 3501 3498 3496 3493 3490 3489 3488 3487 3488 3489 3501 3501 3501 3505 3505 3501 3500 3494 3494 3494 3500 3503 3503 3500 3485 3481 3436 3432 3301 3260 3192 2903 0 0 2275 2264 2248 2241 2239 2235 2227 2222 2220 2211 2210 2209 2208 2202 2198 2191 2189 2182 2169 2165 2158 2150 2142 2132 2113 2104 2093 2093 2088 2077 2076 2072 2067 2066 2063 2063 2055 2054 2036 2012 0 0 0 0 0 0 0 0 0 1216 1215 1213 1210 1209 1209 1209 1211 1211 1211 1211 1210 1210 1209 1208 1208 1207 1207 1207 1207 1207 1207 1207 1207 1206 1206 1205 1205 1204 1204 1204 1203 1203 1202 1200 1200 1200 1200 1199 1199 1198 1198 1197 1196 1196 1196 1196 1196 1195 1194 1193 1193 1192 1191 1191 1191 1191 1191 1191 1191 1190 1189 1189 1189 1188 1188 1188 1188 1188 1188 1188 1188 1188 1189 1189 1189 1189 1190 1190 1190 1190 1190 1189 1189 1189 1188 1188 1187 1186 1185 1183 1183 1182 1181 1181 1180 1180 1178 1178 1178 1177 1177 1176 1176 1175 1175 1175 1175 1175 1175 1175 1175 1177 1177 1178 1178 1179 1179 1179 1179 1179 1179 1179 1179 1179 1178 1178 1178 1177 1177 1177 1177 1176 1176 1175 1175 1175 1174 1174 1174 1174 1176 1178 1178 1178 1175 1175 1175 1177 1189 0 0 0 0 0 0 1944 1973 1974 1986 1992 1997 1998 2001 2006 2007 2008 2009 2011 2013 2017 2017 2019 2019 2020 2023 2026 2026 2026 2027 2028 2029 2029 2029 2029 2031 2032 2034 2035 2038 2040 2041 2042 2043 2043 2045 2045 2046 2046 2046 2046 2049 2051 2052 2053 2054 2056 2057 2057 2057 2056 2055 2047 2042 2042 2042 2043 2046 2046 2046 2046 2046 2051 2052 2052 2052 2046 2035 2019 2019 2019 2031 2031 2036 2036 2031 2026 2023 2008 1968 1960 1945 1944 0 0 0 0 0 0 0 0 0 0 0 0 0 0 0 0 0 0 0 0 0 0 0 0 0 0 0 0 0 0 0 0 0 0 0 0 0 0 0 0 0 0 0 0 0 0 0 0 0 0 1151 1151 1144 1128 1108 1102 1093 1085 1077 1074 1073 1043 1031 1028 1025 1014 1007 1006 1005 1000 993 975 958 943 942 937 934 925 904 891 886 881 877 876 875 871 866 864 863 863 863 863
2962 2962 2987 3026 3034 3038 3038 3038 3042 3045 3048 3056 3059 3062 3069 3071 3076 3081 3083 3083 3084 3086 3093 3107 3124 3124 3124 3116 3116 3116 3129 3136 3139 3150 3156 3156 3156 3161 3161 3161 3168 3172 3180 3190 3199 3202 3205 3205 3205 3208 3208 3220 3228 3238 3243 3245 3247 3249 3250 3252 3254 3257 3260 3261 3262 3263 3263 3264 3270 3277 3285 3291 3298 3298 3299 3301 3305 3306 3307 3312 3316 3324 3331 3335 3342 3350 3358 3364 3364 3365 3365 3365 3367 3373 3379 3385 3387 3389 3391 3393 3397 3398 3403 3409 3414 3418 3421 3423 3423 3425 3429 3433 3443 3447 3451 3455 3459 3461 3461 3463 3470 3475 3479 3481 3482 3486 3490 3493 3493 3493 3493 3496 3502 3507 3515 3523 3532 3536 3539 3539 3539 3537 3537 3537 3538 3540 3542 3546 3548 3548 3548 3548 3548 3548 3548 3548 3548 3549 3550 3551 3554 3556 3558 3563 3564 3564 3564 3564 3564 3563 3562 3560 3557 3557 3557 3559 3561 3563 3563 3564 3564 3565 3566 3567 3569 3571 3571 3571 3572 3573 3575 3575 3575 3574 3571 3564 3558 3549 3544 3542 3542 3542 3542 3541 3538 3532 3530 3526 3522 3521 3521 3520 3520 3520 3518 3514 3513 3512 3511 3511 3508 3507 3507 3506 3506 3504 3496 3494 3492 3492 3492 3493 3504 3506 3508 3507 3507 3506 3500 3495 3495 3495 3503 3509 3509 3509 3485 3481 3479 3411 3353 3277 3242 2649 0 0 2272 2260 2246 2241 2239 2234 2227 2226 2223 2214 2213 2212 2209 2202 2200 2192 2189 2185 2173 2167 2157 2148 2142 2132 2113 2104 2088 2087 2083 2077 2076 2069 2067 2063 2054 2050 2050 2048 2028 0 0 0 0 0 0 0 0 1220 1216 1213 1213 1213 1211 1211 1211 1212 1212 1212 1212 1211 1210 1210 1210 1210 1209 1209 1209 1208 1208 1208 1208 1208 1208 1207 1207 1207 1206 1206 1204 1204 1204 1204 1203 1202 1201 1201 1201 1201 1200 1200 1199 1198 1198 1198 1198 1197 1197 1196 1195 1194 1193 1193 1193 1192 1192 1192 1192 1192 1192 1191 1190 1190 1189 1189 1188 1188 1188 1188 1189 1189 1189 1189 1189 1189 1190 1190 1191 1191 1191 1191 1190 1190 1190 1190 1190 1189 1188 1187 1186 1184 1184 1183 1183 1182 1182 1180 1179 1179 1178 1178 1178 1178 1176 1176 1176 1177 1177 1177 1177 1177 1177 1178 1178 1179 1179 1179 1179 1179 1179 1179 1179 1179 1179 1179 1179 1179 1179 1178 1178 1178 1178 1177 1177 1177 1177 1176 1176 1175 1176 1176 1177 1178 1178 1178 1175 1175 1175 1177 1180 0 0 0 0 0 0 0 1956 1966 1975 1984 1991 1991 1994 2001 2004 2005 2005 2007 2010 2012 2015 2015 2016 2018 2021 2024 2024 2024 2025 2025 2026 2026 2027 2027 2028 2029 2032 2034 2037 2037 2039 2039 2043 2043 2044 2044 2044 2045 2045 2044 2044 2045 2045 2052 2052 2052 2050 2049 2049 2048 2047 2047 2042 2038 2037 2035 2035 2035 2035 2036 2036 2042 2052 2052 2052 2046 2035 2017 2012 2012 2012 2026 2029 2036 2029 2026 2023 2016 1991 1991 1991 1970 1960 0 0 0 0 0 0 0 0 0 0 0 0 0 0 0 0 0 0 0 0 0 0 0 0 0 0 0 0 0 0 0 0 0 0 0 0 0 0 0 0 0 0 0 0 0 0 0 0 1151 1151 1151 1144 1122 1111 1102 1093 1083 1071 1067 1058 1043 1031 1028 1025 1014 1006 1006 1005 991 975 960 940 938 938 936 934 924 892 884 882 877 876 875 874 871 864 861 860 860 860 861
2962 2962 2987 3032 3034 3038 3038 3038 3042 3046 3048 3059 3069 3069 3070 3072 3080 3080 3081 3083 3084 3090 3104 3119 3125 3125 3125 3125 3122 3122 3122 3127 3139 3150 3156 3156 3156 3161 3161 3161 3168 3172 3180 3190 3198 3202 3206 3213 3213 3218 3220 3232 3242 3248 3250 3250 3250 3250 3250 3252 3255 3258 3262 3264 3264 3264 3266 3266 3272 3278 3287 3293 3300 3303 3305 3306 3307 3308 3313 3317 3321 3328 3332 3337 3344 3350 3358 3364 3365 3365 3366 3366 3368 3373 3380 3387 3387 3390 3392 3395 3399 3403 3407 3414 3418 3425 3427 3427 3427 3429 3433 3436 3447 3451 3456 3460 3464 3464 3465 3468 3474 3478 3482 3482 3483 3486 3490 3494 3494 3496 3497 3499 3505 3509 3518 3527 3535 3537 3539 3539 3540 3542 3542 3543 3545 3546 3547 3548 3549 3549 3549 3549 3549 3551 3552 3552 3552 3552 3552 3552 3556 3560 3563 3565 3565 3567 3567 3567 3567 3567 3567 3564 3560 3560 3560 3561 3562 3565 3567 3567 3568 3569 3570 3571 3571 3571 3573 3574 3575 3577 3577 3577 3575 3570 3569 3569 3563 3553 3549 3548 3548 3548 3548 3548 3543 3535 3535 3535 3540 3540 3540 3528 3527 3526 3525 3524 3521 3520 3518 3513 3511 3511 3511 3510 3510 3507 3498 3496 3494 3494 3496 3502 3514 3514 3514 3514 3507 3506 3500 3495 3495 3495 3503 3503 3503 3513 3485 3479 3471 3353 3349 3277 3066 0 0 0 2270 2253 2246 2241 2237 2231 2228 2227 2224 2220 2214 2212 2211 2206 2200 2200 2198 2193 2183 2169 2157 2148 2141 2132 2111 2099 2085 2083 2083 2077 2074 2067 2066 2062 2044 2043 2038 2028 0 0 0 0 0 0 0 0 1222 1218 1216 1215 1213 1213 1213 1213 1213 1213 1213 1213 1212 1212 1211 1211 1211 1211 1210 1210 1210 1210 1209 1209 1209 1209 1209 1208 1208 1207 1207 1207 1205 1205 1205 1205 1204 1202 1202 1202 1202 1201 1201 1200 1200 1200 1200 1199 1199 1198 1198 1197 1196 1195 1195 1194 1194 1194 1194 1194 1193 1193 1193 1192 1191 1191 1190 1190 1189 1189 1189 1189 1189 1189 1189 1190 1190 1190 1191 1191 1191 1191 1191 1191 1191 1191 1191 1191 1190 1189 1189 1188 1187 1186 1185 1184 1184 1183 1182 1181 1180 1180 1180 1180 1179 1178 1178 1178 1178 1178 1178 1178 1177 1177 1177 1178 1179 1179 1180 1180 1181 1181 1181 1181 1181 1181 1180 1180 1180 1180 1180 1180 1180 1179 1179 1178 1178 1178 1178 1178 1177 1177 1177 1177 1177 1178 1178 1178 1177 1177 1177 1177 1178 1178 0 0 0 0 0 0 0 1952 1959 1971 1985 1989 1993 1994 1998 2000 2000 2001 2003 2007 2009 2010 2013 2016 2018 2020 2020 2021 2021 2021 2023 2023 2025 2026 2026 2026 2028 2030 2034 2036 2038 2039 2043 2043 2043 2041 2040 2040 2040 2040 2042 2043 2043 2044 2046 2046 2044 2044 2044 2044 2043 2040 2038 2033 2032 2030 2024 2024 2024 2026 2028 2036 2049 2049 2049 2036 2035 2017 2007 2007 2007 2022 2026 2034 2026 2026 2023 2008 1991 1975 1975 1962 1940 1940 0 0 0 0 0 0 0 0 0 0 0 0 0 0 0 0 0 0 0 0 0 0 0 0 0 0 0 0 0 0 0 0 0 0 0 0 0 0 0 0 0 0 0 0 0 0 0 1140 1140 1140 1137 1118 1117 1102 1090 1079 1067 1062 1054 1043 1031 1025 1018 1008 1006 999 983 969 959 945 938 935 935 932 931 903 890 883 875 875 874 872 871 868 864 860 860 860 860 860
2962 2962 2987 3044 3045 3046 3046 3046 3053 3053 3065 3069 3070 3070 3071 3077 3078 3080 3081 3081 3084 3093 3104 3119 3125 3125 3125 3125 3121 3121 3121 3125 3139 3142 3156 3156 3158 3164 3164 3164 3168 3173 3184 3190 3198 3202 3209 3213 3222 3222 3227 3237 3244 3251 3251 3251 3252 3252 3252 3254 3256 3258 3263 3265 3265 3267 3267 3268 3274 3282 3289 3294 3300 3304 3308 3310 3312 3313 3316 3322 3329 3332 3337 3339 3345 3352 3359 3365 3366 3367 3368 3368 3369 3374 3380 3387 3392 3396 3399 3400 3403 3410 3418 3424 3426 3431 3431 3431 3433 3433 3437 3442 3447 3453 3456 3461 3467 3469 3469 3473 3478 3481 3482 3482 3483 3486 3493 3494 3497 3498 3503 3505 3509 3513 3522 3529 3535 3538 3539 3539 3540 3543 3549 3551 3552 3552 3552 3552 3551 3551 3550 3550 3550 3553 3555 3555 3556 3556 3556 3556 3560 3563 3567 3567 3568 3568 3569 3569 3570 3570 3570 3568 3564 3564 3564 3564 3564 3567 3571 3571 3571 3571 3571 3571 3574 3575 3576 3577 3579 3581 3581 3581 3575 3570 3569 3569 3564 3558 3557 3557 3557 3558 3558 3558 3554 3545 3545 3545 3545 3545 3545 3539 3532 3531 3531 3530 3528 3525 3522 3519 3513 3513 3513 3512 3512 3508 3500 3497 3495 3495 3497 3503 3514 3514 3515 3515 3511 3508 3500 3495 3495 3495 3503 3503 3515 3516 3516 3455 3455 3353 3349 3277 2901 0 0 2272 2264 2250 2245 2236 2233 2231 2229 2228 2225 2220 2215 2214 2212 2207 2204 2201 2201 2198 2183 2169 2157 2148 2140 2124 2100 2089 2085 2082 2079 2074 2074 2067 2066 2058 2040 2032 0 0 0 0 0 0 0 0 0 1225 1222 1218 1216 1216 1215 1215 1215 1215 1214 1214 1214 1213 1213 1213 1213 1212 1212 1212 1211 1211 1211 1211 1211 1211 1210 1210 1210 1209 1209 1208 1208 1208 1206 1206 1205 1205 1205 1203 1203 1203 1202 1202 1202 1201 1201 1201 1201 1201 1200 1200 1199 1199 1198 1197 1196 1196 1196 1196 1196 1196 1196 1195 1194 1193 1192 1191 1191 1191 1190 1190 1190 1190 1190 1190 1190 1190 1190 1191 1191 1191 1192 1192 1192 1192 1191 1191 1191 1191 1190 1190 1189 1189 1188 1187 1185 1185 1184 1183 1183 1182 1181 1181 1180 1180 1180 1180 1180 1180 1180 1180 1179 1179 1179 1179 1179 1179 1180 1181 1181 1181 1181 1181 1181 1181 1181 1181 1181 1181 1181 1181 1181 1181 1181 1181 1180 1180 1180 1179 1178 1178 1178 1178 1178 1178 1178 1179 1178 1178 1178 1177 1177 1177 1178 1178 1181 0 0 0 0 0 0 1922 1958 1970 1973 1982 1987 1991 1992 1994 1995 1995 1995 1999 2003 2006 2010 2011 2014 2014 2015 2017 2017 2017 2017 2018 2019 2022 2023 2024 2025 2025 2028 2033 2036 2039 2039 2039 2039 2039 2037 2036 2036 2035 2035 2037 2038 2038 2042 2043 2043 2043 2043 2043 2043 2040 2040 2029 2029 2026 2007 1993 1993 1993 2005 2013 2033 2035 2035 2035 2029 2017 2002 1998 1988 1988 1988 2020 2021 2021 2021 2016 1991 1975 1962 1961 1940 1940 1940 0 0 0 0 0 0 0 0 0 0 0 0 0 0 0 0 0 0 0 0 0 0 0 0 0 0 0 0 0 0 0 0 0 0 0 0 0 0 0 0 0 0 0 0 0 1130 1130 1130 1130 1118 1117 1111 1102 1090 1074 1062 1061 1054 1046 1025 1023 1016 1008 1006 988 981 960 951 943 933 931 928 916 912 897 882 876 874 867 867 866 866 865 863 859 859 858 858 858
2970 2970 3017 3050 3050 3053 3053 3053 3053 3055 3065 3069 3070 3070 3071 3077 3079 3081 3082 3087 3087 3096 3104 3119 3122 3125 3125 3125 3121 3121 3121 3125 3131 3136 3142 3149 3152 3157 3159 3165 3170 3176 3186 3196 3198 3204 3209 3214 3222 3223 3232 3237 3244 3251 3255 3255 3256 3256 3256 3257 3258 3261 3265 3266 3267 3268 3270 3271 3279 3286 3291 3295 3300 3304 3309 3312 3317 3318 3324 3329 3337 3341 3344 3346 3347 3352 3359 3365 3368 3369 3369 3370 3371 3374 3380 3387 3392 3397 3400 3404 3407 3415 3425 3429 3435 3435 3435 3436 3436 3438 3442 3446 3448 3454 3456 3464 3470 3474 3475 3476 3478 3483 3483 3484 3486 3489 3493 3497 3501 3503 3507 3511 3514 3519 3527 3533 3536 3540 3540 3540 3540 3544 3550 3556 3557 3557 3557 3557 3555 3552 3551 3551 3551 3553 3556 3560 3560 3560 3560 3561 3561 3566 3569 3571 3571 3571 3571 3571 3573 3575 3575 3575 3568 3566 3566 3566 3566 3571 3571 3571 3571 3571 3571 3572 3575 3579 3580 3581 3585 3585 3585 3581 3575 3570 3570 3569 3569 3567 3565 3565 3565 3566 3566 3566 3562 3555 3548 3548 3548 3548 3548 3543 3540 3538 3536 3534 3532 3527 3524 3520 3515 3515 3514 3513 3513 3508 3504 3498 3498 3498 3498 3511 3515 3515 3517 3515 3515 3511 3509 3503 3503 3503 3503 3503 3513 3519 3513 3451 3428 3349 3340 3180 2547 0 2275 2263 2260 2249 2243 2236 2233 2229 2228 2228 2226 2221 2215 2214 2213 2209 2208 2204 2201 2198 2183 2169 2157 2148 2140 2122 2094 2089 2084 2077 2074 2074 2074 2066 2065 2056 2037 0 0 0 0 0 0 0 0 0 1223 1222 1221 1219 1218 1218 1216 1216 1216 1216 1216 1216 1215 1215 1214 1214 1214 1214 1213 1213 1213 1212 1212 1212 1211 1211 1211 1211 1211 1210 1210 1209 1209 1208 1208 1208 1206 1206 1205 1205 1204 1203 1203 1203 1203 1203 1202 1202 1202 1202 1202 1202 1201 1201 1199 1197 1197 1197 1197 1197 1197 1197 1196 1196 1195 1194 1193 1193 1192 1192 1192 1191 1191 1191 1191 1191 1191 1191 1191 1191 1192 1192 1192 1192 1192 1192 1192 1192 1192 1192 1191 1191 1190 1189 1188 1188 1187 1186 1185 1185 1183 1182 1182 1182 1181 1181 1181 1181 1181 1181 1181 1180 1180 1180 1180 1180 1180 1180 1181 1181 1182 1182 1182 1183 1183 1183 1183 1183 1183 1182 1182 1182 1181 1181 1181 1181 1181 1181 1180 1180 1180 1180 1179 1179 1179 1179 1179 1179 1179 1179 1179 1178 1178 1178 1178 1178 1181 1189 0 0 0 0 0 0 1937 1962 1970 1976 1986 1988 1989 1991 1991 1991 1991 1992 1997 1999 2001 2005 2008 2010 2012 2013 2013 2013 2013 2014 2014 2015 2016 2019 2021 2021 2023 2028 2033 2039 2039 2039 2039 2039 2036 2034 2032 2032 2032 2032 2032 2032 2030 2022 2022 2022 2034 2035 2035 2034 2033 2029 2028 2020 2007 1987 1987 1985 1985 1987 2010 2014 2023 2023 2023 2015 2002 1995 1984 1984 1984 2019 2021 2021 2021 2016 1992 1983 1983 1960 1948 1948 1979 1948 0 0 0 0 0 0 0 0 0 0 0 0 0 0 0 0 0 0 0 0 0 0 0 0 0 0 0 0 0 0 0 0 0 0 0 0 0 0 0 0 0 0 0 0 1122 1122 1122 1118 1111 1110 1108 1102 1089 1073 1061 1061 1057 1049 1025 1016 1014 1008 997 988 970 957 947 941 929 923 917 906 903 889 880 874 870 866 865 861 861 861 860 858 856 856 855 855
2978 2978 3019 3046 3046 3050 3050 3050 3056 3058 3065 3072 3073 3079 3079 3080 3082 3082 3082 3089 3093 3098 3101 3108 3120 3120 3120 3120 3120 3120 3122 3127 3131 3136 3142 3149 3152 3157 3172 3179 3186 3186 3198 3204 3205 3207 3214 3220 3227 3231 3232 3237 3244 3251 3256 3256 3257 3258 3260 3261 3262 3264 3267 3269 3272 3272 3273 3280 3286 3290 3292 3295 3300 3305 3309 3316 3319 3324 3329 3337 3344 3350 3354 3354 3355 3358 3360 3365 3368 3371 3371 3372 3372 3374 3376 3385 3393 3397 3403 3406 3410 3420 3426 3433 3437 3438 3439 3439 3440 3442 3447 3451 3453 3454 3459 3466 3471 3477 3480 3481 3482 3483 3487 3489 3490 3495 3500 3502 3508 3511 3514 3517 3521 3525 3529 3536 3539 3540 3540 3540 3540 3545 3552 3558 3558 3560 3560 3560 3558 3555 3555 3555 3556 3558 3561 3562 3562 3563 3563 3565 3566 3568 3574 3576 3576 3576 3577 3579 3580 3580 3580 3579 3575 3570 3570 3570 3572 3572 3572 3572 3572 3572 3572 3573 3576 3579 3583 3585 3587 3587 3587 3584 3580 3578 3578 3577 3577 3578 3578 3577 3576 3575 3572 3571 3569 3563 3554 3553 3552 3552 3552 3549 3547 3547 3545 3541 3537 3533 3529 3522 3516 3515 3514 3513 3513 3508 3504 3503 3503 3503 3508 3518 3518 3518 3521 3516 3515 3515 3509 3506 3506 3506 3509 3509 3510 3513 3509 3469 3469 3389 3340 3070 0 0 2275 2263 2256 2249 2243 2236 2233 2229 2228 2228 2226 2220 2216 2215 2213 2210 2208 2204 2201 2198 2180 2169 2158 2150 2139 2122 2094 2089 2077 2077 2074 2072 2059 2057 2052 2041 0 0 0 0 0 0 0 0 0 1222 1222 1222 1222 1221 1220 1219 1218 1218 1218 1217 1217 1217 1216 1215 1215 1215 1214 1214 1214 1214 1213 1213 1213 1213 1213 1212 1212 1212 1212 1211 1211 1210 1209 1209 1208 1208 1208 1207 1206 1205 1205 1205 1205 1205 1204 1204 1204 1203 1204 1203 1203 1203 1202 1202 1200 1199 1199 1199 1199 1198 1198 1197 1197 1197 1196 1195 1195 1194 1193 1193 1193 1193 1192 1192 1192 1192 1192 1192 1192 1192 1192 1192 1193 1193 1193 1193 1193 1192 1192 1192 1191 1191 1190 1190 1189 1188 1187 1186 1186 1185 1184 1183 1183 1183 1183 1183 1183 1183 1182 1182 1182 1181 1181 1181 1181 1181 1182 1182 1182 1183 1183 1184 1184 1184 1184 1183 1183 1183 1183 1183 1183 1183 1183 1183 1182 1182 1182 1182 1182 1181 1181 1180 1180 1180 1180 1180 1180 1180 1180 1180 1179 1178 1178 1178 1179 1180 1181 1188 1191 0 0 0 0 0 1918 1949 1964 1967 1978 1986 1986 1987 1988 1988 1990 1990 1994 1996 1997 1999 2002 2004 2006 2007 2007 2007 2007 2003 2003 2003 2005 2016 2016 2018 2018 2019 2025 2032 2034 2034 2035 2035 2031 2030 2031 2031 2031 2031 2031 2031 2030 2022 2017 2015 2015 2015 2015 2009 2018 2014 2014 2007 1988 1972 1965 0 0 0 0 0 0 0 1998 1998 1998 1995 1984 1984 1984 2017 2021 2021 2021 2016 2004 1984 1984 1974 1969 1974 1979 1974 1969 0 0 0 0 0 0 0 0 0 0 0 0 0 0 0 0 0 0 0 0 0 0 0 0 0 0 0 0 0 0 0 0 0 0 0 0 0 0 0 0 0 0 1122 1122 1116 1116 1111 1106 1103 1103 1098 1089 1074 1062 1062 1057 1049 1024 1010 1005 997 992 987 967 954 947 937 925 914 903 894 890 885 879 873 868 863 861 859 858 857 857 856 855 853 853 853
2978 2978 3035 3047 3047 3050 3050 3050 3057 3059 3070 3072 3076 3080 3080 3082 3082 3083 3086 3091 3095 3098 3101 3106 3112 3113 3116 3117 3119 3120 3126 3127 3131 3136 3142 3149 3152 3163 3172 3179 3190 3197 3201 3207 3210 3211 3214 3220 3226 3231 3234 3238 3244 3251 3256 3256 3257 3261 3264 3264 3265 3265 3268 3271 3273 3275 3279 3287 3292 3294 3294 3296 3300 3306 3313 3320 3323 3327 3332 3339 3344 3351 3358 3362 3362 3362 3366 3369 3372 3372 3372 3372 3372 3374 3376 3385 3393 3401 3404 3407 3414 3422 3428 3434 3438 3439 3442 3443 3444 3448 3451 3455 3458 3461 3462 3466 3474 3480 3482 3483 3484 3485 3489 3493 3497 3501 3505 3511 3514 3517 3520 3522 3526 3529 3533 3539 3542 3543 3543 3544 3544 3548 3555 3559 3559 3560 3560 3560 3560 3560 3560 3560 3562 3565 3566 3566 3566 3566 3566 3567 3572 3575 3578 3581 3581 3582 3583 3586 3586 3586 3586 3585 3581 3577 3577 3576 3576 3575 3574 3573 3572 3572 3572 3574 3576 3581 3584 3586 3588 3588 3588 3588 3585 3585 3585 3585 3585 3585 3585 3584 3580 3575 3574 3574 3572 3571 3565 3560 3558 3557 3556 3555 3554 3552 3547 3546 3544 3541 3536 3527 3520 3515 3514 3514 3513 3509 3504 3503 3503 3503 3513 3521 3521 3523 3523 3523 3521 3516 3515 3515 3515 3520 3520 3520 3531 3520 3486 3486 3479 3389 3340 2835 0 0 2275 2263 2244 2240 2236 2235 2233 2230 2229 2228 2226 2220 2216 2216 2213 2213 2210 2204 2200 2198 2180 2170 2158 2151 2139 2122 2094 2085 2077 2072 2064 2051 2050 2045 2035 0 0 0 0 0 0 0 0 0 1225 1222 1222 1222 1223 1223 1223 1222 1219 1219 1219 1219 1219 1217 1217 1216 1216 1216 1216 1215 1214 1214 1214 1214 1214 1214 1214 1214 1214 1213 1213 1212 1212 1211 1210 1210 1210 1209 1208 1207 1207 1207 1206 1206 1206 1206 1206 1205 1205 1204 1204 1204 1204 1204 1204 1203 1201 1200 1200 1200 1200 1200 1199 1199 1197 1197 1197 1196 1196 1195 1195 1194 1194 1194 1193 1193 1193 1194 1194 1194 1194 1193 1193 1193 1193 1193 1193 1193 1193 1193 1192 1192 1192 1191 1191 1190 1189 1189 1188 1187 1186 1185 1185 1184 1183 1183 1183 1183 1183 1183 1183 1184 1184 1184 1183 1183 1183 1183 1182 1182 1182 1184 1184 1184 1184 1184 1185 1184 1184 1184 1184 1184 1184 1184 1184 1184 1184 1183 1183 1182 1182 1182 1181 1181 1181 1181 1181 1180 1180 1180 1180 1180 1180 1180 1180 1180 1183 1184 1186 1188 1188 0 0 0 0 0 0 1899 1954 1960 1972 1979 1981 1984 1985 1985 1986 1988 1991 1993 1993 1994 1996 1999 2000 2001 2004 2004 2004 2001 2001 2001 2002 2007 2010 2014 2016 2018 2025 2031 2032 2032 2031 2030 2022 2018 2018 2018 2018 2022 2024 2024 2018 2014 2009 2009 2005 1998 1998 1994 1990 1985 1988 1985 0 0 0 0 0 0 0 0 0 0 0 0 1986 1986 1984 1984 1984 2017 2019 2019 2019 2018 2013 1992 1992 1975 1975 1975 1991 1975 1975 0 0 0 0 0 0 0 0 0 0 0 0 0 0 0 0 0 0 0 0 0 0 0 0 0 0 0 0 0 0 0 0 0 0 0 0 0 0 0 0 0 0 1125 1125 1125 1111 1109 1105 1098 1097 1092 1089 1076 1074 1067 1057 1049 1023 1006 996 989 988 987 961 947 940 935 918 903 891 884 880 877 870 866 864 862 859 856 856 855 854 854 853 852 852 852
3010 3010 3035 3047 3047 3061 3061 3057 3061 3069 3070 3076 3077 3077 3079 3082 3083 3083 3087 3093 3099 3101 3103 3106 3112 3113 3115 3116 3119 3130 3143 3143 3145 3145 3145 3151 3160 3164 3172 3179 3190 3197 3201 3207 3212 3214 3217 3222 3226 3231 3234 3238 3244 3251 3257 3257 3259 3261 3266 3266 3267 3268 3271 3274 3276 3278 3282 3290 3296 3297 3297 3299 3304 3310 3313 3320 3325 3329 3333 3339 3345 3353 3360 3364 3367 3368 3370 3375 3375 3375 3375 3374 3374 3374 3376 3385 3393 3406 3413 3417 3420 3426 3430 3434 3440 3442 3443 3446 3448 3451 3454 3459 3464 3466 3467 3471 3479 3481 3483 3484 3487 3489 3491 3497 3501 3506 3510 3516 3518 3522 3526 3529 3531 3532 3536 3541 3546 3548 3549 3550 3551 3554 3557 3559 3560 3561 3563 3563 3563 3564 3564 3566 3567 3571 3571 3571 3570 3570 3570 3573 3577 3581 3584 3584 3585 3586 3588 3589 3592 3592 3592 3592 3586 3585 3583 3582 3582 3579 3577 3575 3573 3573 3573 3575 3579 3582 3585 3586 3588 3588 3588 3588 3588 3588 3588 3588 3588 3587 3586 3585 3581 3575 3575 3575 3574 3574 3570 3564 3564 3564 3564 3562 3560 3553 3549 3547 3546 3546 3544 3533 3524 3519 3516 3514 3513 3509 3505 3505 3505 3505 3520 3522 3522 3525 3524 3524 3521 3521 3520 3520 3521 3533 3533 3533 3523 3495 3464 3479 3464 3389 3292 2530 0 2285 2275 2267 2244 2240 2236 2235 2233 2231 2231 2230 2226 2221 2217 2217 2216 2216 2212 2204 2200 2198 2179 2170 2162 2158 2139 2126 2092 2085 2077 2064 2048 2042 2034 2032 0 0 0 0 0 0 0 0 0 1225 1225 1224 1224 1224 1224 1224 1224 1223 1221 1220 1220 1220 1219 1218 1217 1217 1217 1216 1216 1216 1216 1216 1216 1215 1215 1215 1215 1214 1214 1214 1214 1213 1213 1213 1212 1211 1211 1210 1210 1208 1208 1208 1208 1207 1207 1207 1206 1206 1206 1204 1204 1204 1204 1204 1204 1204 1202 1202 1200 1200 1200 1200 1200 1200 1198 1198 1198 1198 1197 1197 1197 1196 1195 1194 1194 1194 1194 1194 1194 1194 1194 1194 1194 1194 1194 1194 1194 1194 1194 1194 1193 1192 1192 1192 1191 1190 1190 1189 1188 1187 1187 1186 1186 1185 1184 1184 1184 1184 1184 1184 1184 1185 1185 1185 1185 1185 1185 1185 1185 1185 1185 1185 1185 1185 1185 1186 1186 1186 1186 1186 1186 1186 1185 1185 1185 1185 1184 1184 1184 1184 1183 1182 1182 1182 1181 1181 1181 1181 1181 1181 1181 1181 1182 1182 1182 1183 1185 1186 1187 1187 1187 1192 0 0 0 0 0 0 0 1949 1960 1972 1976 1978 1979 1981 1981 1984 1985 1986 1989 1989 1991 1993 1993 1996 1996 1999 1999 1999 1999 1998 1998 1998 1999 2001 2014 2016 2021 2023 2030 2030 2030 2026 2021 2014 2014 2014 2015 2021 2021 2019 2015 2010 2008 2003 1984 1974 1971 1969 1971 0 0 0 0 0 0 0 0 0 0 0 0 0 0 0 0 0 0 1965 1975 1989 2019 2019 2019 2018 2014 1997 1997 1977 1977 1977 2001 1977 1975 0 0 0 0 0 0 0 0 0 0 0 0 0 0 0 0 0 0 0 0 0 0 0 0 0 0 0 0 0 0 0 0 0 0 0 0 0 0 0 0 0 0 1131 1131 1123 1110 1108 1101 1088 1088 1088 1095 1095 1095 1080 1057 1033 1023 1006 990 988 982 967 947 941 938 934 918 899 887 876 870 867 863 860 860 859 859 854 853 853 852 852 852 852 852 852
3010 3010 3019 3053 3053 3063 3063 3063 3070 3072 3073 3076 3076 3077 3081 3082 3083 3085 3090 3095 3102 3106 3108 3108 3112 3113 3115 3116 3121 3132 3143 3145 3146 3148 3150 3159 3164 3167 3168 3177 3190 3197 3201 3207 3215 3217 3222 3222 3226 3227 3234 3236 3245 3252 3260 3262 3263 3264 3267 3269 3269 3271 3273 3277 3279 3282 3288 3294 3297 3298 3299 3301 3305 3311 3316 3320 3325 3330 3333 3340 3345 3353 3361 3365 3367 3370 3373 3378 3378 3378 3379 3379 3379 3379 3383 3392 3404 3415 3421 3424 3427 3431 3433 3437 3441 3444 3446 3449 3453 3456 3459 3464 3469 3471 3472 3478 3482 3485 3487 3489 3493 3495 3497 3501 3503 3509 3515 3520 3524 3527 3530 3533 3536 3537 3541 3546 3551 3554 3554 3555 3557 3560 3560 3560 3561 3561 3565 3567 3567 3567 3567 3568 3571 3573 3573 3573 3573 3573 3573 3577 3580 3585 3586 3587 3588 3590 3592 3595 3596 3596 3596 3595 3595 3590 3588 3587 3585 3584 3582 3580 3579 3578 3578 3578 3583 3586 3587 3588 3589 3589 3589 3590 3590 3590 3590 3590 3590 3590 3590 3586 3584 3575 3575 3575 3575 3575 3573 3572 3571 3570 3569 3567 3560 3554 3549 3549 3548 3547 3547 3540 3533 3524 3520 3519 3517 3514 3510 3510 3510 3510 3525 3529 3529 3530 3525 3524 3521 3524 3524 3529 3533 3533 3533 3526 3523 3452 3447 3452 3445 3404 3048 2513 0 2285 2275 2267 2244 2239 2237 2236 2236 2236 2235 2231 2226 2225 2221 2219 2218 2216 2214 2205 2199 2198 2178 2178 2170 2166 2160 2130 2092 2085 2063 2039 2035 2031 2023 0 0 0 0 0 0 0 0 0 1225 1225 1225 1226 1226 1226 1225 1225 1225 1223 1222 1222 1221 1220 1219 1219 1219 1218 1217 1217 1217 1217 1217 1217 1217 1217 1216 1216 1215 1215 1215 1215 1215 1215 1214 1214 1212 1212 1211 1211 1211 1210 1210 1209 1209 1208 1207 1207 1207 1207 1207 1205 1205 1205 1205 1205 1204 1204 1204 1202 1201 1201 1201 1201 1200 1200 1200 1200 1200 1199 1199 1199 1198 1197 1196 1195 1195 1195 1195 1195 1195 1195 1194 1194 1194 1195 1195 1195 1195 1194 1194 1194 1193 1193 1193 1192 1191 1190 1190 1189 1189 1187 1187 1186 1186 1186 1185 1184 1184 1184 1185 1185 1186 1187 1187 1187 1187 1187 1187 1187 1187 1187 1186 1186 1186 1186 1186 1187 1187 1187 1187 1187 1187 1187 1187 1186 1186 1186 1185 1185 1185 1185 1184 1184 1183 1183 1182 1182 1182 1182 1181 1181 1182 1182 1182 1182 1182 1184 1185 1186 1187 1187 1188 1192 0 0 0 0 0 0 0 1948 1952 1961 1969 1970 1973 1973 1975 1979 1981 1981 1981 1982 1982 1983 1985 1986 1993 1994 1994 1994 1993 1994 1994 1994 1996 1997 2000 2004 2004 2005 2010 2022 2022 2022 2016 2000 1998 1998 1998 2009 2009 2009 2007 2002 1977 1968 1966 1966 0 0 0 0 0 0 0 0 0 0 0 0 0 0 0 0 0 0 0 0 0 0 1959 1967 2018 2018 2019 2019 2018 1998 1998 1975 1975 1975 2001 1975 1975 0 0 0 0 0 0 0 0 0 0 0 0 0 0 0 0 0 0 0 0 0 0 0 0 0 0 0 0 0 0 0 0 0 0 0 0 0 0 0 0 0 1176 1176 1140 1123 1110 1108 1101 1097 1097 1097 1098 1098 1098 1080 1056 1033 1023 1006 990 983 967 951 941 935 932 926 912 895 879 867 860 858 856 856 856 856 856 854 851 850 850 849 849 849 851 851
3010 3010 3020 3062 3062 3063 3063 3063 3070 3072 3073 3076 3077 3080 3082 3083 3085 3089 3090 3100 3103 3108 3109 3110 3113 3115 3117 3117 3123 3134 3143 3146 3149 3149 3159 3165 3167 3168 3171 3177 3186 3191 3197 3206 3215 3217 3220 3222 3222 3224 3233 3236 3245 3252 3264 3266 3266 3266 3268 3271 3272 3275 3276 3279 3282 3286 3292 3297 3300 3302 3302 3304 3307 3312 3317 3323 3328 3330 3334 3340 3345 3352 3361 3368 3372 3372 3374 3378 3382 3383 3383 3383 3384 3388 3395 3404 3413 3420 3424 3426 3429 3432 3436 3439 3443 3446 3448 3451 3455 3459 3464 3468 3474 3476 3478 3482 3489 3493 3498 3499 3499 3501 3502 3503 3506 3513 3519 3524 3530 3533 3536 3536 3538 3540 3545 3551 3559 3560 3560 3561 3561 3563 3564 3564 3564 3566 3568 3570 3570 3570 3571 3571 3573 3573 3573 3574 3574 3574 3576 3581 3586 3588 3592 3592 3593 3593 3595 3596 3597 3597 3597 3595 3595 3593 3592 3592 3589 3588 3586 3585 3582 3582 3582 3585 3586 3589 3589 3590 3591 3591 3593 3593 3593 3593 3593 3593 3593 3593 3593 3590 3585 3580 3578 3577 3577 3577 3576 3575 3575 3574 3574 3571 3563 3557 3550 3549 3548 3547 3547 3542 3533 3527 3526 3526 3519 3518 3517 3517 3517 3520 3525 3531 3531 3531 3529 3529 3524 3524 3524 3534 3534 3534 3517 3517 3483 3451 3447 3445 3404 3371 2813 0 0 2276 2267 2267 2244 2239 2239 2239 2238 2238 2238 2233 2226 2225 2221 2219 2218 2218 2214 2205 2197 2193 2183 2180 2178 2173 2164 2130 2092 2085 2055 2030 2024 2012 0 0 0 0 0 0 0 0 1229 1224 1224 1224 1226 1227 1228 1228 1228 1227 1226 1225 1224 1222 1222 1221 1221 1220 1220 1219 1218 1218 1218 1218 1217 1217 1217 1217 1217 1217 1217 1217 1216 1216 1216 1216 1215 1215 1214 1214 1213 1213 1211 1211 1210 1210 1209 1209 1208 1208 1208 1207 1207 1207 1207 1207 1207 1206 1205 1205 1205 1203 1203 1202 1202 1202 1202 1202 1201 1201 1201 1201 1200 1200 1199 1198 1196 1196 1196 1196 1196 1196 1196 1195 1195 1195 1195 1195 1195 1195 1195 1195 1195 1195 1193 1193 1193 1192 1192 1191 1190 1190 1189 1189 1188 1187 1187 1187 1186 1185 1185 1185 1186 1187 1188 1188 1188 1188 1188 1188 1188 1188 1188 1188 1187 1187 1187 1187 1187 1188 1188 1188 1188 1188 1188 1188 1188 1188 1187 1187 1187 1186 1185 1185 1185 1185 1184 1184 1184 1183 1183 1183 1183 1183 1183 1182 1182 1182 1182 1184 1186 1187 1187 1188 1188 1192 1197 0 0 0 0 0 0 0 1949 1952 1956 1961 1964 1967 1968 1973 1975 1976 1977 1979 1979 1979 1981 1981 1989 1989 1990 1990 1991 1993 1993 1993 1989 1989 1989 1998 1998 2001 2002 2001 1998 1998 1996 1987 1987 1989 1989 1993 2007 2007 2007 2002 0 0 0 0 0 0 0 0 0 0 0 0 0 0 0 0 0 0 0 0 0 0 0 0 0 0 0 1947 1967 2016 2018 2018 2016 1998 1972 1972 1972 1974 1974 1975 1975 0 0 0 0 0 0 0 0 0 0 0 0 0 0 0 0 0 0 0 0 0 0 0 0 0 0 0 0 0 0 0 0 0 0 0 0 0 0 0 0 1176 1176 1176 1140 1123 1116 1108 1101 1098 1098 1098 1098 1098 1098 1080 1056 1033 1020 1007 990 980 962 943 933 929 926 919 908 891 876 866 860 858 856 855 855 855 855 853 851 850 848 848 848 848 850 850
2998 2998 3020 3058 3060 3062 3063 3068 3070 3072 3073 3076 3080 3080 3082 3083 3087 3089 3092 3107 3107 3110 3112 3114 3116 3117 3119 3122 3126 3134 3142 3149 3150 3151 3160 3167 3168 3170 3175 3177 3186 3186 3194 3205 3212 3217 3220 3220 3224 3224 3224 3235 3245 3253 3264 3267 3268 3268 3270 3271 3274 3275 3277 3279 3283 3289 3295 3302 3305 3306 3307 3308 3312 3315 3318 3326 3328 3332 3336 3340 3345 3351 3358 3368 3372 3373 3375 3378 3382 3384 3385 3387 3391 3398 3405 3411 3421 3427 3428 3429 3434 3436 3439 3443 3447 3450 3451 3452 3455 3459 3465 3472 3477 3480 3483 3488 3495 3501 3502 3502 3503 3503 3503 3505 3510 3516 3523 3532 3534 3538 3540 3540 3541 3542 3548 3554 3559 3563 3564 3565 3565 3566 3568 3569 3570 3571 3573 3574 3575 3575 3575 3575 3576 3576 3576 3576 3576 3577 3579 3585 3591 3594 3595 3596 3596 3596 3596 3596 3597 3597 3597 3596 3595 3594 3593 3593 3589 3589 3586 3586 3585 3585 3585 3589 3590 3593 3593 3593 3593 3593 3593 3593 3593 3593 3593 3593 3595 3595 3595 3595 3592 3588 3583 3580 3580 3579 3578 3577 3577 3577 3577 3575 3569 3561 3554 3549 3549 3548 3548 3542 3533 3527 3527 3527 3523 3523 3523 3523 3523 3527 3538 3539 3539 3538 3536 3534 3532 3532 3532 3532 3532 3529 3522 3509 3506 3483 3445 3427 3404 3262 2551 0 2308 2276 2254 2254 2252 2246 2243 2241 2240 2240 2240 2239 2234 2232 2225 2220 2218 2217 2214 2205 2196 2193 2191 2180 2178 2174 2164 2130 2092 2085 2036 2013 0 0 0 0 0 0 0 0 0 1232 1227 1224 1224 1224 1227 1230 1230 1230 1229 1228 1226 1226 1224 1224 1223 1222 1222 1222 1221 1220 1219 1219 1219 1219 1218 1218 1218 1218 1218 1218 1218 1217 1217 1217 1217 1217 1217 1216 1216 1215 1214 1213 1213 1212 1212 1211 1211 1210 1210 1209 1209 1209 1209 1209 1209 1209 1208 1207 1207 1206 1205 1204 1204 1204 1204 1203 1203 1203 1202 1202 1201 1201 1201 1200 1200 1198 1197 1197 1197 1197 1197 1197 1197 1197 1197 1197 1197 1197 1197 1196 1196 1196 1195 1195 1195 1194 1194 1193 1192 1191 1191 1191 1190 1189 1189 1188 1188 1187 1187 1187 1187 1187 1188 1188 1189 1189 1190 1190 1190 1190 1189 1189 1189 1188 1188 1189 1188 1188 1188 1189 1189 1189 1189 1189 1189 1189 1188 1188 1188 1188 1187 1187 1187 1187 1187 1186 1186 1185 1185 1184 1184 1184 1184 1184 1184 1184 1183 1183 1183 1184 1186 1187 1188 1192 1192 1193 1195 1198 0 0 0 0 0 0 1921 1940 1949 1952 1953 1953 1954 1958 1961 1962 1972 1973 1974 1977 1977 1977 1980 1981 1981 1983 1986 1989 1989 1989 1988 1986 1985 1985 1985 1994 1995 1995 1994 1987 1980 1970 1970 1970 0 0 0 0 0 0 0 0 0 0 0 0 0 0 0 0 0 0 0 0 0 1354 1358 1362 1362 0 0 0 0 0 0 0 0 0 1967 2014 2018 2018 2014 1998 1972 1963 1963 1963 1963 1983 1983 1964 0 0 0 0 0 0 0 0 0 0 0 0 0 0 0 0 0 0 0 0 0 0 0 0 0 0 0 0 0 0 0 0 0 0 0 0 0 0 0 1175 1175 1175 1140 1123 1117 1111 1101 1090 1090 1087 1085 1085 1081 1075 1055 1033 1014 1007 988 978 954 935 926 922 918 910 901 889 876 865 860 857 855 854 854 854 853 852 851 850 847 845 845 845 848 848
2998 2998 3020 3042 3060 3062 3066 3067 3067 3072 3074 3076 3080 3080 3083 3084 3088 3091 3102 3110 3110 3114 3115 3115 3119 3119 3122 3126 3128 3134 3142 3149 3150 3151 3160 3170 3177 3177 3177 3180 3185 3186 3189 3200 3203 3217 3220 3220 3220 3220 3220 3228 3240 3254 3264 3269 3269 3270 3270 3272 3274 3276 3277 3281 3287 3291 3298 3306 3311 3313 3313 3315 3320 3321 3322 3326 3329 3332 3336 3340 3345 3350 3358 3368 3372 3373 3375 3379 3382 3386 3389 3392 3397 3410 3416 3421 3425 3432 3434 3434 3436 3439 3444 3449 3451 3452 3453 3453 3455 3460 3467 3473 3478 3481 3486 3492 3499 3503 3504 3505 3505 3505 3506 3511 3515 3522 3529 3534 3538 3542 3543 3543 3544 3545 3549 3555 3559 3563 3565 3566 3567 3570 3572 3574 3575 3577 3578 3579 3580 3580 3580 3580 3580 3580 3580 3579 3579 3580 3580 3588 3595 3597 3598 3598 3598 3596 3596 3596 3597 3597 3597 3597 3596 3595 3594 3593 3592 3590 3588 3588 3588 3588 3590 3592 3594 3594 3594 3594 3594 3594 3594 3594 3593 3593 3593 3593 3595 3595 3595 3595 3593 3593 3589 3584 3582 3581 3580 3578 3578 3578 3578 3575 3570 3565 3558 3551 3550 3550 3548 3544 3536 3530 3529 3529 3529 3529 3529 3529 3529 3529 3541 3542 3542 3542 3541 3534 3534 3534 3535 3535 3535 3528 3522 3499 3499 3483 3476 3442 3398 3009 2522 0 2304 2273 2254 2253 2253 2248 2246 2244 2246 2245 2244 2243 2243 2233 2225 2219 2217 2216 2211 2203 2190 2190 2190 2186 2186 2181 2165 2130 2092 2087 0 0 0 0 0 0 0 0 0 0 1234 1231 1227 1225 1225 1225 1228 1230 1230 1230 1229 1228 1227 1226 1226 1224 1224 1223 1223 1222 1221 1221 1221 1221 1220 1220 1219 1219 1219 1219 1219 1219 1219 1218 1218 1218 1218 1218 1218 1217 1217 1216 1215 1215 1214 1213 1213 1213 1212 1211 1211 1210 1210 1210 1211 1211 1211 1210 1208 1207 1207 1207 1206 1206 1205 1205 1204 1204 1203 1203 1203 1202 1202 1201 1201 1200 1200 1199 1199 1199 1199 1199 1199 1199 1199 1199 1198 1198 1198 1198 1198 1198 1197 1197 1196 1195 1195 1195 1194 1194 1192 1192 1192 1191 1191 1190 1190 1189 1189 1189 1189 1189 1189 1189 1189 1189 1190 1190 1191 1191 1191 1191 1190 1190 1190 1190 1189 1189 1189 1189 1189 1189 1189 1189 1190 1190 1190 1189 1189 1189 1189 1189 1188 1188 1188 1188 1187 1187 1187 1187 1186 1186 1185 1184 1184 1184 1184 1184 1184 1184 1184 1184 1186 1187 1189 1192 1192 1192 1194 1194 0 0 0 0 0 0 0 1928 1936 1942 1946 1952 1953 1953 1958 1961 1963 1966 1973 1974 1974 1974 1975 1975 1975 1976 1981 1981 1983 1983 1983 1983 1983 1983 1981 1984 1995 1995 1980 1975 0 0 0 0 0 0 0 0 0 0 0 0 0 0 0 0 0 0 0 0 1326 1321 1321 1321 1321 1322 1331 1354 1354 1372 0 0 0 0 0 0 0 0 0 2004 2014 2014 2014 1984 1969 1963 1963 1963 1963 1980 1980 1965 1946 0 0 0 0 0 0 0 0 0 0 0 0 0 0 0 0 0 0 0 0 0 0 0 0 0 0 0 0 0 0 0 0 0 0 0 0 0 0 1169 1169 1169 1134 1123 1116 1114 1103 1091 1087 1080 1079 1069 1067 1066 1052 1033 1013 1007 987 968 948 929 917 909 905 900 891 882 874 864 858 856 853 853 853 852 852 852 851 851 847 845 845 845 846 846
2998 2998 3023 3042 3060 3062 3066 3066 3066 3072 3074 3080 3082 3087 3087 3087 3092 3097 3111 3130 3130 3130 3128 3121 3121 3121 3124 3126 3130 3134 3142 3149 3150 3151 3161 3173 3179 3184 3189 3189 3189 3191 3192 3195 3203 3218 3223 3223 3223 3223 3223 3228 3240 3254 3265 3270 3270 3271 3272 3273 3274 3276 3279 3282 3289 3297 3304 3309 3312 3316 3319 3322 3326 3326 3327 3327 3329 3332 3336 3340 3345 3350 3358 3368 3372 3373 3375 3379 3384 3389 3394 3399 3411 3420 3425 3429 3432 3436 3437 3441 3441 3442 3449 3452 3453 3453 3454 3455 3455 3462 3469 3475 3479 3484 3490 3496 3501 3503 3507 3509 3510 3510 3510 3514 3520 3526 3531 3535 3539 3542 3545 3546 3546 3546 3549 3555 3560 3564 3566 3568 3571 3573 3574 3577 3580 3582 3582 3583 3583 3583 3584 3584 3584 3584 3584 3583 3583 3583 3583 3592 3600 3601 3601 3601 3598 3597 3597 3597 3597 3598 3599 3599 3598 3598 3596 3593 3592 3591 3591 3591 3591 3595 3596 3596 3596 3595 3594 3594 3594 3594 3594 3593 3590 3590 3590 3593 3595 3595 3595 3595 3594 3593 3590 3589 3584 3582 3581 3581 3581 3580 3578 3575 3571 3566 3562 3554 3553 3552 3548 3543 3536 3536 3536 3540 3541 3541 3541 3541 3541 3544 3544 3546 3548 3548 3546 3537 3537 3537 3538 3538 3538 3534 3523 3522 3465 3476 3456 3398 3360 2878 0 0 2297 2272 2264 2254 2253 2252 2248 2248 2248 2249 2249 2249 2243 2234 2223 2219 2217 2216 2208 2188 2187 2187 2187 2186 2186 2181 2165 2127 2091 0 0 0 0 0 0 0 0 0 0 1233 1231 1231 1229 1229 1229 1229 1229 1231 1231 1231 1230 1229 1228 1227 1226 1225 1225 1224 1224 1224 1223 1222 1222 1221 1221 1221 1221 1220 1220 1220 1220 1220 1220 1219 1219 1219 1219 1219 1219 1218 1218 1217 1217 1216 1215 1215 1214 1214 1214 1213 1213 1212 1211 1211 1211 1211 1211 1211 1209 1208 1207 1207 1207 1206 1206 1206 1205 1204 1204 1204 1204 1204 1204 1204 1201 1201 1201 1201 1201 1201 1201 1201 1200 1200 1199 1199 1199 1199 1199 1199 1199 1198 1198 1197 1197 1196 1196 1195 1195 1195 1194 1193 1192 1192 1191 1191 1190 1190 1189 1189 1189 1189 1189 1189 1190 1190 1190 1191 1192 1192 1192 1192 1191 1190 1190 1190 1190 1190 1190 1190 1190 1191 1191 1191 1191 1191 1191 1191 1191 1190 1190 1190 1189 1189 1189 1189 1188 1188 1187 1187 1186 1186 1186 1185 1185 1185 1185 1185 1185 1185 1185 1185 1186 1188 1189 1192 1192 1192 1190 1190 1190 0 0 0 0 0 0 0 1914 1934 1941 1948 1953 1953 1956 1958 1961 1962 1963 1965 1970 1970 1970 1970 1970 1975 1978 1978 1976 1976 1975 1975 1975 1981 1981 1981 1980 0 0 0 0 0 0 0 0 0 0 0 0 0 0 0 0 1341 1333 1330 1325 1310 1308 1308 1306 1306 1308 1308 1309 1313 1315 1319 1326 1326 1326 0 0 0 0 0 0 0 0 0 2003 2003 2003 1980 1963 1961 1961 1961 1975 1980 1988 1988 1975 0 0 0 0 0 0 0 0 0 0 0 0 0 0 0 0 0 0 0 0 0 0 0 0 0 0 0 0 0 0 0 0 0 0 0 0 0 0 1130 1130 1127 1124 1116 1116 1114 1103 1091 1087 1080 1079 1067 1059 1054 1048 1033 1004 977 974 958 937 922 909 902 898 891 885 877 869 862 858 856 852 850 850 850 850 851 851 851 848 845 845 845 846 846
3021 3021 3038 3042 3062 3062 3066 3066 3066 3083 3083 3087 3089 3090 3095 3099 3103 3104 3111 3130 3130 3132 3130 3129 3127 3126 3126 3127 3130 3134 3142 3149 3150 3153 3161 3175 3183 3191 3192 3192 3192 3193 3193 3195 3203 3218 3225 3225 3225 3225 3225 3228 3240 3253 3265 3270 3274 3275 3275 3278 3278 3281 3284 3289 3294 3300 3307 3309 3313 3317 3322 3326 3327 3327 3327 3329 3329 3332 3336 3342 3345 3350 3358 3368 3372 3373 3377 3382 3389 3395 3401 3408 3416 3420 3425 3431 3434 3439 3442 3444 3445 3447 3450 3455 3457 3457 3457 3457 3458 3464 3471 3476 3482 3488 3494 3500 3504 3508 3513 3513 3515 3515 3515 3519 3523 3527 3532 3536 3539 3543 3546 3547 3547 3548 3550 3555 3560 3564 3566 3569 3572 3573 3576 3579 3582 3585 3586 3586 3586 3587 3590 3590 3590 3589 3588 3588 3588 3588 3588 3595 3603 3603 3603 3602 3600 3598 3598 3598 3599 3599 3602 3603 3603 3603 3600 3596 3594 3591 3591 3591 3595 3601 3601 3601 3599 3595 3595 3595 3594 3594 3592 3590 3587 3587 3587 3588 3588 3590 3590 3592 3593 3593 3593 3591 3586 3584 3583 3583 3583 3581 3578 3576 3571 3568 3565 3562 3559 3555 3549 3543 3536 3536 3536 3541 3544 3546 3546 3546 3547 3549 3549 3549 3549 3549 3544 3539 3539 3539 3539 3539 3539 3534 3506 3505 3465 3476 3442 3398 3174 2753 0 0 2294 2272 2264 2256 2254 2252 2252 2252 2252 2251 2251 2251 2243 2234 2221 2216 2215 2213 2202 2188 2186 2186 2182 2182 2182 2181 2170 2123 0 0 0 0 0 0 0 0 0 0 1231 1231 1231 1231 1231 1231 1231 1231 1232 1231 1231 1231 1230 1229 1229 1228 1228 1226 1226 1226 1225 1225 1224 1224 1223 1222 1222 1222 1222 1221 1221 1221 1221 1221 1221 1221 1221 1220 1220 1220 1220 1220 1219 1219 1217 1217 1217 1216 1216 1215 1215 1215 1214 1213 1213 1213 1212 1211 1211 1211 1210 1209 1209 1208 1207 1207 1206 1206 1205 1205 1205 1205 1205 1205 1205 1205 1205 1204 1204 1203 1202 1202 1202 1202 1201 1201 1200 1200 1200 1200 1200 1199 1199 1199 1199 1198 1198 1198 1197 1196 1196 1195 1194 1194 1193 1192 1192 1192 1191 1191 1191 1191 1191 1191 1191 1191 1191 1191 1192 1192 1192 1192 1192 1192 1192 1192 1192 1191 1191 1191 1190 1190 1190 1192 1192 1192 1192 1192 1192 1192 1191 1191 1191 1191 1190 1190 1190 1189 1189 1189 1188 1188 1187 1187 1187 1186 1186 1186 1186 1186 1186 1186 1186 1187 1187 1188 1189 1192 1192 1192 1190 1190 1190 1193 0 0 0 0 0 0 1908 1918 1922 1946 1950 1953 1955 1957 1957 1957 1957 1957 1962 1966 1967 1966 1968 1968 1969 1969 1969 1967 1965 1961 1961 1961 1961 1961 0 0 0 0 0 0 0 0 0 0 0 0 0 0 1310 1310 1308 1304 1302 1301 1300 1299 1293 1293 1293 1297 1299 1300 1300 1300 1302 1304 1308 1311 1312 1328 0 0 0 0 0 0 0 0 0 1976 1976 1975 1963 1957 1957 1957 1980 1995 1995 1995 1992 0 0 0 0 0 0 0 0 0 0 0 0 0 0 0 0 0 0 0 0 0 0 0 0 0 0 0 0 0 0 0 0 0 0 0 0 0 1119 1124 1124 1124 1118 1116 1116 1113 1101 1091 1087 1080 1075 1061 1047 1044 1036 1011 982 958 953 943 926 912 902 896 889 884 880 874 867 862 858 854 850 848 847 847 847 848 850 850 850 845 844 844 844 844
3060 3060 3061 3068 3070 3070 3070 3070 3070 3085 3085 3091 3091 3092 3095 3099 3104 3105 3111 3130 3130 3132 3130 3129 3127 3127 3127 3129 3134 3135 3142 3151 3154 3158 3167 3179 3189 3191 3192 3192 3192 3193 3194 3195 3206 3226 3231 3232 3232 3231 3231 3232 3241 3253 3264 3270 3274 3279 3281 3285 3286 3288 3293 3295 3297 3301 3307 3310 3313 3317 3322 3327 3327 3327 3328 3328 3328 3332 3336 3342 3346 3358 3365 3371 3373 3376 3381 3388 3393 3399 3406 3413 3416 3421 3426 3433 3438 3441 3443 3446 3446 3447 3450 3455 3457 3460 3460 3461 3462 3465 3474 3481 3487 3491 3496 3502 3507 3512 3516 3516 3516 3518 3518 3522 3526 3530 3532 3536 3539 3543 3547 3548 3549 3549 3551 3557 3562 3564 3567 3571 3573 3573 3576 3580 3583 3587 3588 3588 3589 3589 3592 3592 3592 3593 3593 3592 3594 3595 3596 3600 3608 3608 3608 3604 3601 3601 3601 3601 3601 3603 3606 3607 3607 3607 3606 3601 3600 3594 3594 3594 3601 3605 3605 3605 3601 3596 3595 3595 3594 3589 3587 3586 3586 3586 3586 3587 3587 3587 3588 3589 3590 3593 3593 3593 3589 3587 3587 3586 3586 3585 3581 3576 3572 3571 3567 3562 3559 3555 3549 3543 3537 3537 3537 3541 3548 3548 3549 3549 3551 3555 3555 3555 3555 3549 3540 3539 3540 3540 3539 3539 3532 3532 3503 3496 3465 3407 3405 3350 2982 2696 0 2319 2289 2273 2270 2264 2258 2256 2254 2254 2253 2251 2251 2251 2243 2233 2221 2215 2211 2208 2202 2188 2182 2180 2180 2180 2180 2180 2170 0 0 0 0 0 0 0 0 0 0 1233 1231 1231 1231 1231 1231 1234 1234 1234 1232 1232 1232 1231 1230 1230 1230 1229 1229 1228 1228 1227 1227 1227 1226 1225 1224 1224 1223 1223 1223 1223 1222 1222 1222 1222 1222 1222 1222 1222 1221 1221 1221 1220 1220 1219 1219 1218 1218 1217 1217 1216 1216 1216 1215 1215 1215 1214 1212 1212 1212 1212 1211 1211 1210 1210 1209 1207 1207 1206 1205 1205 1205 1205 1205 1205 1205 1205 1205 1205 1205 1205 1204 1203 1203 1203 1202 1202 1202 1202 1201 1201 1201 1200 1200 1200 1200 1199 1199 1199 1198 1197 1197 1196 1196 1195 1194 1194 1193 1193 1193 1193 1193 1192 1192 1192 1192 1192 1193 1193 1193 1193 1194 1194 1194 1193 1193 1193 1193 1192 1192 1192 1192 1192 1192 1192 1193 1193 1193 1193 1193 1193 1193 1192 1192 1192 1191 1191 1191 1190 1190 1189 1189 1189 1188 1188 1188 1187 1187 1187 1187 1187 1187 1187 1188 1188 1188 1189 1189 1191 1191 1191 1190 1190 1190 1191 0 0 0 0 0 0 0 1917 1918 1946 1950 1952 1953 1955 1955 1954 1953 1954 1954 1959 1962 1962 1962 1962 1962 1960 1960 1959 1947 1942 1926 1926 0 0 0 0 0 0 0 0 0 0 0 1302 1302 1302 1302 1301 1296 1288 1287 1287 1285 1284 1283 1282 1282 1282 1282 1284 1289 1289 1290 1292 1298 1298 1298 1298 1298 1298 1298 1305 0 0 0 0 0 0 0 1950 1955 1957 1957 1958 1961 1972 1981 2002 2002 2007 2002 0 0 0 0 0 0 0 0 0 0 0 0 0 0 0 0 0 0 0 0 0 0 0 0 0 0 0 0 0 0 0 0 0 0 0 0 0 1124 1124 1124 1124 1118 1116 1113 1111 1092 1086 1084 1084 1075 1060 1038 1027 1015 984 967 955 951 933 921 911 901 891 882 877 874 867 864 861 857 854 849 848 846 846 846 848 850 850 850 845 844 844 843 843
3060 3060 3061 3068 3078 3078 3078 3081 3081 3091 3093 3093 3093 3097 3097 3101 3107 3108 3113 3132 3136 3136 3136 3134 3131 3131 3131 3133 3135 3138 3144 3151 3160 3167 3177 3187 3189 3191 3192 3194 3194 3195 3198 3199 3208 3238 3238 3238 3238 3236 3236 3240 3242 3252 3259 3270 3274 3279 3281 3287 3291 3293 3298 3299 3302 3305 3308 3310 3313 3318 3323 3328 3328 3328 3328 3328 3328 3332 3336 3345 3356 3366 3374 3376 3379 3384 3389 3399 3401 3403 3408 3413 3417 3422 3427 3433 3439 3443 3445 3446 3446 3448 3451 3455 3457 3464 3466 3467 3467 3470 3475 3486 3489 3494 3498 3504 3510 3515 3518 3519 3520 3520 3524 3527 3530 3533 3535 3538 3540 3543 3547 3550 3551 3552 3555 3559 3563 3567 3572 3573 3576 3577 3577 3581 3585 3591 3591 3591 3591 3592 3593 3594 3594 3594 3596 3599 3599 3599 3601 3606 3613 3613 3613 3608 3604 3604 3604 3604 3605 3607 3608 3608 3608 3608 3606 3603 3602 3602 3602 3602 3604 3609 3609 3609 3606 3600 3596 3595 3594 3589 3587 3586 3586 3586 3586 3585 3586 3585 3585 3586 3588 3593 3593 3593 3591 3589 3588 3587 3586 3586 3582 3576 3573 3571 3567 3562 3559 3555 3551 3544 3537 3537 3537 3541 3548 3549 3549 3549 3551 3556 3556 3556 3556 3549 3548 3542 3547 3542 3540 3531 3510 3510 3479 3475 3475 3407 3358 3154 2825 0 0 2296 2285 2276 2270 2262 2258 2256 2255 2254 2253 2251 2251 2251 2243 2232 2221 2215 2211 2208 2208 2202 2177 2175 2173 2173 2173 2173 0 0 0 0 0 0 0 0 0 0 1236 1233 1231 1231 1231 1232 1232 1234 1234 1234 1232 1232 1232 1231 1231 1231 1231 1231 1230 1230 1229 1228 1228 1228 1227 1227 1225 1225 1225 1224 1224 1224 1224 1223 1223 1223 1223 1223 1222 1222 1222 1222 1221 1221 1220 1220 1220 1220 1219 1218 1218 1218 1217 1217 1217 1217 1215 1215 1213 1213 1213 1212 1212 1212 1211 1211 1209 1208 1207 1207 1206 1205 1205 1205 1205 1206 1206 1206 1206 1205 1205 1205 1205 1205 1205 1204 1204 1204 1203 1203 1202 1202 1202 1202 1202 1202 1201 1200 1200 1200 1200 1198 1198 1198 1197 1196 1195 1195 1195 1195 1194 1194 1194 1194 1193 1193 1193 1193 1194 1194 1195 1195 1195 1195 1195 1194 1194 1193 1193 1193 1193 1192 1192 1193 1193 1193 1193 1194 1194 1194 1194 1194 1194 1193 1193 1192 1192 1192 1192 1191 1191 1191 1191 1190 1189 1189 1189 1188 1188 1188 1188 1188 1188 1188 1188 1188 1189 1189 1189 1190 1191 1191 1191 1187 1187 1187 1189 0 0 0 0 0 0 1896 1898 1928 1942 1949 1951 1953 1953 1952 1951 1952 1952 1953 1953 1953 1953 1952 1952 1953 1949 1941 0 0 0 0 0 0 0 0 0 0 0 0 0 1285 1285 1286 1286 1289 1296 1296 1296 1280 1276 1276 1272 1272 1274 1273 1273 1273 1274 1277 1284 1285 1288 1288 1290 1291 1291 1291 1284 1284 1284 1284 1296 0 0 0 0 0 0 0 1950 1952 1952 1952 1971 1972 1997 2002 2002 2019 2002 1972 0 0 0 0 0 0 0 0 0 0 0 0 0 0 0 0 0 0 0 0 0 0 0 0 0 0 0 0 0 0 0 0 0 0 0 1124 1125 1124 1124 1124 1117 1112 1108 1089 1084 1084 1084 1084 1075 1060 1018 1001 990 974 966 953 937 932 919 911 900 889 878 872 867 864 861 859 856 854 849 846 845 845 845 848 850 850 850 845 844 844 843 843
3060 3060 3061 3068 3078 3078 3084 3092 3094 3094 3094 3094 3094 3101 3101 3105 3108 3108 3113 3132 3136 3136 3136 3134 3133 3133 3133 3133 3136 3140 3144 3153 3164 3177 3184 3187 3189 3189 3193 3194 3196 3198 3199 3201 3208 3239 3239 3239 3244 3244 3243 3244 3248 3248 3257 3263 3272 3279 3281 3287 3292 3295 3298 3300 3303 3306 3309 3312 3316 3321 3324 3330 3330 3330 3328 3328 3328 3335 3343 3352 3363 3371 3380 3383 3386 3392 3400 3403 3406 3406 3409 3413 3418 3421 3427 3433 3439 3443 3446 3448 3449 3449 3451 3455 3458 3465 3471 3474 3474 3476 3481 3490 3493 3495 3499 3505 3511 3520 3521 3521 3521 3525 3530 3536 3537 3538 3539 3540 3540 3543 3547 3551 3554 3556 3559 3562 3567 3571 3574 3577 3578 3579 3581 3585 3590 3595 3596 3596 3596 3596 3595 3595 3597 3598 3600 3603 3603 3604 3604 3609 3616 3616 3616 3616 3611 3608 3608 3608 3608 3609 3609 3609 3609 3608 3607 3606 3606 3606 3606 3607 3608 3611 3611 3611 3611 3605 3602 3600 3595 3589 3587 3587 3587 3586 3586 3585 3586 3585 3585 3586 3588 3593 3593 3593 3592 3589 3588 3587 3586 3586 3582 3576 3573 3571 3567 3560 3555 3551 3551 3544 3541 3541 3541 3541 3543 3548 3549 3549 3551 3560 3560 3560 3560 3555 3550 3548 3548 3546 3536 3512 3486 3486 3475 3422 3407 3402 3358 3048 2503 0 0 2282 2279 2276 2270 2269 2262 2261 2257 2251 2251 2251 2249 2249 2242 2230 2222 2211 2211 2208 2208 2203 2177 2163 2154 2152 2152 0 0 0 0 0 0 0 0 0 0 1241 1236 1233 1232 1232 1232 1235 1237 1237 1237 1235 1233 1233 1233 1232 1232 1232 1232 1232 1231 1231 1231 1230 1230 1230 1229 1228 1227 1226 1226 1226 1225 1225 1225 1224 1224 1224 1224 1224 1224 1223 1223 1222 1222 1222 1222 1222 1221 1221 1220 1220 1220 1219 1219 1219 1218 1218 1217 1217 1216 1215 1214 1214 1214 1213 1213 1213 1211 1210 1208 1208 1207 1207 1206 1206 1206 1207 1207 1207 1207 1207 1207 1207 1207 1206 1206 1205 1205 1205 1205 1205 1204 1204 1204 1204 1203 1203 1202 1202 1202 1201 1200 1199 1199 1199 1198 1198 1197 1196 1196 1196 1195 1195 1195 1195 1195 1194 1195 1195 1195 1195 1195 1195 1195 1195 1195 1195 1195 1194 1194 1194 1194 1194 1194 1194 1194 1194 1194 1194 1194 1194 1194 1194 1194 1194 1194 1194 1193 1193 1192 1192 1192 1192 1191 1191 1191 1190 1190 1189 1189 1188 1188 1188 1188 1188 1188 1189 1189 1189 1189 1190 1191 1191 1191 1190 1188 1188 1188 1194 0 0 0 0 0 0 1881 1915 1933 1937 1941 1942 1945 1945 1945 1945 1948 1948 1945 1941 1941 1940 1940 1940 1940 0 0 0 0 0 0 0 0 0 0 0 1266 1266 1266 1267 1269 1269 1269 1269 1273 1277 1277 1277 1268 1268 1268 1272 1272 1272 1272 1272 1273 1275 1280 1280 1281 1281 1281 1286 1286 1286 1284 1283 1278 1278 1278 0 0 0 0 0 0 0 0 1935 1931 1931 1931 1961 1997 2002 2002 2019 2002 1972 0 0 0 0 0 0 0 0 0 0 0 0 0 0 0 0 0 0 0 0 0 0 0 0 0 0 0 0 0 0 0 0 0 0 0 1133 1133 1133 1131 1125 1113 1109 1093 1086 1083 1079 1079 1078 1075 1059 1007 984 982 971 964 950 933 928 918 907 897 886 877 872 866 862 859 856 854 853 849 846 844 844 844 846 847 847 847 845 844 844 842 842
3034 3034 3061 3068 3082 3094 3094 3094 3095 3095 3097 3097 3099 3101 3101 3105 3109 3111 3114 3136 3136 3136 3136 3136 3136 3136 3137 3138 3139 3143 3147 3156 3168 3179 3184 3187 3187 3189 3193 3194 3198 3201 3201 3203 3208 3239 3239 3244 3247 3247 3247 3247 3248 3248 3253 3262 3268 3277 3281 3287 3294 3298 3302 3306 3308 3309 3313 3317 3320 3323 3328 3333 3336 3336 3336 3336 3336 3342 3350 3356 3366 3376 3383 3389 3392 3398 3403 3406 3410 3411 3414 3416 3418 3422 3427 3433 3439 3443 3446 3449 3451 3451 3452 3455 3458 3465 3475 3480 3480 3482 3488 3494 3497 3499 3503 3510 3517 3520 3521 3523 3525 3528 3533 3538 3539 3540 3540 3541 3541 3541 3547 3551 3556 3560 3561 3565 3569 3574 3578 3581 3582 3582 3583 3587 3595 3601 3601 3601 3601 3601 3600 3600 3600 3603 3606 3608 3609 3609 3610 3612 3618 3621 3621 3621 3617 3613 3612 3610 3610 3610 3610 3610 3610 3610 3609 3609 3609 3611 3611 3612 3612 3613 3615 3615 3615 3614 3612 3607 3601 3595 3592 3592 3591 3591 3591 3586 3586 3585 3585 3586 3588 3593 3593 3593 3592 3589 3585 3585 3585 3585 3582 3576 3573 3567 3563 3556 3553 3552 3551 3551 3548 3547 3543 3543 3543 3547 3548 3551 3552 3562 3562 3563 3566 3562 3555 3555 3548 3546 3536 3491 3475 3454 3445 3422 3377 3370 3326 2958 0 0 2275 2275 2274 2273 2270 2269 2262 2262 2257 2251 2248 2247 2247 2246 2238 2230 2223 2213 2209 2208 2208 2203 2177 2152 2150 2148 0 0 0 0 0 0 0 0 0 1242 1241 1240 1238 1238 1236 1236 1236 1237 1238 1238 1238 1235 1234 1234 1233 1233 1233 1233 1233 1233 1233 1232 1232 1232 1232 1231 1230 1230 1229 1228 1227 1227 1227 1226 1226 1226 1226 1225 1225 1225 1225 1225 1224 1223 1223 1223 1223 1223 1222 1222 1222 1221 1221 1221 1220 1220 1220 1220 1219 1218 1218 1217 1216 1216 1215 1215 1214 1213 1213 1212 1210 1209 1209 1208 1208 1208 1208 1208 1208 1208 1208 1209 1209 1209 1208 1208 1207 1206 1206 1206 1206 1206 1205 1205 1205 1204 1204 1204 1204 1204 1203 1202 1202 1202 1201 1201 1199 1199 1199 1198 1198 1198 1197 1197 1197 1196 1196 1197 1197 1196 1197 1197 1197 1196 1196 1196 1196 1196 1196 1196 1196 1196 1195 1195 1195 1195 1195 1195 1195 1195 1195 1195 1195 1195 1195 1195 1194 1194 1194 1194 1193 1193 1193 1193 1192 1192 1192 1192 1191 1191 1190 1190 1189 1189 1189 1189 1189 1189 1189 1189 1190 1190 1191 1191 1191 1190 1188 1188 1188 1194 1203 0 0 0 0 0 1866 1893 1912 1912 1914 1927 1930 1935 1936 1936 1935 1934 1929 1924 1924 1923 1923 0 0 0 0 0 0 0 0 0 0 0 0 1268 1265 1263 1263 1263 1266 1267 1267 1267 1265 1265 1265 1264 1264 1264 1264 1264 1268 1269 1269 1269 1269 1270 1275 1275 1275 1271 1269 1265 1261 1260 1260 1259 1259 1259 1264 1283 0 0 0 0 0 0 0 0 0 0 0 1956 1983 1993 1993 1993 1993 1966 0 0 0 0 0 0 0 0 0 0 0 0 0 0 0 0 0 0 0 0 0 0 0 0 0 0 0 0 0 0 0 0 0 0 1154 1154 1154 1146 1131 1125 1113 1108 1092 1085 1081 1078 1074 1073 1065 1045 1007 984 982 970 957 941 929 924 912 902 893 883 876 872 866 861 858 853 852 849 846 843 842 842 842 842 842 842 843 843 842 842 842 842
3020 3020 3053 3068 3087 3094 3094 3094 3095 3095 3097 3101 3102 3102 3105 3110 3111 3118 3129 3139 3139 3139 3139 3138 3138 3138 3138 3140 3143 3144 3147 3160 3172 3184 3184 3186 3187 3189 3201 3202 3208 3208 3208 3208 3208 3238 3247 3247 3248 3248 3248 3248 3248 3249 3253 3262 3268 3275 3278 3286 3295 3305 3309 3312 3313 3315 3319 3323 3327 3329 3334 3337 3341 3342 3343 3344 3346 3352 3355 3361 3370 3377 3385 3390 3393 3398 3403 3406 3411 3414 3416 3417 3419 3422 3427 3433 3439 3442 3446 3450 3454 3455 3455 3456 3460 3469 3479 3484 3485 3488 3492 3498 3501 3505 3510 3515 3517 3520 3521 3524 3526 3529 3534 3538 3540 3540 3540 3541 3541 3541 3545 3551 3557 3561 3563 3567 3572 3577 3581 3582 3585 3585 3585 3590 3596 3602 3604 3604 3604 3604 3604 3604 3604 3608 3610 3612 3614 3614 3616 3617 3621 3623 3623 3623 3622 3617 3616 3615 3614 3614 3615 3615 3615 3615 3614 3614 3614 3616 3616 3616 3616 3616 3618 3619 3619 3619 3618 3613 3607 3600 3599 3597 3597 3597 3596 3591 3587 3587 3587 3589 3595 3600 3600 3600 3592 3587 3583 3581 3581 3579 3574 3571 3569 3566 3562 3556 3553 3553 3553 3552 3552 3552 3547 3547 3547 3547 3548 3549 3556 3562 3562 3563 3566 3565 3565 3565 3563 3560 3536 3486 3480 3468 3446 3446 3377 3293 3130 2823 0 0 2275 2275 2272 2271 2271 2270 2266 2263 2257 2251 2247 2247 2247 2243 2233 2230 2226 2217 2209 2208 2203 2185 2153 2145 2136 2134 0 0 0 0 0 0 0 0 1246 1242 1241 1241 1241 1241 1241 1239 1239 1239 1238 1238 1238 1237 1235 1235 1234 1234 1234 1234 1234 1234 1234 1234 1234 1234 1234 1233 1232 1232 1231 1230 1229 1229 1228 1228 1227 1227 1227 1226 1226 1226 1225 1225 1225 1225 1224 1223 1223 1223 1223 1223 1223 1223 1223 1222 1222 1222 1222 1221 1221 1220 1219 1218 1218 1216 1216 1216 1216 1215 1214 1214 1212 1211 1210 1210 1210 1210 1210 1210 1210 1210 1210 1210 1210 1210 1210 1209 1208 1208 1208 1208 1208 1207 1207 1206 1206 1205 1205 1205 1205 1205 1204 1204 1203 1202 1202 1202 1200 1200 1200 1200 1199 1199 1199 1198 1198 1198 1197 1197 1198 1198 1198 1198 1198 1198 1198 1197 1197 1197 1198 1198 1198 1197 1196 1196 1196 1196 1196 1196 1196 1196 1196 1196 1196 1195 1196 1195 1195 1195 1195 1195 1194 1194 1193 1193 1193 1193 1193 1192 1192 1191 1191 1191 1191 1190 1190 1190 1190 1190 1190 1190 1190 1191 1191 1191 1191 1190 1189 1189 1189 1193 1201 0 0 0 0 0 0 1892 1903 1906 1909 1910 1929 1929 1935 1935 1935 1929 1909 1906 0 0 0 0 0 0 0 0 0 0 0 1270 1267 1266 1264 1263 1258 1258 1258 1261 1261 1262 1262 1262 1262 1259 1259 1259 1261 1263 1263 1263 1263 1265 1265 1265 1265 1265 1268 1268 1268 1263 1260 1257 1254 1254 1253 1252 1252 1252 1252 1252 1260 0 0 0 0 0 0 0 0 0 0 0 1981 1993 1993 1993 1993 0 0 0 0 0 0 0 0 0 0 0 0 0 0 0 0 0 0 0 0 0 0 0 0 0 0 0 0 0 0 0 0 0 0 1152 1163 1163 1163 1146 1131 1125 1108 1090 1088 1085 1081 1078 1063 1051 1031 1023 996 984 982 967 952 936 924 914 909 898 888 880 875 869 864 860 855 852 849 847 844 840 836 836 836 837 837 837 836 836 836 838 839 839
3020 3020 3053 3068 3087 3094 3096 3096 3095 3095 3098 3102 3103 3111 3115 3119 3123 3130 3138 3140 3140 3141 3140 3140 3139 3139 3139 3140 3143 3148 3153 3164 3174 3185 3185 3186 3189 3199 3205 3208 3209 3209 3209 3209 3209 3235 3247 3251 3251 3251 3249 3249 3249 3249 3253 3262 3268 3275 3278 3286 3298 3307 3314 3318 3323 3326 3328 3329 3333 3335 3339 3342 3345 3346 3346 3348 3351 3356 3360 3367 3374 3384 3390 3395 3397 3400 3403 3406 3411 3416 3421 3421 3422 3424 3427 3433 3437 3442 3446 3451 3455 3456 3459 3459 3465 3474 3480 3484 3486 3490 3494 3501 3505 3509 3514 3517 3518 3519 3521 3525 3527 3529 3534 3539 3540 3540 3540 3541 3541 3541 3545 3551 3558 3563 3565 3568 3573 3579 3584 3586 3588 3589 3590 3595 3600 3605 3608 3609 3609 3609 3609 3610 3610 3613 3616 3616 3617 3619 3621 3623 3626 3628 3628 3628 3626 3626 3622 3619 3619 3619 3620 3620 3620 3620 3620 3620 3620 3620 3620 3621 3621 3622 3624 3624 3624 3620 3618 3615 3610 3606 3604 3604 3603 3603 3598 3594 3591 3591 3591 3595 3599 3600 3600 3600 3592 3587 3582 3577 3577 3572 3570 3568 3566 3566 3562 3556 3555 3555 3555 3555 3555 3554 3550 3547 3547 3547 3548 3549 3556 3562 3562 3563 3568 3575 3575 3576 3576 3570 3540 3499 3468 3467 3444 3444 3371 3255 2871 0 0 2291 2272 2272 2272 2272 2272 2271 2266 2264 2259 2253 2248 2247 2245 2243 2241 2233 2233 2217 2204 2199 2193 2173 2146 2143 2136 0 0 0 0 0 0 0 1250 1250 1246 1244 1244 1244 1244 1244 1242 1241 1240 1240 1239 1239 1239 1238 1237 1236 1236 1236 1236 1236 1236 1236 1236 1236 1236 1235 1235 1234 1233 1233 1233 1232 1231 1231 1230 1229 1228 1228 1228 1227 1227 1226 1226 1226 1226 1226 1225 1225 1225 1224 1225 1224 1224 1224 1224 1224 1224 1224 1223 1223 1222 1222 1221 1220 1219 1219 1218 1218 1218 1218 1216 1215 1214 1212 1212 1212 1212 1211 1211 1211 1211 1211 1211 1211 1211 1211 1211 1211 1210 1210 1209 1209 1209 1209 1209 1208 1208 1207 1207 1207 1206 1206 1206 1205 1205 1204 1204 1204 1204 1203 1202 1202 1201 1201 1200 1200 1199 1199 1199 1199 1199 1200 1200 1200 1199 1199 1199 1199 1199 1199 1198 1198 1198 1198 1198 1198 1198 1198 1198 1198 1197 1197 1197 1197 1197 1197 1197 1197 1197 1196 1196 1195 1195 1195 1195 1194 1194 1193 1193 1193 1193 1193 1192 1192 1192 1191 1191 1191 1191 1191 1191 1191 1191 1191 1192 1192 1192 1192 1190 1190 1190 1193 1200 1207 0 0 0 0 0 1868 1890 1904 1905 1907 1910 1917 1922 1922 1917 0 0 0 0 0 0 0 0 0 0 1301 1277 1268 1267 1266 1265 1262 1258 1253 1253 1253 1258 1258 1258 1258 1257 1257 1257 1255 1255 1255 1261 1261 1261 1259 1259 1259 1260 1261 1261 1262 1262 1262 1261 1254 1251 1250 1248 1241 1239 1238 1238 1239 1238 1237 1241 1244 0 0 0 0 0 0 0 0 0 0 0 0 0 0 0 0 0 0 0 0 0 0 0 0 0 0 0 0 0 0 0 0 0 0 0 0 0 0 0 0 0 0 0 0 0 0 0 0 0 1152 1163 1163 1163 1130 1107 1092 1087 1079 1079 1079 1077 1076 1050 1029 1011 993 990 988 982 967 946 934 923 908 904 892 883 877 872 867 862 858 853 849 847 844 842 836 833 833 833 833 833 833 832 829 829 829 829 829
3020 3020 3053 3079 3093 3098 3098 3098 3098 3098 3098 3102 3106 3111 3118 3123 3123 3130 3138 3140 3141 3141 3141 3140 3139 3139 3139 3142 3147 3153 3160 3169 3178 3186 3187 3189 3194 3199 3205 3208 3209 3209 3209 3212 3212 3235 3247 3257 3257 3257 3253 3253 3253 3254 3264 3269 3271 3275 3278 3286 3300 3312 3319 3325 3328 3330 3331 3332 3336 3339 3342 3346 3347 3349 3354 3356 3357 3361 3364 3373 3383 3390 3396 3396 3397 3400 3403 3406 3411 3417 3423 3424 3424 3424 3427 3433 3437 3442 3446 3451 3456 3459 3460 3464 3470 3476 3480 3484 3488 3493 3499 3505 3511 3514 3516 3518 3519 3519 3521 3525 3528 3532 3535 3539 3541 3541 3542 3544 3544 3545 3545 3551 3558 3563 3568 3572 3576 3583 3587 3590 3591 3594 3597 3599 3604 3610 3611 3611 3612 3615 3615 3616 3617 3620 3622 3622 3623 3626 3627 3629 3630 3631 3633 3633 3633 3633 3629 3626 3625 3625 3625 3624 3624 3624 3624 3623 3623 3623 3623 3624 3624 3626 3626 3626 3625 3621 3618 3617 3613 3611 3610 3609 3607 3605 3600 3595 3595 3595 3598 3602 3604 3604 3604 3600 3591 3584 3578 3575 3573 3570 3566 3566 3566 3565 3562 3558 3556 3556 3556 3556 3556 3554 3550 3550 3549 3548 3549 3557 3560 3563 3566 3567 3568 3577 3578 3578 3578 3578 3540 3507 3465 3460 3413 3403 3361 3164 2846 0 0 2289 2272 2272 2272 2272 2272 2271 2266 2264 2260 2254 2250 2247 2245 2243 2241 2233 2233 2217 2204 2193 2175 2172 2143 2119 0 0 0 0 0 0 0 1251 1250 1250 1246 1244 1244 1244 1244 1244 1243 1242 1241 1241 1241 1241 1240 1240 1238 1238 1238 1237 1237 1237 1237 1237 1237 1237 1236 1236 1236 1235 1235 1235 1234 1234 1233 1232 1231 1230 1230 1230 1229 1228 1228 1228 1227 1227 1227 1226 1226 1226 1226 1226 1226 1226 1225 1225 1225 1225 1224 1224 1224 1224 1223 1223 1222 1221 1221 1220 1220 1220 1220 1219 1218 1216 1214 1214 1214 1214 1214 1214 1213 1212 1212 1212 1212 1213 1213 1213 1212 1212 1212 1211 1211 1211 1211 1210 1210 1210 1210 1209 1209 1209 1208 1207 1207 1207 1206 1206 1206 1206 1206 1205 1204 1204 1203 1202 1201 1201 1201 1201 1201 1201 1201 1201 1201 1201 1201 1201 1201 1200 1200 1200 1200 1200 1199 1199 1199 1199 1199 1199 1199 1199 1198 1198 1198 1198 1198 1198 1198 1198 1198 1197 1197 1197 1196 1196 1196 1196 1196 1195 1195 1195 1194 1194 1194 1193 1193 1192 1192 1192 1192 1192 1191 1191 1191 1192 1192 1193 1193 1193 1192 1192 1192 1194 1198 1199 1201 0 0 0 0 0 1888 1888 1888 1891 1891 1900 0 0 0 0 0 0 0 0 0 0 0 0 1263 1263 1263 1258 1258 1252 1251 1251 1250 1250 1250 1253 1257 1257 1257 1255 1254 1252 1252 1253 1253 1254 1256 1258 1258 1258 1257 1256 1255 1255 1255 1255 1255 1253 1247 1244 1243 1242 1239 1236 1236 1236 1236 1236 1236 1236 1230 1230 1230 1237 0 0 0 0 0 0 0 0 0 0 0 0 0 0 0 0 0 0 0 0 0 0 0 0 0 0 0 0 0 0 0 0 0 0 0 0 0 0 0 0 0 0 0 0 0 0 0 1152 1160 1160 1160 1130 1107 1092 1085 1079 1076 1073 1072 1071 1046 1023 1003 993 988 986 982 965 945 933 917 902 898 885 876 871 868 864 860 855 851 849 846 842 838 833 831 831 831 831 831 831 829 824 821 820 820 819
3048 3048 3076 3081 3094 3104 3104 3104 3101 3101 3101 3102 3106 3111 3118 3124 3124 3130 3138 3138 3139 3140 3141 3140 3141 3141 3142 3146 3150 3159 3166 3175 3184 3189 3190 3191 3194 3199 3205 3205 3209 3212 3213 3215 3222 3235 3248 3257 3259 3259 3259 3259 3259 3259 3276 3280 3283 3283 3283 3291 3306 3317 3321 3325 3328 3331 3331 3335 3337 3342 3344 3348 3353 3358 3363 3365 3366 3367 3369 3378 3385 3392 3396 3398 3398 3401 3403 3406 3411 3418 3424 3426 3427 3427 3429 3433 3437 3442 3447 3454 3460 3463 3465 3468 3473 3476 3480 3486 3493 3499 3506 3511 3516 3518 3519 3519 3519 3519 3521 3526 3533 3536 3537 3539 3541 3543 3544 3545 3547 3551 3552 3553 3561 3568 3571 3576 3581 3588 3591 3594 3598 3599 3601 3604 3608 3612 3615 3615 3616 3618 3622 3624 3624 3624 3625 3627 3629 3631 3635 3637 3637 3637 3637 3641 3641 3641 3639 3634 3633 3633 3631 3628 3628 3628 3628 3628 3628 3627 3627 3627 3630 3630 3630 3630 3626 3624 3619 3617 3617 3616 3616 3616 3612 3606 3602 3602 3602 3604 3608 3608 3608 3605 3602 3598 3591 3584 3576 3574 3573 3570 3566 3566 3564 3564 3564 3562 3561 3561 3560 3558 3558 3555 3555 3555 3556 3558 3558 3560 3560 3566 3568 3569 3569 3577 3580 3583 3583 3580 3570 3540 3540 3463 3463 3403 3339 3163 2761 0 0 2289 2281 2281 2281 2281 2278 2269 2266 2265 2260 2254 2250 2250 2247 2245 2244 2241 2233 2204 2203 2185 2174 2145 0 0 0 0 0 0 0 0 0 1250 1250 1248 1247 1244 1244 1244 1244 1244 1243 1242 1242 1242 1242 1241 1241 1240 1240 1240 1240 1239 1239 1239 1239 1238 1238 1238 1238 1237 1237 1237 1236 1236 1236 1235 1235 1234 1233 1232 1232 1231 1230 1230 1229 1229 1228 1228 1228 1228 1228 1227 1227 1227 1227 1227 1227 1227 1227 1226 1225 1225 1225 1225 1225 1223 1223 1223 1222 1221 1221 1221 1221 1219 1219 1217 1215 1215 1215 1215 1215 1215 1215 1215 1214 1214 1214 1214 1214 1214 1214 1214 1214 1212 1212 1212 1212 1212 1211 1211 1211 1211 1211 1210 1209 1208 1208 1208 1208 1207 1207 1207 1207 1206 1205 1205 1204 1204 1204 1203 1202 1202 1202 1202 1202 1202 1202 1202 1202 1201 1201 1201 1201 1201 1201 1201 1201 1201 1201 1200 1200 1199 1199 1199 1199 1199 1199 1199 1199 1199 1199 1199 1199 1198 1198 1198 1198 1197 1197 1197 1197 1196 1196 1196 1195 1195 1194 1194 1193 1193 1193 1193 1193 1192 1192 1192 1192 1192 1192 1193 1194 1194 1194 1193 1193 1193 1197 1197 1200 0 0 0 0 0 0 1884 1884 1889 0 0 0 0 0 0 0 0 0 0 0 0 1253 1242 1242 1242 1246 1248 1248 1248 1248 1247 1247 1247 1248 1251 1253 1253 1253 1251 1251 1249 1249 1249 1249 1250 1250 1250 1250 1253 1253 1253 1251 1250 1250 1248 1243 1241 1240 1239 1237 1235 1234 1234 1234 1234 1234 1233 1233 1233 1230 1230 1230 1233 1235 1235 1236 0 0 0 0 0 0 0 0 0 0 0 0 0 0 0 0 0 0 0 0 0 0 0 0 0 0 0 0 0 0 0 0 0 0 0 0 0 0 0 0 0 0 0 0 1150 1150 1150 1144 1119 1102 1092 1085 1079 1072 1067 1063 1059 1044 1022 1003 993 985 983 982 957 935 929 916 895 882 878 869 868 867 863 858 853 851 849 845 842 838 832 828 828 827 827 825 825 825 821 817 815 814 814
3053 3053 3089 3090 3095 3104 3105 3105 3104 3102 3102 3102 3109 3111 3119 3124 3125 3126 3138 3138 3140 3141 3141 3141 3142 3144 3147 3147 3154 3159 3167 3178 3189 3190 3190 3192 3194 3194 3199 3205 3209 3215 3216 3223 3230 3241 3248 3257 3259 3261 3262 3262 3262 3268 3282 3291 3292 3293 3294 3297 3310 3318 3321 3325 3328 3331 3331 3336 3339 3342 3347 3351 3355 3358 3363 3370 3372 3373 3376 3378 3386 3394 3397 3399 3399 3402 3404 3406 3411 3420 3426 3430 3430 3432 3433 3437 3440 3445 3454 3462 3466 3469 3471 3473 3477 3480 3486 3492 3501 3508 3514 3518 3518 3518 3519 3521 3521 3521 3524 3530 3537 3538 3541 3541 3541 3544 3545 3548 3551 3555 3556 3561 3568 3573 3575 3581 3586 3593 3599 3601 3603 3604 3606 3608 3611 3615 3617 3617 3617 3620 3625 3629 3629 3630 3630 3630 3633 3637 3640 3641 3641 3641 3641 3641 3642 3643 3643 3643 3640 3638 3635 3631 3629 3629 3629 3629 3630 3631 3631 3633 3636 3636 3636 3631 3627 3624 3619 3619 3618 3618 3618 3617 3617 3612 3612 3612 3616 3620 3620 3620 3611 3606 3602 3598 3591 3584 3576 3574 3571 3569 3565 3565 3564 3563 3563 3562 3561 3561 3560 3559 3558 3555 3555 3555 3561 3561 3562 3562 3561 3562 3565 3569 3569 3575 3578 3582 3582 3578 3572 3540 3531 3460 3441 3385 3294 3010 2525 0 2293 2288 2284 2283 2282 2281 2278 2268 2266 2265 2260 2254 2254 2254 2252 2249 2244 2234 2233 2203 2202 2182 2161 0 0 0 0 0 0 0 0 0 1252 1250 1249 1247 1247 1246 1246 1246 1246 1246 1244 1244 1243 1243 1243 1243 1243 1242 1242 1242 1241 1241 1240 1240 1240 1240 1239 1239 1239 1239 1239 1239 1238 1237 1237 1237 1237 1237 1235 1235 1234 1232 1231 1231 1230 1230 1230 1230 1229 1229 1229 1229 1228 1228 1228 1228 1228 1228 1228 1227 1227 1227 1226 1226 1226 1225 1225 1224 1224 1223 1222 1222 1221 1220 1219 1219 1217 1216 1216 1216 1216 1216 1216 1216 1216 1215 1216 1216 1216 1215 1215 1215 1215 1214 1213 1213 1213 1213 1213 1213 1213 1212 1212 1211 1211 1210 1209 1209 1209 1209 1209 1208 1208 1208 1206 1205 1205 1205 1205 1203 1203 1203 1203 1203 1203 1203 1203 1203 1203 1202 1202 1201 1201 1201 1201 1201 1201 1201 1201 1201 1201 1201 1201 1201 1200 1201 1201 1200 1200 1200 1200 1200 1200 1199 1199 1199 1198 1198 1198 1197 1197 1197 1197 1196 1196 1196 1196 1195 1194 1194 1194 1194 1194 1193 1193 1193 1193 1193 1193 1193 1194 1194 1194 1193 1193 1193 1195 1196 1200 1205 0 0 0 0 0 0 0 0 0 0 0 0 0 0 0 0 0 0 0 1233 1233 1233 1235 1238 1239 1242 1243 1243 1243 1243 1243 1243 1243 1243 1244 1246 1248 1248 1248 1247 1245 1245 1245 1245 1244 1244 1244 1247 1247 1247 1245 1245 1243 1239 1239 1238 1237 1235 1233 1232 1232 1232 1232 1233 1233 1233 1233 1233 1230 1230 1230 1232 1232 1234 1234 1238 1250 0 0 0 0 0 0 0 0 0 0 0 0 0 0 0 0 0 0 0 0 0 0 0 0 0 0 0 0 0 0 0 0 0 0 0 0 0 0 0 0 0 0 1137 1137 1137 1119 1119 1098 1093 1085 1079 1067 1060 1052 1051 1041 1018 996 993 981 977 966 938 930 921 909 894 881 875 868 868 867 862 854 851 850 848 844 839 835 831 826 824 822 821 821 820 819 814 809 809 808 808
3061 3061 3089 3090 3094 3100 3104 3104 3104 3104 3104 3104 3111 3112 3119 3124 3125 3126 3138 3138 3140 3142 3142 3144 3147 3149 3149 3150 3154 3160 3169 3182 3189 3190 3192 3193 3194 3196 3199 3205 3210 3216 3222 3229 3236 3241 3248 3254 3258 3263 3264 3266 3270 3277 3288 3296 3300 3301 3301 3304 3313 3318 3319 3320 3322 3323 3331 3337 3341 3345 3348 3352 3355 3360 3364 3372 3374 3375 3379 3382 3389 3394 3398 3399 3399 3403 3409 3412 3417 3421 3429 3434 3436 3441 3444 3447 3450 3452 3461 3469 3474 3475 3477 3480 3482 3486 3491 3499 3508 3515 3519 3519 3519 3519 3519 3521 3522 3525 3529 3534 3538 3540 3543 3543 3544 3548 3550 3552 3553 3559 3564 3570 3573 3576 3581 3586 3592 3597 3602 3604 3604 3606 3607 3611 3616 3618 3618 3618 3619 3620 3626 3632 3634 3634 3634 3634 3634 3637 3640 3642 3642 3643 3643 3643 3643 3646 3646 3646 3645 3643 3639 3635 3633 3633 3633 3637 3637 3638 3638 3640 3640 3640 3639 3635 3632 3628 3625 3624 3621 3620 3620 3620 3622 3622 3624 3628 3628 3628 3624 3620 3614 3608 3602 3598 3593 3584 3576 3572 3570 3569 3564 3564 3564 3563 3563 3562 3561 3561 3560 3559 3558 3555 3555 3555 3572 3572 3572 3572 3564 3564 3567 3569 3569 3575 3575 3577 3577 3577 3573 3572 3540 3540 3441 3320 3177 2794 0 0 2293 2288 2284 2283 2282 2281 2272 2268 2266 2264 2260 2257 2257 2256 2256 2256 2244 2233 2229 2203 2198 2182 0 0 0 0 0 0 0 0 0 1250 1248 1248 1248 1247 1247 1247 1247 1247 1246 1246 1246 1245 1245 1245 1245 1245 1244 1244 1244 1243 1243 1243 1243 1242 1242 1242 1241 1241 1241 1241 1240 1240 1239 1239 1238 1238 1237 1237 1236 1235 1234 1234 1234 1232 1232 1231 1231 1231 1230 1230 1229 1229 1229 1229 1229 1229 1229 1228 1228 1228 1228 1228 1228 1227 1227 1226 1225 1225 1225 1224 1224 1223 1222 1222 1221 1221 1221 1219 1219 1218 1218 1218 1218 1218 1217 1217 1217 1217 1217 1216 1216 1216 1216 1215 1215 1215 1214 1214 1213 1213 1213 1213 1213 1213 1213 1212 1212 1211 1210 1210 1209 1209 1209 1208 1208 1206 1206 1206 1205 1204 1204 1204 1204 1204 1204 1204 1204 1204 1204 1204 1204 1203 1203 1203 1203 1203 1203 1203 1203 1202 1202 1202 1202 1202 1202 1202 1202 1201 1201 1201 1201 1201 1200 1200 1200 1200 1199 1199 1199 1199 1199 1198 1198 1198 1197 1197 1196 1196 1195 1195 1195 1195 1194 1194 1194 1194 1194 1194 1194 1194 1195 1195 1194 1194 1194 1193 1193 1194 1198 1204 0 0 0 0 0 0 0 0 0 0 0 0 0 0 0 0 1220 1220 1223 1227 1231 1233 1235 1236 1237 1238 1238 1238 1238 1238 1238 1238 1238 1238 1239 1241 1243 1245 1245 1245 1243 1243 1242 1241 1241 1241 1241 1241 1241 1240 1238 1236 1236 1236 1236 1236 1234 1231 1231 1231 1231 1232 1232 1233 1233 1233 1233 1233 1232 1232 1232 1232 1232 1233 1233 1238 1250 1262 1279 0 0 0 0 0 0 0 0 0 0 0 0 0 0 0 0 0 0 0 0 0 0 0 0 0 0 0 0 0 0 0 0 0 0 0 0 0 0 0 0 1122 1122 1122 1108 1106 1106 1101 1098 1093 1064 1028 1027 1020 1011 994 981 977 976 969 946 933 925 916 903 890 879 874 868 868 867 858 854 851 848 846 842 838 834 830 826 823 821 818 816 813 809 805 800 799 796 796
3061 3061 3081 3089 3093 3099 3100 3106 3107 3108 3108 3109 3111 3112 3119 3124 3125 3126 3138 3139 3140 3143 3144 3149 3149 3150 3152 3152 3157 3163 3171 3183 3189 3190 3192 3193 3194 3198 3199 3210 3213 3216 3225 3233 3239 3243 3248 3254 3258 3263 3266 3267 3271 3281 3294 3297 3303 3305 3306 3310 3316 3318 3318 3318 3321 3323 3331 3339 3343 3347 3349 3352 3356 3361 3365 3372 3377 3377 3384 3389 3394 3397 3399 3399 3399 3405 3412 3418 3423 3426 3431 3438 3446 3454 3456 3461 3461 3462 3469 3473 3480 3481 3483 3487 3492 3494 3498 3505 3513 3520 3521 3521 3521 3522 3522 3523 3525 3530 3537 3541 3541 3542 3544 3545 3549 3552 3554 3557 3560 3564 3571 3576 3578 3580 3585 3591 3597 3599 3603 3604 3605 3606 3608 3614 3618 3620 3620 3620 3620 3620 3627 3634 3636 3636 3636 3636 3636 3637 3642 3644 3645 3645 3646 3646 3647 3649 3652 3652 3652 3649 3647 3645 3642 3642 3642 3646 3646 3646 3646 3646 3646 3644 3642 3642 3640 3637 3634 3630 3627 3621 3621 3621 3622 3627 3630 3631 3631 3631 3625 3621 3616 3610 3605 3600 3594 3585 3576 3572 3570 3565 3562 3562 3561 3561 3561 3561 3560 3559 3560 3560 3559 3559 3560 3560 3574 3574 3574 3574 3565 3565 3567 3569 3569 3576 3576 3576 3573 3573 3572 3533 3508 3482 3441 3316 3099 2685 0 0 2293 2288 2283 2282 2281 2278 2270 2268 2266 2266 2261 2260 2260 2257 2257 2251 2244 2233 2229 2198 0 0 0 0 0 0 0 0 0 0 1253 1249 1248 1248 1248 1247 1247 1247 1247 1248 1248 1248 1248 1247 1246 1246 1246 1246 1246 1246 1246 1246 1245 1245 1244 1244 1244 1244 1244 1243 1243 1242 1242 1242 1242 1241 1241 1240 1239 1237 1237 1237 1236 1235 1235 1235 1234 1233 1232 1232 1231 1231 1231 1231 1231 1231 1230 1230 1230 1230 1229 1229 1229 1229 1229 1229 1228 1228 1227 1226 1226 1226 1226 1225 1224 1224 1224 1223 1223 1221 1221 1221 1220 1220 1220 1219 1218 1218 1218 1218 1218 1218 1218 1217 1217 1217 1216 1216 1216 1216 1215 1215 1215 1215 1215 1214 1214 1214 1213 1212 1211 1211 1210 1210 1210 1210 1209 1208 1207 1206 1206 1205 1204 1204 1204 1205 1205 1205 1205 1205 1205 1205 1205 1205 1205 1204 1204 1204 1204 1204 1204 1203 1203 1203 1203 1203 1203 1202 1202 1202 1202 1202 1202 1202 1202 1201 1201 1201 1201 1200 1200 1200 1200 1199 1199 1199 1198 1198 1197 1196 1196 1196 1196 1196 1196 1195 1195 1195 1195 1195 1195 1195 1195 1195 1195 1195 1195 1194 1195 1195 1197 1202 1203 0 0 0 0 0 0 0 0 0 0 0 0 1219 1215 1215 1215 1216 1223 1226 1228 1232 1234 1236 1236 1236 1235 1235 1235 1236 1237 1237 1237 1238 1239 1240 1242 1242 1242 1242 1242 1241 1240 1240 1238 1238 1238 1237 1237 1235 1235 1235 1233 1233 1233 1232 1230 1230 1230 1230 1230 1231 1232 1233 1233 1234 1234 1234 1234 1234 1233 1233 1232 1233 1233 1238 1249 1256 1270 1274 1275 0 0 0 0 0 0 0 0 0 0 0 0 0 0 0 0 0 0 0 0 0 0 0 0 0 0 0 0 0 0 0 0 0 0 0 0 0 0 0 1115 1106 1098 1094 1098 1101 1098 1094 1062 1028 1009 998 994 994 976 963 963 959 944 933 924 914 901 889 879 874 868 867 861 858 854 851 848 844 841 837 834 829 826 823 819 817 811 805 800 797 791 787 785 785
3053 3053 3069 3074 3087 3092 3092 3102 3106 3108 3109 3109 3115 3118 3122 3127 3129 3131 3140 3144 3144 3146 3148 3150 3151 3151 3154 3154 3159 3165 3172 3183 3186 3189 3192 3193 3200 3204 3206 3210 3213 3221 3228 3238 3242 3243 3248 3254 3258 3264 3266 3267 3271 3281 3294 3297 3306 3307 3308 3310 3316 3317 3318 3318 3320 3323 3331 3344 3349 3350 3350 3353 3356 3361 3365 3374 3380 3383 3387 3392 3397 3399 3401 3401 3403 3410 3417 3426 3429 3432 3437 3444 3453 3459 3462 3467 3469 3470 3475 3479 3480 3483 3487 3491 3494 3497 3503 3510 3518 3522 3523 3524 3524 3524 3527 3529 3536 3546 3549 3551 3551 3552 3552 3553 3554 3558 3562 3565 3568 3573 3577 3582 3584 3588 3592 3597 3602 3605 3605 3605 3606 3607 3612 3616 3620 3623 3624 3624 3625 3627 3632 3636 3638 3638 3638 3638 3638 3638 3642 3645 3649 3650 3650 3651 3652 3656 3658 3658 3658 3657 3655 3653 3651 3651 3651 3654 3654 3654 3653 3651 3649 3649 3649 3648 3647 3646 3641 3634 3630 3621 3621 3621 3622 3627 3631 3631 3631 3631 3626 3623 3621 3617 3611 3610 3600 3586 3577 3572 3568 3559 3559 3559 3561 3561 3561 3561 3560 3559 3560 3560 3560 3560 3560 3560 3576 3576 3580 3579 3579 3572 3569 3569 3569 3569 3569 3569 3566 3566 3546 3508 3508 3456 3402 3316 3047 0 0 2307 2293 2288 2283 2282 2281 2276 2267 2267 2266 2266 2266 2261 2260 2257 2252 2251 2244 2233 2229 0 0 0 0 0 0 0 0 0 1255 1254 1253 1249 1248 1248 1248 1247 1247 1247 1247 1249 1249 1249 1249 1248 1248 1247 1247 1247 1247 1247 1247 1247 1247 1247 1247 1246 1246 1246 1246 1246 1246 1244 1244 1244 1243 1243 1243 1242 1242 1241 1240 1238 1237 1237 1236 1236 1236 1236 1234 1233 1233 1232 1232 1232 1232 1232 1232 1232 1232 1232 1232 1231 1231 1231 1230 1230 1230 1229 1228 1228 1227 1227 1227 1227 1226 1226 1226 1225 1224 1224 1223 1222 1222 1221 1221 1220 1220 1220 1220 1220 1219 1219 1219 1218 1218 1218 1217 1217 1217 1217 1217 1217 1216 1216 1216 1216 1215 1214 1214 1213 1213 1212 1212 1212 1211 1211 1210 1210 1209 1209 1208 1208 1208 1206 1206 1206 1206 1206 1206 1206 1206 1206 1206 1206 1206 1206 1206 1206 1206 1206 1205 1205 1205 1204 1204 1204 1204 1204 1203 1203 1203 1203 1203 1203 1203 1203 1203 1202 1202 1202 1202 1201 1201 1201 1201 1200 1200 1199 1198 1198 1198 1197 1197 1197 1197 1196 1196 1196 1196 1196 1196 1196 1196 1196 1196 1196 1196 1196 1196 1196 1197 1198 1198 1201 0 0 0 0 0 0 0 0 1223 1222 1222 1219 1215 1215 1215 1216 1222 1225 1228 1229 1234 1234 1234 1234 1233 1233 1233 1236 1236 1237 1237 1237 1238 1239 1240 1240 1240 1240 1240 1239 1237 1237 1237 1236 1235 1235 1234 1232 1231 1231 1231 1231 1231 1230 1229 1229 1229 1229 1229 1231 1232 1233 1233 1234 1234 1234 1234 1234 1234 1233 1233 1234 1236 1247 1248 1253 1260 1260 1262 1262 0 0 0 0 0 0 0 0 0 0 0 0 0 0 0 0 0 0 0 0 0 0 0 0 0 0 0 0 0 0 0 0 0 0 0 0 0 0 0 0 1073 1086 1088 1094 1094 1094 1059 1028 1007 992 987 985 972 958 947 943 938 930 921 909 897 888 878 872 868 866 861 858 855 851 846 841 838 834 830 827 823 820 816 814 809 800 795 792 786 782 781 781
3040 3048 3048 3052 3068 3085 3092 3102 3112 3115 3116 3116 3118 3124 3127 3129 3132 3132 3144 3146 3147 3148 3148 3150 3152 3153 3154 3156 3159 3165 3172 3183 3186 3188 3189 3193 3200 3204 3206 3210 3214 3222 3232 3242 3246 3247 3250 3255 3258 3264 3267 3268 3272 3281 3294 3296 3306 3307 3309 3310 3316 3317 3317 3317 3318 3325 3335 3350 3352 3353 3355 3355 3358 3362 3366 3374 3384 3389 3391 3395 3400 3403 3405 3407 3413 3418 3426 3430 3435 3438 3443 3449 3456 3459 3463 3470 3473 3475 3476 3479 3482 3485 3490 3493 3497 3501 3505 3512 3520 3525 3526 3526 3527 3529 3533 3538 3541 3547 3550 3553 3555 3558 3559 3559 3562 3565 3569 3572 3575 3579 3584 3587 3590 3595 3600 3604 3605 3605 3607 3607 3608 3609 3614 3617 3621 3624 3627 3628 3628 3632 3637 3640 3641 3641 3641 3641 3641 3643 3645 3649 3652 3652 3653 3655 3657 3660 3661 3661 3661 3661 3659 3658 3658 3658 3657 3658 3658 3657 3657 3656 3655 3655 3655 3653 3653 3652 3644 3638 3633 3621 3621 3621 3623 3629 3633 3633 3633 3631 3627 3627 3625 3623 3622 3617 3609 3598 3579 3572 3568 3558 3558 3558 3560 3560 3560 3560 3560 3559 3560 3561 3560 3560 3565 3575 3576 3576 3579 3576 3575 3575 3583 3571 3580 3580 3571 3565 3563 3553 3541 3509 3509 3408 3396 3073 2701 0 0 2302 2293 2289 2285 2281 2273 2272 2267 2267 2267 2271 2271 2271 2260 2250 2249 2245 2238 2233 0 0 0 0 0 0 0 0 0 1258 1255 1254 1253 1249 1249 1249 1248 1248 1248 1248 1248 1249 1250 1250 1250 1249 1249 1249 1249 1248 1248 1248 1249 1249 1249 1249 1249 1248 1248 1248 1247 1247 1247 1246 1246 1245 1245 1245 1244 1244 1244 1243 1241 1241 1240 1238 1238 1238 1237 1237 1236 1235 1234 1234 1234 1233 1233 1233 1233 1233 1233 1233 1233 1233 1232 1232 1232 1232 1232 1231 1230 1229 1229 1229 1229 1228 1228 1228 1227 1227 1227 1225 1225 1224 1224 1223 1222 1222 1221 1221 1221 1220 1220 1220 1220 1219 1219 1219 1219 1218 1218 1218 1218 1218 1217 1217 1217 1217 1216 1216 1215 1215 1214 1214 1213 1213 1212 1212 1212 1211 1211 1210 1210 1209 1209 1208 1208 1208 1208 1208 1208 1208 1208 1208 1208 1208 1208 1208 1207 1207 1207 1207 1206 1206 1206 1205 1205 1205 1205 1205 1205 1205 1205 1205 1205 1204 1204 1204 1204 1204 1204 1204 1203 1202 1202 1202 1202 1200 1200 1200 1199 1199 1198 1198 1198 1198 1198 1198 1198 1197 1197 1197 1197 1197 1197 1197 1197 1197 1197 1196 1195 1194 1194 1194 1194 1197 1201 0 0 0 0 0 0 1220 1220 1220 1220 1217 1214 1214 1214 1216 1222 1224 1226 1226 1229 1231 1231 1231 1231 1231 1232 1235 1236 1236 1237 1237 1238 1239 1239 1239 1238 1238 1237 1236 1236 1235 1235 1235 1233 1233 1232 1230 1230 1230 1230 1230 1229 1228 1228 1228 1228 1229 1229 1231 1232 1233 1234 1234 1234 1235 1235 1235 1235 1234 1234 1234 1240 1248 1248 1248 1252 1252 1252 1256 1256 1271 1297 1297 1306 1333 1333 1333 0 0 0 0 0 0 0 0 0 0 0 0 0 0 0 0 0 0 0 0 0 0 0 0 0 0 0 0 0 0 0 0 0 1073 1082 1083 1083 1083 1058 1026 1001 994 987 982 970 957 939 933 932 928 916 904 893 885 878 872 870 866 861 858 855 851 843 838 833 827 821 817 814 811 806 803 799 796 793 788 785 781 780 780
3033 3033 3033 3045 3059 3085 3092 3102 3116 3116 3116 3116 3120 3125 3127 3132 3134 3136 3146 3147 3147 3149 3149 3150 3152 3156 3157 3158 3161 3166 3171 3181 3186 3186 3189 3194 3200 3205 3206 3210 3214 3223 3232 3242 3246 3251 3253 3255 3258 3264 3268 3270 3272 3281 3288 3296 3305 3308 3310 3310 3312 3313 3317 3317 3319 3331 3342 3354 3354 3356 3356 3356 3358 3365 3368 3380 3390 3395 3397 3397 3403 3409 3413 3420 3423 3428 3433 3438 3442 3445 3448 3454 3459 3462 3468 3472 3473 3476 3477 3480 3483 3486 3490 3494 3499 3502 3508 3515 3521 3525 3526 3527 3531 3534 3538 3543 3544 3548 3554 3555 3558 3559 3562 3564 3566 3570 3572 3574 3578 3584 3587 3592 3596 3600 3605 3608 3608 3608 3608 3608 3610 3612 3617 3620 3623 3627 3631 3632 3634 3636 3639 3641 3644 3645 3646 3646 3647 3647 3650 3651 3652 3652 3653 3655 3659 3662 3663 3663 3663 3662 3660 3660 3660 3660 3661 3661 3661 3661 3660 3660 3660 3660 3660 3658 3658 3656 3650 3644 3638 3632 3625 3625 3625 3630 3634 3636 3636 3636 3632 3631 3630 3628 3624 3618 3613 3605 3594 3583 3568 3559 3558 3558 3559 3559 3563 3564 3566 3569 3571 3572 3572 3572 3575 3575 3576 3576 3578 3576 3575 3575 3588 3576 3576 3576 3560 3544 3544 3525 3509 3495 3462 3402 3347 2986 0 0 2322 2302 2295 2293 2288 2278 2265 2265 2265 2266 2267 2271 2271 2271 2258 2245 2241 2238 2238 0 0 0 0 0 0 0 0 0 1260 1258 1255 1254 1253 1250 1250 1250 1249 1249 1249 1249 1249 1249 1250 1251 1251 1251 1251 1251 1251 1250 1250 1250 1250 1250 1250 1250 1250 1250 1249 1249 1249 1249 1248 1248 1246 1246 1246 1246 1246 1245 1245 1245 1242 1242 1242 1240 1239 1239 1239 1238 1237 1236 1235 1235 1235 1235 1234 1234 1234 1234 1234 1234 1234 1234 1234 1234 1233 1233 1233 1232 1231 1230 1229 1229 1229 1229 1229 1229 1229 1229 1229 1226 1226 1226 1225 1224 1224 1224 1222 1222 1222 1222 1221 1221 1221 1220 1220 1220 1220 1220 1220 1219 1219 1219 1219 1218 1218 1218 1217 1217 1217 1216 1216 1215 1214 1214 1214 1213 1213 1212 1212 1211 1210 1210 1209 1209 1209 1209 1209 1209 1209 1209 1209 1209 1209 1209 1209 1209 1208 1208 1208 1208 1207 1207 1207 1207 1207 1207 1206 1206 1206 1206 1206 1206 1206 1206 1205 1205 1205 1205 1205 1205 1205 1204 1203 1203 1203 1203 1202 1201 1200 1200 1200 1199 1199 1199 1199 1199 1199 1199 1198 1198 1198 1198 1198 1198 1198 1198 1198 1197 1196 1194 1194 1194 1194 1196 1198 1203 1207 1208 1208 1207 1208 1208 1214 1217 1217 1217 1215 1215 1215 1216 1222 1222 1223 1223 1224 1227 1228 1230 1231 1231 1232 1235 1236 1236 1236 1237 1237 1237 1237 1236 1236 1235 1235 1235 1234 1234 1233 1233 1232 1231 1230 1229 1229 1229 1229 1229 1228 1228 1228 1228 1228 1229 1229 1231 1232 1233 1234 1234 1235 1236 1237 1237 1237 1237 1237 1237 1241 1248 1248 1252 1252 1252 1252 1256 1256 1267 1293 1294 1297 1319 1319 1319 1289 0 0 0 0 0 0 0 0 0 0 0 0 0 0 0 0 0 0 0 0 0 0 0 0 0 0 0 0 0 0 0 0 0 0 0 0 1055 1055 1026 1001 997 994 982 970 957 939 932 932 927 916 904 893 885 878 874 870 867 862 859 855 851 842 836 829 821 813 807 804 800 798 795 794 791 788 784 783 780 779 779
3015 3027 3027 3039 3059 3085 3092 3114 3116 3116 3116 3116 3125 3125 3127 3133 3134 3138 3146 3149 3149 3149 3149 3150 3153 3157 3160 3161 3163 3168 3171 3180 3184 3186 3189 3194 3201 3207 3208 3210 3214 3223 3232 3242 3246 3251 3253 3255 3258 3262 3268 3271 3272 3281 3288 3296 3305 3308 3310 3310 3311 3313 3317 3319 3324 3334 3345 3355 3357 3359 3360 3361 3365 3369 3372 3386 3396 3399 3401 3402 3408 3419 3429 3430 3430 3434 3440 3444 3447 3450 3453 3459 3463 3467 3469 3472 3475 3476 3479 3480 3485 3489 3490 3495 3500 3506 3511 3517 3523 3527 3530 3532 3534 3539 3543 3545 3546 3549 3554 3555 3560 3562 3566 3569 3571 3572 3572 3575 3581 3584 3588 3593 3599 3604 3609 3609 3609 3609 3609 3609 3612 3618 3621 3624 3629 3633 3635 3636 3638 3638 3640 3641 3644 3649 3651 3651 3651 3651 3651 3652 3653 3653 3654 3657 3661 3665 3665 3665 3665 3665 3665 3664 3664 3664 3665 3665 3665 3665 3665 3665 3665 3663 3663 3663 3662 3660 3655 3648 3645 3641 3636 3635 3635 3635 3637 3642 3642 3642 3638 3636 3635 3633 3626 3620 3613 3608 3600 3591 3576 3564 3560 3560 3560 3560 3564 3571 3571 3572 3574 3575 3575 3575 3553 3553 3553 3554 3574 3574 3575 3576 3591 3586 3586 3586 3560 3550 3550 3543 3509 3509 3462 3360 3296 2953 0 0 2322 2298 2295 2293 2288 2277 2263 2263 2263 2267 2269 2269 2267 2263 2245 2238 2238 2229 0 0 0 0 0 0 0 0 0 1261 1260 1258 1255 1254 1253 1253 1252 1252 1252 1252 1252 1251 1251 1251 1252 1252 1252 1252 1252 1252 1252 1252 1251 1251 1251 1252 1252 1252 1252 1251 1251 1250 1250 1250 1250 1248 1248 1247 1247 1247 1247 1247 1246 1246 1245 1245 1244 1243 1241 1240 1239 1239 1238 1238 1237 1236 1236 1236 1235 1235 1235 1235 1235 1235 1235 1235 1235 1234 1234 1234 1234 1233 1232 1232 1231 1231 1230 1230 1229 1230 1230 1229 1229 1228 1227 1226 1226 1226 1225 1225 1224 1224 1224 1223 1223 1223 1222 1222 1222 1222 1222 1222 1222 1221 1221 1220 1220 1220 1219 1219 1219 1218 1217 1217 1216 1216 1216 1216 1216 1215 1214 1213 1213 1212 1211 1210 1210 1210 1210 1210 1210 1210 1210 1210 1211 1211 1211 1211 1211 1210 1210 1210 1209 1209 1209 1209 1208 1208 1208 1207 1207 1207 1207 1207 1207 1207 1207 1207 1207 1207 1207 1207 1207 1206 1206 1205 1204 1204 1203 1203 1203 1202 1201 1201 1201 1200 1200 1200 1200 1200 1200 1200 1199 1199 1199 1199 1199 1199 1199 1198 1198 1198 1197 1196 1194 1194 1194 1196 1198 1202 1204 1204 1205 1204 1205 1208 1208 1213 1214 1214 1215 1215 1215 1216 1219 1220 1220 1221 1224 1226 1227 1229 1230 1230 1231 1233 1234 1234 1235 1235 1235 1235 1235 1235 1234 1234 1233 1232 1232 1232 1232 1231 1231 1230 1228 1228 1228 1228 1228 1228 1228 1228 1228 1228 1229 1230 1231 1232 1232 1233 1234 1234 1235 1236 1238 1238 1239 1239 1240 1240 1245 1248 1252 1253 1256 1252 1252 1256 1256 1267 1278 1286 1287 1312 1312 1312 1300 0 0 0 0 0 0 0 0 0 0 0 0 0 0 0 0 0 0 0 0 0 0 0 0 0 0 0 0 0 0 0 0 0 0 0 0 0 1053 1028 1000 997 995 982 970 957 939 932 931 925 915 904 892 885 878 875 874 870 869 862 854 848 841 831 825 815 806 800 798 795 793 791 789 786 783 779 777 777 777 777
3015 3027 3027 3035 3059 3090 3103 3115 3116 3116 3116 3116 3125 3127 3129 3133 3134 3139 3148 3149 3149 3150 3151 3152 3154 3158 3161 3163 3165 3168 3172 3180 3184 3187 3189 3194 3201 3207 3208 3210 3215 3223 3230 3236 3244 3251 3253 3255 3258 3262 3268 3275 3277 3282 3288 3296 3305 3309 3310 3310 3311 3313 3317 3321 3327 3335 3347 3355 3360 3361 3364 3367 3372 3374 3377 3389 3399 3409 3410 3410 3413 3422 3429 3430 3431 3437 3443 3447 3451 3454 3457 3460 3465 3468 3470 3473 3476 3478 3481 3484 3486 3491 3495 3499 3504 3507 3511 3517 3524 3529 3534 3535 3540 3545 3547 3548 3548 3549 3554 3555 3560 3566 3570 3572 3572 3572 3573 3576 3581 3586 3589 3594 3600 3606 3611 3611 3611 3611 3611 3611 3614 3621 3627 3631 3636 3641 3642 3642 3642 3642 3642 3642 3646 3649 3652 3652 3652 3653 3653 3654 3655 3656 3656 3659 3663 3665 3666 3666 3666 3666 3667 3668 3668 3668 3668 3668 3669 3669 3669 3669 3669 3667 3665 3664 3663 3662 3658 3655 3651 3648 3644 3641 3641 3641 3642 3645 3645 3645 3641 3638 3636 3633 3627 3620 3613 3609 3602 3591 3578 3567 3561 3561 3561 3561 3566 3572 3572 3574 3574 3572 3571 3560 3526 3526 3526 3550 3554 3564 3568 3576 3591 3578 3578 3578 3551 3550 3539 3528 3480 3480 3462 3358 3087 2552 0 2339 2319 2296 2295 2290 2288 2268 2268 2268 2267 2268 2270 2268 2267 2259 2244 2236 2224 0 0 0 0 0 0 0 0 0 1263 1261 1260 1259 1258 1257 1256 1256 1254 1254 1254 1254 1253 1252 1252 1252 1253 1253 1253 1253 1253 1254 1254 1254 1254 1254 1254 1254 1254 1254 1254 1252 1251 1251 1250 1250 1250 1249 1248 1248 1248 1248 1248 1248 1248 1247 1247 1247 1246 1245 1243 1242 1241 1240 1240 1239 1238 1238 1237 1237 1237 1237 1237 1237 1237 1237 1237 1236 1236 1236 1236 1235 1234 1234 1234 1234 1232 1231 1231 1231 1231 1231 1230 1230 1229 1228 1227 1227 1227 1226 1226 1226 1226 1225 1224 1224 1224 1224 1224 1223 1223 1222 1222 1222 1222 1222 1222 1222 1221 1221 1220 1220 1220 1220 1218 1217 1217 1217 1217 1217 1217 1216 1215 1214 1213 1213 1211 1211 1211 1211 1211 1212 1212 1212 1212 1212 1212 1212 1212 1212 1211 1211 1211 1211 1211 1210 1210 1210 1210 1209 1209 1208 1208 1208 1208 1208 1208 1208 1208 1208 1208 1208 1208 1208 1207 1207 1206 1206 1205 1205 1205 1204 1204 1203 1202 1202 1202 1201 1201 1201 1201 1201 1201 1201 1201 1201 1200 1200 1200 1200 1199 1199 1199 1199 1198 1198 1198 1196 1196 1196 1196 1196 1197 1203 1204 1204 1204 1205 1208 1210 1212 1213 1213 1214 1215 1216 1218 1219 1219 1221 1223 1225 1226 1226 1228 1229 1230 1232 1233 1233 1234 1234 1234 1233 1233 1233 1232 1232 1231 1230 1230 1230 1230 1229 1228 1228 1228 1228 1228 1228 1228 1228 1228 1228 1228 1229 1230 1231 1232 1233 1234 1234 1235 1236 1236 1237 1238 1240 1241 1241 1241 1242 1246 1253 1253 1256 1256 1256 1252 1248 1248 1248 1277 1284 1286 1305 1305 1305 1300 0 0 0 0 0 0 0 0 0 0 0 0 0 0 0 0 0 0 0 0 0 0 0 0 0 0 0 0 0 0 0 0 0 0 0 0 0 1028 1028 1000 997 995 983 968 959 945 938 930 921 912 904 891 884 877 875 874 872 869 862 851 842 835 829 824 813 806 800 794 792 788 785 783 780 776 775 775 774 774 774
