1772 1771 1761 1758 1758 1758 1761 1762 1763 1763 1765 1765 1765 1762 1759 1757 1751 1746 1745 1745 1745 1742 1742 1739 1732 1728 1726 1724 1711 1697 1695 1695 1695 1697 1697 1698 1698 1699 1699 1700 1700 1701 1701 1701 1704 1706 1707 1708 1708 1708 1707 1707 1706 1704 1702 1701 1699 1698 1695 1695 1693 1691 1689 1688 1686 1685 1685 1684 1684 1685 1685 1685 1685 1684 1684 1684 1686 1692 1693 1693 1694 1696 1696 1696 1696 1682 1680 1676 0 0 0 0 0 0 0 0 0 0 0 0 0 0 0 0 0 0 0 0 0 0 0 0 0 0 0 0 0 0 0 0 2079 2099 2124 2157 2172 2194 2214 2228 2238 2241 2252 2259 2268 0 0 0 2433 2449 2467 2485 2517 2517 2517 2501 2495 2489 2495 2495 2495 2503 2506 2506 2514 2515 2520 2520 2520 2517 2504 0 0 0 0 0 0 0 0 0 0 2503 2517 2540 2567 2588 2596 2596 2596 2596 2595 2593 2592 2578 2574 2573 2571 2571 2567 2567 2567 2588 2588 2588 2582 2570 2554 2509 0 0 0 0 0 0 0 0 0 0 0 0 0 0 0 0 0 0 0 0 0 0 0 0 0 0 0 0 0 0 0 0 0 0 0 0 0 0 0 0 0 0 0 0 0 0 0 0 0 0 0 0 0 0 0 0 0 0 0 0 0 0 0 0 0 0 0 0 0 0 0 0 0 0 0 0 0 0 0 2432 2434 2437 2444 2446 2458 2459 2464 2478 2483 2487 2488 2495 2497 2498 2505 2508 2509 2510 2511 2513 2513 2513 2513 2515 2521 2528 2528 2529 2529 2529 2529 2529 2534 2538 2541 2545 2546 2547 2547 2548 2554 2558 2567 2586 2586 2586 2585 2577 2576 2555 0 0 0 0 0 0 0 0 0 0 0 0 0 0 0 0 0 0 0 0 0 0 0 0 0 0 0 0 0 0 0 0 0 0 0 0 0 0 0 0 0 0 0 0 0 0 0 2305 2294 2291 2287 2281 2274 2253 2224 2179 2166 2157 2150 2141 2130 2122 2112 2100 2087 2079 2074 2069 2064 2047 2033 2026 2022 2017 2010 2005 2000 1996 1992 1988 1982 1976 1974 1970 1967 1965 1962 1958 1954 1949 1944 1939 1935 1932 1929 1927 1923 1921 1917 1916 1912 1910 1908 1906 1904 1901 1899 1897 1895 1893 1892 1889 1888 1887 1886 1884 1883 1881 1880 1879 1877 1877 1875 1874 1873 1871 1869 1867 1865 1864 1862 1861 1860 1858 1858 1856 1855 1854 1852 1851 1849 1847 1845 1843 1842 1841 1840 1839 1838 1837 1836 1835 1834 1833 1833 1833 1832 1831 1831 1831 1830 1830 1829 1828 1827 1826 1826 1825 1824 1824 1822 1821 1821 1819 1818 1818 1816 1814 1812 1812 1812 1812 1812 1812 1812 1811 1811 1811 1811 1810 1809 1809 1807 1806 1804 1802 1801 1800 1798 1796 1793 1789 1787 1786 1786 1785 1782 1781 1781 1777 1775 1773 1773 1771 1771 1769 1767 1762 1759 1759 1758 1759 1759 1759 1758 1755 1752 1749 1748 1748 1747 1747 1747 1745 1742 1738 1736 1734 1731 1731 1730 1729 1728 1727 1727 1727 1727 1727 1727 1728 1729 1730 1732 1732 1732 1733 1733 1733 1734 1734 1735 1735 1735 1735 1734 1734 1733 1733 1733 1733 1733 1733 1733 1733 1732 1730 1729 1728 1728 1727 1727 1727 1726 1725 1723 1723 1723 1725 1725 1725 1721 1719 1717 1717 1717 1716 1715 1715 1715 1715 1716 1717 1721 1726 1729 1731 1732 1732 1732 1732
1770 1760 1754 1754 1754 1755 1755 1756 1756 1756 1759 1759 1759 1754 1751 1749 1747 1741 1741 1741 1741 1739 1739 1738 1731 1713 1704 1700 1697 1696 1695 1695 1695 1695 1695 1695 1695 1695 1699 1699 1699 1699 1699 1701 1704 1706 1707 1708 1708 1708 1707 1707 1706 1704 1702 1701 1699 1696 1694 1692 1691 1689 1687 1686 1684 1682 1681 1681 1681 1682 1682 1682 1682 1681 1681 1681 1684 1685 1692 1692 1692 1693 1693 1691 1691 1682 1680 1676 1667 0 0 0 0 0 0 0 0 0 0 0 0 0 0 0 0 0 0 0 0 0 0 0 0 0 0 0 0 0 0 0 2071 2088 2121 2142 2171 2188 2210 2226 2228 2234 2237 2239 2244 2246 0 0 0 0 0 0 0 2458 2469 2469 2473 2477 2484 2489 2501 2502 2503 2506 2511 2514 2519 2519 2519 2514 2490 0 0 0 0 0 0 0 0 0 0 0 2517 2540 2562 2579 2588 2589 2589 2589 2589 2589 2583 2576 2568 2568 2567 2563 2563 2563 2563 2579 2581 2581 2581 2575 2554 2554 2554 2551 2551 2528 0 0 0 0 0 0 0 0 0 0 0 0 0 0 0 0 0 0 0 0 0 0 0 0 0 0 0 0 0 0 0 0 0 0 0 0 0 0 0 0 0 0 0 0 0 0 0 0 0 0 0 0 0 0 0 0 0 0 0 0 0 0 0 0 0 0 0 0 0 0 0 0 0 0 0 0 0 0 0 2437 2444 2452 2454 2463 2463 2463 2465 2465 2480 2484 2495 2499 2499 2500 2501 2501 2501 2503 2504 2511 2521 2526 2526 2526 2523 2520 2520 2520 2522 2528 2534 2535 2536 2536 2540 2545 2548 2557 2567 2567 2567 2559 2551 0 0 0 0 0 0 0 0 0 0 0 0 0 0 0 0 0 0 0 0 0 0 0 0 0 0 0 0 0 0 0 0 0 0 0 0 0 0 0 0 0 0 0 0 0 0 0 0 0 2285 2291 2290 2285 2285 2272 2259 2233 2194 2169 2155 2152 2147 2137 2128 2121 2112 2101 2090 2081 2074 2068 2060 2047 2033 2024 2019 2012 2006 2002 1999 1994 1991 1986 1979 1974 1971 1969 1966 1964 1961 1957 1952 1949 1943 1939 1935 1932 1928 1926 1923 1920 1917 1915 1912 1909 1908 1906 1903 1901 1899 1896 1894 1891 1889 1887 1886 1885 1884 1883 1882 1881 1880 1878 1877 1876 1875 1874 1871 1870 1867 1865 1864 1863 1862 1861 1859 1858 1857 1856 1855 1854 1852 1850 1848 1847 1845 1842 1842 1840 1839 1839 1838 1837 1836 1835 1834 1833 1833 1833 1832 1831 1831 1831 1830 1830 1830 1829 1828 1828 1827 1826 1825 1824 1823 1821 1821 1820 1819 1818 1817 1815 1813 1812 1812 1812 1812 1812 1812 1812 1811 1811 1811 1810 1809 1809 1808 1807 1806 1804 1803 1802 1800 1799 1799 1794 1791 1790 1788 1785 1785 1785 1784 1784 1783 1780 1778 1777 1777 1776 1774 1771 1767 1767 1766 1767 1767 1766 1766 1764 1761 1758 1755 1753 1752 1752 1751 1746 1743 1739 1736 1735 1734 1732 1731 1730 1730 1730 1730 1730 1730 1730 1731 1731 1731 1731 1734 1734 1734 1733 1733 1733 1734 1734 1734 1735 1735 1735 1735 1735 1734 1734 1733 1733 1734 1733 1733 1733 1732 1731 1730 1729 1728 1727 1727 1727 1726 1725 1723 1723 1722 1722 1722 1722 1718 1716 1715 1714 1714 1713 1712 1712 1711 1712 1712 1714 1719 1724 1726 1727 1729 1729 1729 1729
1759 1753 1752 1752 1752 1755 1755 1755 1756 1756 1756 1756 1756 1754 1751 1741 1740 1738 1738 1736 1736 1736 1734 1734 1696 1696 1696 1696 1696 1697 1697 1698 1698 1698 1695 1695 1695 1695 1698 1698 1698 1698 1698 1701 1704 1706 1708 1708 1708 1708 1707 1707 1706 1704 1702 1700 1697 1695 1692 1690 1688 1687 1685 1685 1683 1680 1680 1679 1679 1679 1679 1679 1679 1679 1679 1679 1681 1682 1684 1685 1685 1686 1687 1692 1692 1692 1685 1681 1669 0 0 0 0 0 0 0 0 0 0 0 0 0 0 0 0 0 0 0 0 0 0 0 0 0 0 0 0 0 0 0 2065 2088 2112 2142 2169 2185 2204 2225 2226 2226 2226 2226 2232 2232 2249 0 0 0 0 0 0 0 2413 2443 2451 2455 2473 2489 2500 2501 2503 2506 2511 2512 2513 2513 2513 2505 2450 0 0 0 0 0 0 0 0 0 0 0 2511 2540 2560 2560 2560 2573 2573 2573 2575 2575 2575 2564 2564 2561 2557 2557 2557 2557 2557 2571 2581 2581 2581 2578 2558 2558 2558 2558 2558 2558 2531 0 0 0 0 0 0 0 0 0 0 0 0 0 0 0 0 0 0 0 0 0 0 0 0 0 0 0 0 0 0 0 0 0 0 0 0 0 0 0 0 0 0 0 0 0 0 0 0 0 0 0 0 0 0 0 0 0 0 0 0 0 0 0 0 0 0 0 0 0 0 0 0 0 0 0 0 0 0 0 2405 2405 2405 2420 2427 2427 2434 2434 2454 2471 2484 2490 2490 2490 2490 2490 2490 2493 2498 2506 2515 2515 2515 2512 2512 2510 2511 2512 2512 2518 2526 2527 2530 2527 2526 2530 2539 2556 2556 2556 2519 0 0 0 0 0 0 0 0 0 0 0 0 0 0 0 0 0 0 0 0 0 0 0 0 0 0 0 0 0 0 0 0 0 0 0 0 0 0 0 0 0 0 0 0 0 0 0 0 0 0 0 2285 2291 2290 2285 2285 2269 2245 2212 2175 2159 2149 2145 2142 2137 2128 2120 2112 2105 2094 2084 2075 2068 2060 2045 2033 2024 2019 2012 2006 2002 1999 1994 1989 1982 1977 1973 1970 1967 1964 1961 1959 1955 1952 1948 1943 1939 1935 1931 1927 1923 1921 1919 1917 1915 1912 1909 1906 1905 1903 1901 1898 1895 1893 1891 1888 1887 1886 1885 1883 1882 1881 1879 1878 1877 1876 1875 1873 1872 1870 1868 1866 1865 1863 1863 1862 1860 1859 1858 1857 1855 1855 1853 1852 1849 1848 1846 1844 1842 1841 1840 1839 1839 1838 1837 1836 1835 1834 1833 1833 1833 1832 1831 1831 1831 1831 1830 1830 1829 1829 1828 1827 1826 1825 1824 1823 1821 1821 1820 1819 1818 1817 1815 1814 1813 1813 1813 1813 1813 1813 1813 1812 1812 1811 1811 1810 1809 1809 1807 1806 1805 1803 1802 1801 1801 1800 1797 1795 1792 1790 1787 1787 1787 1787 1787 1786 1782 1782 1781 1781 1779 1778 1776 1771 1769 1769 1769 1770 1770 1770 1769 1765 1760 1758 1757 1756 1755 1753 1750 1748 1745 1744 1741 1738 1735 1733 1732 1732 1731 1731 1731 1731 1732 1732 1732 1732 1734 1736 1736 1736 1734 1734 1734 1734 1734 1734 1735 1735 1735 1735 1736 1736 1736 1736 1735 1734 1734 1733 1733 1733 1732 1731 1729 1728 1728 1728 1727 1726 1725 1723 1722 1721 1721 1720 1720 1717 1716 1714 1713 1713 1712 1712 1712 1710 1710 1712 1712 1717 1721 1722 1722 1722 1722 1721 1721
1753 1748 1748 1748 1751 1751 1754 1755 1755 1756 1755 1755 1755 1753 1751 1740 1735 1728 1722 1722 1717 1716 1710 1709 1693 1692 1692 1693 1696 1697 1699 1699 1699 1698 1695 1695 1695 1695 1698 1698 1698 1698 1698 1701 1704 1706 1707 1708 1708 1708 1707 1707 1706 1704 1702 1700 1697 1693 1690 1687 1686 1685 1683 1681 1680 1679 1678 1678 1677 1677 1676 1675 1674 1674 1674 1674 1676 1677 1680 1683 1685 1686 1687 1694 1694 1694 1685 1681 1669 1648 0 0 0 0 0 0 0 0 0 0 0 0 0 0 0 0 0 0 0 0 0 0 0 0 0 0 0 0 0 0 2066 2088 2112 2142 2165 2172 2185 2187 2188 2189 2194 2208 2217 2219 2231 2246 2264 2314 2325 2332 0 0 2392 2417 2427 2432 2456 2481 2498 2498 2501 2504 2508 2508 2508 2503 2489 2489 2432 0 0 0 0 0 0 0 0 0 0 0 2510 2539 2554 2554 2554 2546 2546 2546 2557 2557 2557 2555 2555 2555 2552 2552 2555 2555 2556 2569 2576 2578 2578 2578 2565 2558 2558 2558 2558 2558 2553 0 0 0 0 0 0 0 0 0 0 0 0 0 0 0 0 0 0 0 0 0 0 0 0 0 0 0 0 0 0 0 0 0 0 0 0 0 0 0 0 0 0 0 0 0 0 0 0 0 0 0 0 0 0 0 0 0 0 0 0 0 0 0 0 0 0 0 0 0 0 0 0 0 0 0 0 0 0 0 2350 2384 2384 2387 2389 2397 2397 2401 2425 2445 2464 2473 2473 2475 2475 2475 2475 2482 2490 2506 2506 2506 2502 2498 2498 2498 2506 2508 2511 2511 2520 2523 2523 2523 2520 2512 0 0 0 0 0 0 0 0 0 0 0 0 0 0 0 0 0 0 0 0 0 0 0 0 0 0 0 0 0 0 0 0 0 0 0 0 0 0 0 0 0 0 0 0 0 0 0 0 0 2569 2569 2569 2552 0 0 0 2299 2298 2291 2290 2286 2258 2227 2194 2162 2152 2146 2143 2142 2135 2127 2120 2112 2105 2097 2087 2075 2067 2060 2045 2031 2024 2019 2012 2006 2002 1999 1994 1989 1982 1977 1973 1970 1967 1963 1959 1957 1954 1950 1947 1943 1939 1935 1930 1926 1922 1920 1918 1917 1915 1912 1909 1906 1904 1901 1900 1898 1895 1892 1890 1888 1886 1885 1884 1882 1881 1879 1879 1877 1876 1875 1873 1872 1871 1868 1867 1865 1864 1862 1862 1861 1860 1859 1858 1857 1855 1854 1853 1851 1849 1847 1845 1844 1842 1841 1840 1839 1838 1838 1837 1836 1835 1834 1833 1833 1833 1832 1832 1831 1831 1831 1830 1830 1829 1829 1828 1827 1826 1825 1824 1823 1821 1821 1820 1819 1818 1817 1816 1814 1814 1814 1814 1813 1813 1813 1813 1813 1812 1812 1811 1810 1810 1809 1808 1807 1805 1804 1802 1801 1801 1800 1798 1797 1794 1792 1789 1789 1789 1788 1788 1787 1786 1786 1785 1785 1784 1782 1781 1779 1776 1775 1775 1775 1774 1774 1770 1767 1763 1762 1759 1757 1756 1755 1752 1750 1748 1748 1747 1745 1741 1739 1737 1736 1736 1736 1736 1736 1736 1736 1736 1736 1738 1738 1739 1738 1738 1737 1736 1734 1734 1734 1734 1735 1735 1736 1737 1737 1737 1736 1735 1734 1734 1734 1735 1735 1735 1734 1731 1729 1729 1729 1728 1727 1723 1722 1722 1721 1721 1720 1720 1717 1716 1714 1712 1710 1709 1709 1709 1709 1710 1710 1711 1713 1713 1713 1715 1715 1720 1721 1721
1749 1748 1748 1748 1751 1751 1753 1755 1755 1756 1755 1755 1752 1750 1741 1736 1730 1727 1719 1719 1705 1685 1685 1683 1683 1689 1692 1693 1696 1704 1704 1704 1700 1698 1695 1695 1695 1695 1698 1698 1698 1698 1698 1700 1704 1706 1707 1708 1708 1708 1708 1707 1705 1703 1701 1699 1696 1692 1689 1686 1683 1681 1680 1679 1678 1677 1677 1676 1675 1674 1673 1672 1670 1670 1670 1670 1671 1672 1674 1676 1678 1684 1685 1694 1694 1694 1685 1681 1666 1638 0 0 0 0 0 0 0 0 0 0 0 0 0 0 0 0 0 0 0 0 0 0 0 0 0 0 0 0 0 0 2066 2095 2112 2135 2151 2162 2163 2170 2171 2174 2174 2194 2210 2216 2229 2242 2255 2264 2276 2279 2283 0 2357 2383 2400 2423 2439 2459 2479 2494 2496 2496 2496 2496 2495 2483 2459 2428 2398 0 0 0 0 0 0 0 0 0 0 0 2502 2539 2551 2551 2551 2543 2541 2541 2541 2543 2543 2544 2544 2544 2544 2544 2546 2546 2554 2556 2562 2569 2574 2574 2574 2560 2560 2560 2554 2553 2553 0 0 0 0 0 0 0 0 0 0 0 0 0 0 0 0 0 0 0 0 0 0 0 0 0 0 0 0 0 0 0 0 0 0 0 0 0 0 0 0 0 0 0 0 0 0 0 0 0 0 0 0 0 0 0 0 0 0 0 0 0 0 0 0 0 0 0 0 0 0 0 0 0 0 0 0 0 0 0 2328 2347 2344 2338 2343 2344 2344 2380 2401 2424 2443 2445 2445 2452 2452 2452 2460 2468 2490 2506 2506 2506 2499 2495 2495 2495 2503 2503 2503 2502 2502 2502 2502 0 0 0 0 0 0 0 0 0 0 0 0 0 0 0 0 0 0 0 0 0 0 0 0 0 0 0 0 0 0 0 0 0 0 0 0 0 0 0 0 0 0 0 0 0 0 0 0 0 0 0 2533 2590 2590 2590 2584 2539 0 0 2342 2305 2298 2290 2286 2253 2213 2178 2156 2151 2146 2143 2139 2131 2125 2117 2111 2105 2097 2087 2075 2067 2057 2045 2031 2024 2019 2015 2008 2003 1999 1994 1989 1982 1977 1973 1969 1967 1962 1959 1955 1953 1949 1946 1942 1938 1934 1929 1925 1922 1918 1916 1915 1914 1911 1908 1906 1903 1901 1899 1897 1895 1891 1889 1887 1884 1883 1882 1881 1880 1879 1878 1877 1875 1873 1872 1871 1869 1867 1865 1864 1863 1862 1861 1860 1860 1859 1857 1856 1855 1854 1852 1850 1849 1847 1845 1843 1842 1841 1840 1839 1838 1838 1837 1836 1835 1834 1833 1833 1833 1832 1832 1832 1831 1831 1830 1830 1830 1829 1828 1828 1826 1825 1824 1822 1821 1820 1819 1818 1818 1817 1816 1814 1814 1814 1814 1813 1813 1813 1813 1813 1812 1812 1811 1810 1810 1809 1809 1808 1806 1804 1803 1802 1802 1801 1799 1798 1796 1793 1792 1791 1790 1790 1789 1788 1788 1788 1788 1788 1788 1786 1785 1783 1780 1779 1776 1776 1776 1776 1775 1771 1764 1763 1763 1762 1760 1759 1755 1751 1751 1751 1751 1751 1751 1750 1748 1745 1745 1745 1745 1745 1745 1745 1745 1744 1740 1740 1740 1741 1741 1741 1741 1736 1735 1734 1734 1735 1735 1736 1737 1737 1737 1737 1736 1736 1736 1736 1738 1738 1738 1734 1731 1731 1731 1730 1729 1727 1723 1722 1722 1721 1721 1720 1720 1717 1717 1714 1712 1709 1708 1708 1708 1709 1710 1710 1711 1713 1713 1713 1715 1715 1720 1721 1721
1749 1747 1746 1746 1746 1751 1753 1755 1755 1756 1755 1755 1752 1750 1738 1734 1725 1700 1686 1678 1678 1676 1678 1680 1683 1689 1696 1696 1697 1704 1704 1704 1700 1698 1697 1697 1697 1698 1698 1700 1700 1700 1701 1701 1704 1706 1708 1709 1709 1709 1708 1707 1705 1703 1700 1698 1694 1691 1686 1684 1682 1680 1678 1677 1676 1675 1675 1674 1673 1671 1670 1668 1668 1668 1667 1667 1667 1667 1668 1668 1668 1674 1675 1693 1693 1693 1684 1676 1663 1663 1638 0 0 0 0 0 0 0 0 0 0 0 0 0 0 0 0 0 0 0 0 0 0 0 0 0 0 0 0 2050 2066 2099 2114 2134 2147 2156 2160 2161 2164 2171 2172 2183 2193 2208 2228 2242 2253 2254 2254 2258 2259 2261 0 2345 2380 2418 2436 2449 2466 2471 2482 2490 2490 2490 2482 2463 2457 2428 0 0 0 0 0 0 0 0 0 0 0 0 2474 2519 2547 2547 2547 2542 2538 2537 2536 2533 2533 2533 2536 2537 2539 2540 2541 2542 2549 2554 2558 2565 2572 2572 2572 2562 2560 2560 2553 2553 2553 0 0 0 0 0 0 0 0 0 0 0 0 0 0 0 0 0 0 0 0 0 0 0 0 0 0 0 0 0 0 0 0 0 0 0 0 0 0 0 0 0 0 0 0 0 0 0 0 0 0 0 0 0 0 0 0 0 0 0 0 0 0 0 0 0 0 0 0 0 0 0 0 0 0 0 0 0 0 0 0 2288 2310 2310 2316 2320 2322 2334 2362 2386 2424 2431 2431 2431 2431 2431 2432 2459 2478 2478 2478 2476 2464 2464 2464 2483 2484 2484 2484 2453 0 0 0 0 0 0 0 0 0 0 0 0 0 0 0 0 0 0 0 0 0 0 0 0 0 0 0 0 0 0 0 0 0 0 0 0 0 0 0 0 0 0 0 0 0 0 0 0 0 0 0 0 0 0 2522 2595 2639 2645 2645 2645 2565 0 0 2305 2303 2298 2286 2239 2190 2167 2154 2150 2145 2143 2138 2129 2121 2113 2107 2102 2097 2087 2075 2066 2054 2042 2031 2024 2019 2015 2010 2004 2001 1995 1989 1982 1977 1973 1969 1966 1962 1958 1955 1951 1948 1944 1940 1937 1933 1929 1925 1921 1918 1916 1913 1912 1910 1908 1905 1903 1901 1898 1897 1895 1891 1888 1886 1883 1881 1881 1879 1879 1878 1877 1876 1875 1873 1871 1869 1868 1865 1864 1863 1862 1861 1860 1860 1859 1858 1857 1855 1854 1853 1851 1850 1849 1847 1845 1843 1842 1840 1840 1839 1838 1838 1837 1836 1835 1834 1833 1833 1833 1832 1832 1832 1831 1831 1831 1831 1830 1829 1828 1828 1826 1825 1824 1822 1821 1820 1819 1818 1817 1816 1816 1815 1814 1814 1814 1814 1813 1813 1813 1813 1812 1812 1811 1810 1810 1809 1809 1809 1807 1806 1804 1802 1802 1801 1800 1798 1797 1796 1794 1792 1791 1790 1790 1790 1790 1790 1790 1790 1789 1788 1787 1786 1784 1781 1780 1778 1776 1776 1775 1772 1769 1767 1766 1763 1761 1761 1760 1756 1753 1753 1752 1752 1753 1755 1755 1755 1752 1752 1752 1752 1753 1753 1753 1746 1742 1742 1742 1743 1743 1743 1742 1736 1735 1734 1734 1735 1735 1736 1737 1737 1737 1737 1737 1737 1737 1739 1739 1739 1739 1736 1732 1732 1732 1731 1731 1729 1724 1723 1722 1722 1721 1721 1720 1720 1718 1715 1712 1709 1708 1708 1708 1710 1710 1711 1712 1713 1713 1713 1712 1712 1712 1712 1712
1747 1746 1745 1734 1734 1734 1736 1748 1750 1752 1752 1751 1751 1748 1722 1683 1677 1676 1676 1676 1677 1676 1678 1680 1689 1694 1696 1697 1698 1702 1702 1702 1700 1699 1699 1699 1699 1699 1700 1700 1701 1701 1702 1702 1704 1707 1709 1709 1709 1709 1709 1707 1705 1703 1700 1698 1694 1688 1683 1682 1681 1680 1678 1677 1675 1674 1673 1671 1670 1668 1667 1667 1665 1664 1663 1663 1663 1663 1663 1664 1664 1669 1675 1676 1682 1682 1682 1676 1663 1663 1643 0 0 0 0 0 0 0 0 0 0 0 0 0 0 0 0 0 0 0 0 0 0 0 0 0 0 0 0 2076 2078 2101 2115 2134 2140 2143 2147 2153 2163 2169 2172 2174 2185 2208 2223 2242 2247 2251 2251 2251 2255 2259 2276 0 0 2401 2430 2436 2441 2448 2457 2468 2468 2468 2467 2458 2454 2428 0 0 0 0 0 0 0 0 0 0 0 0 2455 2506 2534 2540 2540 2540 2537 2536 2533 2529 2529 2529 2529 2530 2531 2535 2538 2541 2544 2545 2547 2556 2567 2567 2567 2562 2557 2556 2552 2549 2540 2508 2445 0 0 0 0 0 0 0 0 0 0 0 0 0 0 0 0 0 0 0 0 0 0 0 0 0 0 0 0 0 0 0 0 0 0 0 0 0 0 0 0 0 0 0 0 0 0 0 0 0 0 0 0 0 0 0 0 0 0 0 0 0 0 0 0 0 0 0 0 0 0 0 0 0 0 0 0 0 2262 2262 2266 2275 2275 2288 2289 2290 2314 2349 2379 2410 2414 2415 2416 2417 2417 2451 2473 2473 2473 2470 0 0 0 0 0 0 0 0 0 0 0 0 0 0 0 0 0 0 0 0 0 0 0 0 0 0 0 0 0 0 0 0 0 0 0 0 0 0 0 0 0 0 0 0 0 0 0 0 0 0 0 0 0 0 0 0 0 0 0 0 0 0 0 2575 2641 2712 2712 2712 2617 0 0 2310 2303 2298 2286 2225 2179 2158 2154 2148 2145 2141 2136 2126 2117 2105 2100 2097 2089 2081 2071 2062 2051 2042 2031 2023 2019 2015 2010 2006 2002 1997 1989 1984 1977 1972 1969 1966 1962 1958 1954 1951 1947 1944 1940 1936 1931 1928 1925 1921 1918 1916 1913 1911 1909 1907 1904 1903 1901 1898 1897 1895 1891 1888 1885 1882 1880 1878 1877 1875 1875 1875 1874 1873 1871 1870 1869 1866 1865 1864 1862 1861 1860 1860 1859 1859 1857 1856 1854 1853 1851 1851 1848 1848 1847 1845 1843 1842 1840 1839 1838 1838 1838 1836 1835 1834 1834 1833 1833 1833 1832 1832 1832 1832 1831 1831 1831 1830 1830 1829 1828 1826 1825 1824 1822 1821 1819 1818 1818 1816 1816 1816 1815 1814 1814 1814 1814 1813 1813 1813 1813 1812 1812 1811 1810 1810 1810 1809 1809 1808 1806 1805 1803 1803 1802 1801 1799 1797 1797 1795 1794 1792 1791 1791 1791 1790 1790 1790 1790 1790 1789 1788 1788 1786 1784 1781 1780 1778 1777 1775 1773 1772 1770 1768 1764 1763 1762 1761 1761 1759 1757 1757 1757 1757 1761 1761 1761 1757 1757 1757 1757 1759 1759 1759 1752 1752 1752 1751 1751 1751 1746 1743 1741 1735 1735 1735 1737 1737 1737 1737 1737 1739 1739 1739 1739 1739 1739 1740 1740 1740 1740 1738 1735 1735 1734 1733 1729 1724 1723 1723 1723 1723 1723 1723 1722 1720 1715 1712 1709 1709 1709 1709 1712 1713 1714 1718 1719 1719 1718 1708 1708 1708 1712 1712
1745 1745 1745 1731 1731 1731 1736 1739 1742 1748 1748 1742 1741 1691 1675 1675 1675 1675 1676 1676 1677 1678 1680 1691 1698 1698 1698 1698 1698 1702 1702 1702 1702 1702 1702 1702 1702 1702 1702 1702 1704 1709 1709 1709 1710 1710 1711 1714 1714 1714 1714 1710 1706 1703 1700 1698 1694 1688 1683 1681 1680 1679 1678 1676 1673 1670 1669 1667 1666 1665 1664 1664 1662 1660 1660 1660 1660 1660 1660 1660 1663 1664 1666 1667 1669 1674 1674 1674 1666 1666 1664 0 0 0 0 0 0 0 0 0 0 0 0 0 0 0 0 0 0 0 0 0 0 0 0 0 0 0 0 2077 2080 2104 2119 2131 2133 2136 2141 2151 2163 2169 2174 2174 2185 2208 2219 2241 2243 2243 2245 2246 2246 2248 2248 2273 0 0 0 0 2413 2416 2427 2442 2458 2458 2458 2458 2453 2428 0 0 0 0 0 0 0 0 0 0 0 2403 2445 2492 2519 2532 2532 2532 2530 2528 2525 2525 2525 2526 2526 2527 2528 2531 2536 2539 2540 2541 2546 2552 2560 2562 2562 2562 2555 2554 2552 2549 2539 2509 2473 2458 0 0 0 0 0 0 0 0 0 0 0 0 0 0 0 0 0 0 0 0 0 0 0 0 0 0 0 0 0 0 0 0 0 0 0 0 0 0 0 0 0 0 0 0 0 0 0 0 0 0 0 0 0 0 0 0 0 0 0 0 0 0 0 0 0 0 0 0 0 0 0 0 0 0 0 0 2252 2252 2252 2253 2260 2264 2273 2274 2274 2337 2352 2375 2412 2412 2412 2414 2414 2428 0 0 0 0 0 0 0 0 0 0 0 0 0 0 0 0 0 0 0 0 0 0 0 0 0 0 0 0 0 0 0 0 0 0 0 0 0 0 0 0 0 0 0 0 0 0 0 0 0 0 0 0 0 0 0 0 0 0 0 0 0 0 0 0 0 0 0 2574 2658 2715 2715 2715 2617 0 0 2311 2303 2302 2274 2218 2172 2152 2148 2147 2143 2140 2133 2122 2114 2103 2096 2092 2085 2076 2069 2061 2050 2041 2031 2023 2019 2014 2010 2006 2002 1997 1989 1984 1977 1972 1967 1964 1961 1956 1953 1950 1947 1943 1939 1935 1930 1927 1924 1921 1918 1915 1913 1911 1909 1907 1904 1901 1900 1898 1897 1894 1891 1888 1885 1882 1879 1877 1876 1874 1873 1872 1871 1870 1869 1868 1867 1865 1864 1862 1861 1860 1860 1860 1858 1857 1856 1855 1853 1853 1851 1849 1848 1847 1846 1845 1843 1842 1840 1839 1838 1837 1836 1836 1835 1834 1834 1833 1833 1833 1832 1832 1832 1832 1831 1831 1831 1830 1830 1829 1828 1826 1825 1824 1822 1821 1819 1818 1817 1816 1816 1815 1815 1814 1814 1814 1814 1813 1813 1813 1812 1812 1811 1810 1810 1810 1810 1809 1809 1808 1807 1805 1805 1804 1802 1801 1799 1798 1797 1795 1794 1793 1792 1792 1791 1791 1791 1790 1790 1790 1789 1788 1788 1787 1784 1783 1782 1779 1777 1776 1775 1772 1771 1769 1767 1763 1763 1763 1763 1763 1759 1759 1759 1763 1767 1767 1767 1765 1761 1761 1761 1763 1763 1763 1761 1761 1760 1760 1760 1753 1752 1749 1744 1744 1744 1745 1745 1745 1740 1740 1740 1744 1752 1754 1754 1754 1749 1748 1748 1748 1747 1747 1744 1741 1740 1734 1729 1724 1724 1724 1727 1727 1727 1724 1722 1720 1719 1717 1713 1710 1710 1710 1714 1716 1718 1720 1720 1719 1718 1708 1708 1708 1712 1712
1734 1734 1734 1731 1726 1726 1725 1725 1725 1691 1682 1667 1666 1658 1666 1666 1670 1674 1677 1679 1682 1683 1694 1698 1698 1698 1698 1698 1698 1698 1700 1701 1702 1702 1704 1704 1704 1704 1705 1705 1709 1715 1715 1715 1715 1715 1715 1718 1718 1718 1718 1715 1711 1706 1704 1699 1694 1688 1683 1680 1679 1679 1678 1676 1671 1668 1667 1663 1661 1661 1661 1660 1659 1658 1657 1656 1656 1656 1656 1656 1657 1658 1658 1658 1658 1658 1664 1664 1664 1666 1664 1658 0 0 0 0 0 0 0 0 0 0 0 0 0 0 0 0 0 0 0 0 0 0 0 0 0 0 0 0 2088 2104 2119 2131 2133 2136 2139 2149 2161 2170 2174 2177 2185 2205 2208 2230 2236 2237 2238 2237 2236 2226 2222 2222 2222 0 0 0 0 2382 2406 2426 2439 2442 2445 2445 2445 2428 0 0 0 0 0 0 0 0 0 0 0 2407 2445 2488 2508 2523 2523 2523 2516 2515 2515 2516 2521 2524 2524 2524 2525 2526 2529 2533 2535 2540 2545 2551 2551 2552 2552 2550 2550 2550 2549 2547 2532 2508 2492 2483 2471 2435 2401 2401 0 0 0 0 0 0 0 0 0 0 0 0 0 0 0 0 0 0 0 0 0 0 0 0 0 0 0 0 0 0 0 0 0 0 0 0 0 0 0 0 0 0 0 0 0 0 0 0 0 0 0 0 0 0 0 0 0 0 0 0 0 0 0 0 0 0 0 0 0 0 2266 2260 2249 2249 2249 2250 2256 2260 2263 2267 2267 2268 0 0 0 0 0 0 0 0 0 0 0 0 0 0 0 0 0 0 0 0 0 0 0 0 0 0 0 0 0 0 0 0 0 0 0 0 0 0 0 0 0 0 0 0 0 0 0 0 0 0 0 0 0 0 0 0 0 0 0 0 0 0 0 0 0 0 0 0 0 0 0 0 0 0 0 2568 2658 2715 2715 2715 2617 0 0 2311 2304 2298 2259 2203 2163 2151 2145 2142 2138 2133 2127 2120 2112 2102 2094 2088 2082 2075 2068 2059 2050 2041 2031 2023 2019 2014 2010 2006 2002 1997 1989 1984 1977 1971 1967 1964 1959 1956 1953 1950 1946 1942 1938 1933 1930 1926 1924 1921 1918 1915 1913 1910 1908 1906 1903 1901 1898 1897 1896 1894 1891 1888 1885 1882 1879 1877 1875 1873 1872 1871 1869 1869 1868 1866 1865 1864 1863 1862 1861 1860 1859 1859 1857 1856 1855 1854 1853 1852 1850 1849 1847 1846 1845 1844 1843 1842 1840 1838 1837 1836 1836 1835 1834 1834 1834 1833 1833 1833 1832 1832 1832 1831 1831 1831 1831 1830 1830 1829 1827 1826 1825 1823 1822 1821 1819 1818 1817 1816 1816 1815 1815 1814 1814 1814 1813 1813 1813 1813 1812 1812 1811 1810 1810 1810 1810 1809 1809 1808 1807 1806 1805 1804 1803 1801 1799 1799 1797 1796 1794 1793 1793 1792 1792 1791 1791 1791 1791 1790 1789 1788 1788 1787 1786 1784 1782 1780 1779 1777 1776 1774 1773 1771 1769 1767 1767 1766 1766 1765 1764 1764 1764 1770 1771 1771 1771 1769 1765 1765 1765 1766 1766 1766 1769 1769 1764 1764 1763 1762 1762 1762 1763 1763 1763 1762 1762 1762 1757 1757 1762 1762 1764 1764 1764 1764 1763 1761 1759 1757 1752 1749 1744 1741 1740 1739 1734 1728 1728 1728 1727 1727 1727 1724 1723 1721 1719 1717 1716 1716 1716 1716 1720 1720 1720 1720 1720 1719 1718 1717 1710 1708 1695 1695
1730 1730 0 0 0 0 1656 1654 1654 1656 1658 1660 1660 1658 1666 1666 1675 1675 1678 1684 1685 1687 1694 1698 1698 1698 1697 1697 1697 1698 1701 1702 1704 1704 1705 1705 1715 1719 1720 1720 1721 1726 1730 1730 1730 1724 1724 1723 1723 1720 1718 1715 1711 1709 1706 1703 1695 1690 1683 1680 1679 1678 1678 1673 1669 1665 1662 1661 1657 1657 1656 1655 1655 1655 1654 1653 1652 1652 1652 1652 1653 1653 1653 1653 1654 1655 1655 1658 1662 1664 1664 1664 1664 0 0 0 0 0 0 0 0 0 0 0 0 0 0 0 0 0 0 0 0 0 0 0 0 0 0 0 0 2104 2119 2131 2132 2136 2136 2147 2155 2167 2174 2177 2185 2203 2204 2217 2223 2225 2225 2225 2225 2223 2213 2213 2213 2213 2225 0 0 0 2393 2404 2413 2414 2419 2419 2419 2415 0 0 0 0 0 0 0 0 0 0 0 2412 2445 2483 2505 2505 2505 2505 2503 2503 2503 2507 2514 2517 2517 2518 2518 2521 2524 2526 2529 2536 2545 2545 2545 2544 2544 2544 2548 2548 2548 2542 2530 2508 2498 2491 2484 2472 2454 2417 2416 0 0 0 0 0 0 0 0 0 0 0 0 0 0 0 0 0 0 0 0 0 0 0 0 0 0 0 0 0 0 0 0 0 0 0 0 0 0 0 0 0 0 0 0 0 0 0 0 0 0 0 0 0 0 0 0 0 0 0 0 0 0 0 0 0 0 2245 2266 2266 2266 2248 2245 2244 2244 2244 2246 2259 2259 2259 2259 0 0 0 0 0 0 0 0 0 0 0 0 0 0 0 0 0 0 0 0 0 0 0 0 0 0 0 0 0 0 0 0 0 0 0 0 0 0 0 0 0 0 0 0 0 0 0 0 0 0 0 0 0 0 0 0 0 0 0 0 0 0 0 0 0 0 0 0 0 0 0 0 0 0 0 0 2539 2639 2715 2715 2715 2583 0 0 2311 2304 2293 2252 2192 2155 2147 2142 2137 2131 2125 2119 2114 2110 2102 2093 2084 2078 2073 2067 2059 2049 2041 2031 2023 2019 2014 2009 2005 2001 1995 1988 1982 1976 1970 1966 1963 1958 1953 1950 1947 1945 1940 1937 1933 1929 1925 1924 1921 1918 1915 1912 1910 1908 1905 1902 1899 1897 1896 1894 1891 1890 1887 1884 1881 1879 1876 1874 1873 1872 1870 1869 1867 1866 1866 1865 1863 1863 1862 1860 1860 1859 1858 1857 1855 1854 1853 1852 1852 1850 1849 1847 1846 1845 1844 1843 1842 1839 1837 1837 1835 1835 1835 1834 1834 1834 1833 1833 1833 1832 1832 1831 1831 1831 1830 1829 1829 1829 1828 1826 1825 1824 1823 1822 1821 1819 1818 1816 1816 1816 1815 1815 1814 1814 1814 1813 1813 1813 1812 1812 1811 1811 1810 1810 1810 1810 1809 1809 1808 1808 1806 1806 1804 1803 1802 1800 1799 1797 1796 1794 1794 1793 1793 1792 1792 1791 1791 1791 1790 1790 1789 1788 1787 1786 1784 1782 1781 1780 1779 1776 1775 1773 1772 1770 1770 1770 1770 1770 1768 1768 1768 1770 1773 1774 1774 1774 1773 1772 1771 1771 1771 1771 1771 1771 1773 1773 1773 1773 1772 1772 1772 1773 1773 1775 1775 1775 1773 1772 1772 1772 1774 1782 1783 1783 1783 1779 1773 1769 1765 1760 1755 1751 1751 1750 1748 1748 1743 1740 1738 1730 1730 1727 1726 1723 1723 1722 1722 1722 1720 1720 1720 1720 1720 1720 1720 1721 1724 1724 1721 1710 1708 1684 1684
1722 1722 0 0 0 1609 0 0 0 1656 1658 1660 1660 1662 1666 1666 1680 1683 1685 1686 1690 1692 1695 1698 1698 1698 1697 1697 1697 1698 1701 1702 1709 1709 1711 1713 1715 1719 1725 1726 1726 1729 1732 1732 1732 1731 1729 1728 1725 1720 1718 1715 1711 1709 1706 1703 1699 1693 1686 1680 1679 1678 1676 1672 1666 1661 1660 1657 1657 1655 1652 1652 1651 1651 1651 1651 1650 1649 1648 1648 1648 1648 1648 1650 1651 1652 1655 1657 1658 1664 1664 1664 1664 1667 1677 0 0 0 0 0 0 0 0 0 0 0 0 0 0 0 0 0 0 0 0 0 0 0 0 0 0 0 0 0 2127 2131 2136 2136 2142 2167 2174 2177 2185 2201 2201 2203 2201 2204 2204 2201 2200 2199 2199 2199 2199 2213 2216 2218 0 0 0 0 2376 2379 2380 2383 2383 2383 0 0 0 0 0 0 0 0 0 0 0 2424 2445 2483 2490 2490 2490 2489 2489 2489 2491 2494 2499 2510 2511 2512 2514 2518 2520 2523 2528 2533 2538 2538 2539 2540 2540 2543 2543 2543 2538 2526 2515 2506 2504 2499 2496 2478 2477 2471 2443 0 0 0 0 0 0 0 0 0 0 0 0 0 0 0 0 0 0 0 0 0 0 0 0 0 0 0 0 0 0 0 0 0 0 0 0 0 0 0 0 0 0 0 0 0 0 0 0 0 0 0 0 0 0 0 0 0 0 0 2220 2220 2222 2222 2222 2229 2229 2245 2254 2254 2254 2248 2245 2243 2239 2238 2239 2239 2241 2247 2247 0 0 0 0 0 0 0 0 0 0 0 0 0 0 0 0 0 0 0 0 0 0 0 0 0 0 0 0 0 0 0 0 0 0 0 0 0 0 0 0 0 0 0 0 0 0 0 0 0 0 0 0 0 0 0 0 0 0 0 0 0 0 0 0 0 0 0 0 0 0 0 0 0 0 0 0 0 2597 2672 2672 2672 2562 0 0 2310 2304 2289 2233 2180 2155 2140 2138 2133 2125 2120 2113 2107 2104 2099 2090 2081 2074 2068 2063 2057 2049 2041 2031 2023 2019 2013 2009 2004 2000 1995 1988 1982 1975 1968 1964 1961 1957 1952 1947 1944 1940 1937 1935 1932 1928 1925 1923 1920 1917 1914 1911 1909 1906 1903 1902 1898 1896 1894 1892 1891 1888 1885 1882 1880 1876 1874 1873 1871 1871 1869 1868 1867 1866 1865 1864 1863 1862 1862 1860 1860 1859 1857 1856 1855 1854 1853 1852 1851 1849 1848 1847 1846 1845 1843 1842 1840 1839 1837 1837 1835 1835 1835 1834 1834 1833 1833 1833 1832 1832 1831 1831 1831 1831 1830 1829 1828 1827 1826 1825 1825 1824 1823 1822 1821 1819 1818 1816 1816 1815 1815 1814 1814 1814 1813 1813 1813 1812 1812 1812 1811 1811 1810 1810 1810 1810 1809 1809 1809 1808 1807 1806 1804 1803 1802 1801 1799 1798 1797 1795 1794 1793 1793 1792 1792 1792 1792 1791 1791 1790 1789 1788 1788 1786 1785 1783 1781 1780 1779 1778 1776 1774 1773 1772 1772 1771 1771 1771 1770 1770 1770 1772 1773 1775 1775 1775 1775 1777 1779 1779 1779 1779 1776 1776 1776 1776 1776 1776 1775 1775 1775 1776 1783 1792 1795 1795 1795 1787 1787 1787 1788 1788 1788 1785 1785 1779 1774 1769 1765 1762 1762 1762 1762 1766 1766 1766 1764 1742 1741 1739 1739 1737 1737 1731 1724 1722 1722 1722 1724 1724 1724 1721 1720 1720 1720 1721 1724 1724 1721 1695 1688 1655 1655
1680 1677 1654 1614 1609 1609 1609 1641 1647 1653 1653 1661 1671 1672 1674 1674 1680 1685 1686 1689 1692 1692 1697 1698 1698 1698 1699 1699 1699 1701 1706 1709 1709 1710 1711 1713 1716 1719 1725 1726 1727 1729 1732 1732 1732 1731 1730 1729 1725 1718 1714 1711 1710 1709 1706 1703 1699 1695 1692 1686 1679 1679 1676 1671 1665 1661 1660 1657 1657 1655 1652 1651 1650 1650 1650 1649 1648 1646 1644 1644 1644 1644 1644 1644 1646 1648 1649 1650 1653 1656 1664 1665 1680 1681 1689 1695 1720 0 0 0 0 0 0 0 0 0 0 0 0 0 0 0 0 0 0 0 0 0 0 0 0 0 0 0 0 0 0 0 2130 2132 2133 2134 2161 2166 2170 2172 2180 2180 2180 2168 2168 2168 2172 2183 2198 2208 2209 2212 2212 0 0 0 0 0 2333 2353 2353 2353 2337 2320 0 0 0 0 0 0 0 0 2385 2424 2444 2468 2478 2478 2478 2475 2475 2475 2483 2489 2499 2508 2510 2511 2513 2517 2519 2522 2525 2528 2532 2532 2532 2533 2534 2535 2535 2535 2523 2516 2510 2507 2506 2501 2499 2481 2481 2478 2478 2470 0 0 0 0 0 0 0 0 0 0 0 0 0 0 0 0 0 0 0 0 0 0 0 0 0 0 0 0 0 0 0 0 0 0 0 0 0 0 0 0 0 0 0 0 0 0 0 0 0 0 0 0 2237 2237 2237 2222 2220 2220 2220 2220 2222 2222 2222 2229 2229 2245 2245 2245 2243 2238 2237 2236 2235 2230 2227 2225 2225 2225 2219 0 0 0 0 0 0 0 0 0 0 0 0 0 0 0 0 0 0 0 0 0 0 0 0 0 0 0 0 0 0 0 0 0 0 0 0 0 0 0 0 0 0 0 0 0 0 0 0 0 0 0 0 0 0 0 0 0 0 0 0 0 0 0 0 0 0 0 0 0 0 0 0 0 0 0 0 0 2572 2631 2631 2631 2516 0 0 2301 2283 2248 2211 2170 2155 2140 2138 2133 2125 2120 2113 2105 2099 2094 2088 2080 2070 2063 2061 2057 2049 2039 2029 2019 2013 2010 2007 2004 1999 1994 1988 1982 1975 1968 1964 1961 1956 1951 1947 1942 1939 1936 1934 1931 1928 1925 1923 1920 1916 1912 1910 1908 1905 1903 1900 1898 1896 1894 1892 1891 1888 1885 1882 1879 1876 1874 1872 1871 1869 1868 1866 1865 1864 1864 1863 1862 1861 1861 1860 1860 1858 1857 1856 1854 1853 1852 1851 1850 1849 1848 1846 1845 1843 1842 1841 1840 1839 1837 1837 1835 1835 1835 1834 1834 1833 1832 1832 1832 1832 1831 1830 1830 1829 1829 1829 1828 1827 1826 1825 1824 1823 1823 1822 1821 1819 1817 1816 1816 1815 1815 1814 1814 1814 1813 1812 1812 1812 1812 1812 1811 1811 1810 1810 1810 1810 1810 1809 1809 1808 1807 1806 1806 1804 1803 1801 1800 1799 1797 1796 1795 1794 1793 1792 1792 1792 1792 1791 1791 1790 1789 1788 1788 1787 1785 1784 1782 1782 1780 1778 1777 1775 1775 1774 1773 1773 1773 1773 1772 1772 1772 1773 1774 1776 1776 1776 1778 1781 1784 1784 1784 1782 1782 1782 1784 1789 1789 1789 1786 1786 1786 1786 1786 1792 1799 1799 1799 1799 1798 1798 1797 1796 1796 1788 1787 1781 1776 1770 1767 1767 1767 1767 1768 1774 1774 1774 1767 1764 1760 1756 1752 1749 1747 1744 1737 1730 1727 1727 1725 1725 1724 1722 1720 1720 1720 1721 1724 1724 0 0 0 0 0
1673 1673 1654 1614 1609 1609 1609 1656 1656 1660 1660 1661 1676 1676 1677 1678 1682 1685 1688 1690 1696 1698 1699 1699 1699 1699 1699 1700 1702 1707 1710 1710 1710 1710 1711 1713 1716 1719 1725 1726 1727 1729 1732 1732 1732 1731 1730 1729 1725 1715 1709 1707 1706 1706 1704 1703 1699 1695 1692 1689 1687 1680 1676 1671 1665 1661 1660 1657 1657 1655 1652 1651 1650 1650 1649 1648 1644 1644 1642 1641 1641 1641 1640 1640 1640 1640 1640 1642 1644 1652 1664 1665 1681 1681 1689 1695 1720 1746 1746 0 0 0 0 0 0 0 0 0 0 0 0 0 0 0 0 0 0 0 0 0 0 0 0 0 0 0 0 0 0 0 0 0 0 0 0 0 2170 2170 2170 2154 2154 2154 2170 2183 2196 2203 2205 2205 2205 2209 2221 2246 2252 2254 2267 2305 2309 2310 2312 2317 2318 2320 2321 2321 2321 2321 2321 2352 2396 2427 2447 2461 2471 2471 2471 2471 2471 2474 2477 2488 2498 2506 2506 2507 2510 2514 2518 2521 2523 2525 2525 2525 2525 2526 2527 2529 2529 2529 2522 2513 2511 2511 2509 2507 2507 2491 2491 2491 2487 2487 0 0 0 0 0 0 0 0 0 0 0 0 0 0 0 0 0 0 0 0 0 0 0 0 0 0 0 0 0 0 0 0 0 0 0 0 0 0 0 0 0 0 0 0 0 0 0 0 0 0 0 2223 2237 2237 2237 2224 2220 2215 2215 2220 2220 2221 2222 2222 2229 2236 2236 2238 2236 2236 2235 2235 2235 2230 2227 2225 2219 2219 2217 0 0 0 0 0 0 0 0 0 0 0 0 0 0 0 0 0 0 0 0 0 0 0 0 0 0 0 0 0 0 0 0 0 0 0 0 0 0 0 0 0 0 0 0 0 0 0 0 0 0 0 0 0 0 0 0 0 0 0 0 0 0 0 0 0 0 0 0 0 0 0 0 0 0 0 0 0 2549 2593 2593 2593 2507 0 0 2292 2267 2238 2194 2166 2156 2140 2138 2133 2125 2120 2113 2104 2094 2087 2083 2077 2070 2063 2056 2054 2047 2038 2029 2019 2013 2008 2007 2003 1999 1994 1988 1982 1975 1968 1964 1959 1956 1950 1945 1942 1938 1936 1932 1930 1928 1925 1922 1920 1916 1912 1908 1906 1904 1902 1900 1898 1896 1893 1892 1890 1888 1885 1882 1879 1876 1874 1872 1871 1869 1868 1866 1864 1863 1863 1862 1861 1860 1860 1860 1860 1858 1856 1855 1853 1853 1852 1851 1850 1849 1848 1846 1844 1843 1842 1841 1839 1838 1837 1837 1836 1835 1835 1834 1834 1833 1832 1832 1832 1831 1830 1830 1830 1829 1829 1829 1827 1826 1825 1824 1824 1823 1823 1822 1821 1819 1817 1816 1815 1815 1814 1814 1813 1813 1813 1812 1812 1812 1812 1812 1811 1811 1811 1810 1810 1810 1810 1809 1809 1808 1808 1807 1806 1805 1804 1801 1800 1800 1798 1797 1797 1795 1794 1793 1793 1792 1792 1791 1791 1790 1789 1788 1788 1787 1786 1785 1783 1782 1780 1779 1777 1777 1777 1776 1776 1775 1775 1775 1774 1774 1774 1774 1776 1776 1777 1778 1780 1784 1785 1786 1786 1787 1787 1788 1790 1792 1792 1792 1792 1789 1789 1789 1789 1792 1799 1806 1806 1806 1806 1806 1804 1802 1801 1799 1789 1782 1776 1776 1776 1776 1776 1777 1777 1778 1778 1778 1774 1768 1762 1759 1756 1754 1753 1753 1752 1745 1741 1736 1734 1729 1729 1729 1738 1738 1738 1734 1731 1729 0 0 0 0 0
1663 1663 1654 1654 1654 1657 1657 1660 1660 1660 1660 1661 1672 1678 1680 1680 1683 1687 1693 1694 1697 1699 1701 1701 1704 1704 1705 1706 1706 1707 1709 1709 1710 1710 1710 1712 1716 1719 1721 1724 1727 1729 1731 1731 1731 1730 1730 1728 1721 1713 1705 1704 1704 1704 1703 1703 1699 1695 1692 1689 1688 1686 1679 1671 1665 1663 1662 1660 1659 1656 1654 1652 1650 1649 1648 1646 1644 1642 1640 1640 1639 1638 1638 1637 1637 1637 1638 1640 1641 1652 1664 1665 1681 1681 1687 1695 1702 1738 1738 1738 1737 1732 1729 0 0 0 0 0 0 0 0 0 0 0 0 0 0 0 0 0 0 0 0 0 0 0 0 0 0 0 0 0 0 0 0 0 0 2153 2153 2148 2148 2148 2158 2167 2180 2187 2187 2187 2187 2187 2217 2217 2221 2221 2227 2260 2270 2275 2295 2315 2317 2318 2321 2321 2321 2321 2321 2352 2405 2427 2447 2461 2464 2467 2467 2470 2471 2473 2475 2485 2494 2499 2501 2504 2510 2513 2516 2516 2517 2517 2517 2520 2521 2522 2522 2526 2526 2526 2520 2512 2511 2511 2507 2507 2507 2491 2491 2491 2489 2489 2438 2433 0 0 0 0 0 0 0 0 0 0 0 0 0 0 0 0 0 0 0 0 0 0 0 0 0 0 0 0 0 0 0 0 0 0 0 0 0 0 0 0 0 0 0 0 0 0 0 0 2184 2223 2237 2237 2237 2224 2212 2212 2212 2214 2218 2221 2222 2222 2229 2233 2233 2235 2235 2235 2235 2235 2235 2230 2227 2218 2216 2216 2209 0 0 0 0 0 0 0 0 0 0 0 0 0 0 0 0 0 0 0 0 0 0 0 0 0 0 0 0 0 0 0 0 0 0 0 0 0 0 0 0 0 0 0 0 0 0 0 0 0 0 0 0 0 0 0 0 0 0 0 0 0 0 0 0 0 0 0 0 0 0 0 0 0 0 0 0 0 0 2548 2548 2548 0 0 2324 2282 2259 2228 2182 2166 2156 2142 2139 2134 2128 2120 2111 2103 2094 2087 2083 2076 2070 2060 2053 2049 2044 2036 2029 2019 2013 2008 2006 2002 1999 1994 1988 1983 1976 1971 1964 1959 1955 1950 1945 1941 1938 1936 1932 1929 1926 1924 1922 1918 1915 1911 1908 1905 1904 1902 1900 1897 1896 1893 1892 1890 1888 1885 1882 1879 1876 1874 1872 1871 1869 1868 1866 1864 1863 1862 1861 1860 1860 1859 1859 1858 1856 1855 1854 1852 1850 1850 1850 1849 1848 1846 1845 1844 1843 1841 1841 1839 1839 1838 1837 1836 1835 1835 1834 1833 1833 1832 1832 1831 1831 1830 1830 1829 1828 1827 1827 1827 1826 1825 1824 1824 1823 1822 1821 1820 1818 1817 1816 1815 1814 1814 1814 1813 1813 1813 1812 1812 1812 1812 1812 1811 1811 1811 1810 1810 1810 1810 1810 1809 1808 1808 1808 1807 1806 1805 1803 1801 1800 1799 1798 1797 1795 1794 1793 1793 1792 1792 1791 1791 1790 1789 1788 1788 1787 1786 1785 1784 1782 1780 1779 1778 1778 1778 1778 1778 1778 1777 1775 1775 1775 1775 1777 1777 1778 1778 1779 1783 1785 1786 1787 1788 1789 1789 1790 1793 1794 1795 1797 1797 1797 1794 1794 1794 1794 1803 1808 1808 1808 1807 1807 1807 1806 1806 1805 1797 1785 1781 1781 1781 1788 1788 1788 1782 1780 1780 1780 1774 1771 1762 1759 1757 1757 1757 1763 1763 1763 1760 1754 1748 1748 1746 1746 1746 1746 1738 1734 1731 1721 0 0 0 0 0
1655 1656 1656 1656 1663 1667 1673 1673 1673 1661 1661 1661 1672 1680 1680 1682 1683 1690 1693 1697 1697 1702 1704 1706 1708 1708 1708 1707 1707 1707 1709 1709 1709 1709 1709 1710 1711 1714 1715 1717 1720 1725 1727 1727 1727 1724 1721 1720 1714 1709 1704 1703 1703 1702 1702 1701 1697 1692 1689 1689 1688 1686 1680 1676 1668 1665 1663 1661 1660 1658 1656 1653 1650 1649 1647 1644 1643 1641 1639 1638 1637 1636 1635 1635 1635 1635 1638 1639 1641 1646 1653 1663 1678 1678 1678 1678 1678 1702 1721 1725 1728 1729 1729 1737 0 0 0 0 0 0 0 0 0 0 0 0 0 0 0 0 0 0 0 0 0 0 0 0 0 0 0 0 0 0 0 0 0 0 2152 2146 2145 2145 2146 2153 2180 2187 2187 2187 2187 2187 2196 2209 2212 2214 2214 2227 2248 2264 2283 2301 2317 2318 2321 2321 2321 2321 2321 2352 2405 2440 2454 2461 2464 2466 2468 2470 2471 2473 2475 2481 2490 2495 2501 2503 2510 2510 2510 2508 2506 2506 2506 2513 2513 2513 2516 2516 2515 2515 2515 2506 2506 2506 2507 2507 2507 2491 2491 2491 2490 2490 2488 2439 2401 0 0 0 0 0 0 0 0 0 0 0 0 0 0 0 0 0 0 0 0 0 0 0 0 0 0 0 0 0 0 0 0 0 0 0 0 0 0 0 0 0 0 0 0 0 0 2182 2193 2224 2238 2238 2238 2224 2212 2212 2212 2212 2217 2221 2222 2222 2233 2233 2233 2234 2234 2234 2234 2234 2234 2230 2227 2224 2216 2216 2200 0 0 0 0 0 0 0 0 0 0 0 0 0 0 0 0 0 0 0 0 0 0 0 0 0 0 0 0 0 0 0 0 0 0 0 0 0 0 0 0 0 0 0 0 0 0 0 0 0 0 0 0 0 0 0 0 0 0 0 0 0 0 0 0 0 0 0 0 0 0 0 0 0 0 0 0 0 0 0 0 0 0 0 2314 2279 2247 2203 2179 2163 2156 2142 2139 2134 2128 2120 2110 2102 2094 2087 2083 2076 2069 2059 2052 2045 2040 2034 2029 2023 2015 2008 2004 2000 1998 1994 1988 1983 1977 1971 1964 1959 1954 1949 1945 1941 1937 1935 1931 1928 1925 1924 1922 1918 1914 1910 1907 1905 1903 1902 1900 1897 1895 1893 1892 1890 1888 1885 1882 1879 1877 1875 1873 1871 1869 1868 1867 1864 1863 1862 1861 1860 1859 1858 1858 1856 1855 1853 1852 1851 1850 1849 1848 1848 1846 1845 1844 1843 1843 1841 1840 1839 1839 1838 1837 1836 1835 1835 1834 1833 1833 1832 1832 1831 1830 1830 1830 1829 1827 1827 1826 1825 1825 1824 1823 1823 1821 1820 1819 1819 1818 1817 1816 1815 1814 1814 1814 1813 1813 1813 1812 1812 1812 1811 1811 1811 1811 1811 1811 1810 1810 1810 1810 1810 1809 1809 1808 1807 1806 1805 1804 1803 1802 1801 1798 1797 1795 1795 1794 1793 1793 1792 1791 1790 1790 1789 1788 1788 1787 1786 1785 1784 1782 1780 1779 1779 1779 1778 1778 1778 1778 1777 1777 1777 1777 1777 1778 1779 1779 1780 1782 1783 1785 1787 1787 1789 1790 1790 1792 1793 1794 1795 1797 1799 1799 1799 1797 1797 1797 1803 1808 1808 1808 1808 1808 1808 1810 1810 1810 1802 1793 1788 1788 1788 1791 1791 1791 1786 1783 1783 1780 1776 1772 1766 1763 1760 1760 1760 1764 1765 1765 1765 1763 1759 1754 1752 1750 1748 1746 1738 1734 1714 1698 0 0 0 0 0
1648 1660 1665 1667 1671 1673 1675 1675 1673 1661 1661 1661 1672 1692 1692 1692 1692 1692 1694 1697 1698 1704 1707 1710 1711 1711 1711 1708 1707 1707 1707 1707 1707 1705 1705 1705 1707 1710 1710 1713 1717 1719 1722 1722 1722 1721 1713 1711 1706 1703 1700 1700 1700 1700 1700 1700 1696 1691 1689 1689 1688 1686 1680 1676 1670 1668 1664 1662 1660 1658 1656 1653 1650 1648 1646 1644 1642 1640 1639 1638 1636 1635 1633 1633 1633 1634 1637 1638 1640 1642 1644 1648 1668 1668 1668 1675 1675 1676 1691 1699 1713 1727 1736 1753 1753 0 0 0 0 0 0 0 0 0 0 0 0 0 0 0 0 0 0 0 0 0 0 0 0 0 0 0 0 0 0 0 0 0 0 2146 2145 2145 2146 2153 2180 2187 2187 2187 2187 2187 2196 2209 2209 2214 2214 2224 2241 2255 2265 2279 2286 2288 2289 2292 2296 2303 2303 2327 2405 2440 2454 2454 2460 2466 2472 2474 2474 2475 2475 2475 2481 2491 2497 2503 2508 2508 2508 2504 2499 2499 2499 2506 2506 2506 2505 2505 2504 2504 2504 2503 2503 2503 2501 2501 2497 2492 2492 2492 2507 2507 2507 2484 2441 0 0 0 0 0 0 0 0 0 0 0 0 0 0 0 0 0 0 0 0 0 0 0 0 0 0 0 0 0 0 0 0 0 0 0 0 0 0 0 0 0 0 0 0 2190 2190 2190 2193 2224 2239 2239 2239 2224 2212 2211 2211 2211 2217 2223 2225 2227 2233 2233 2235 2235 2235 2235 2235 2234 2234 2230 2227 2224 2212 2212 2199 0 0 0 0 0 0 0 0 0 0 0 0 0 0 0 0 0 0 0 0 0 0 0 0 0 0 0 0 0 0 0 0 0 0 0 0 0 0 0 0 0 0 0 0 0 0 0 0 0 0 0 0 0 0 0 0 0 0 0 0 0 0 0 0 0 0 0 0 0 0 0 0 0 0 0 0 0 0 0 0 0 0 2328 2304 2273 2237 2194 2171 2158 2149 2142 2139 2134 2128 2118 2110 2102 2094 2087 2081 2074 2066 2059 2048 2041 2036 2033 2029 2023 2015 2008 2003 1999 1995 1993 1988 1983 1977 1971 1964 1958 1952 1948 1943 1939 1936 1934 1931 1928 1924 1923 1921 1917 1913 1909 1907 1905 1903 1902 1900 1897 1895 1892 1891 1890 1888 1886 1882 1880 1877 1875 1873 1871 1870 1869 1867 1866 1863 1862 1861 1860 1859 1858 1857 1856 1854 1853 1851 1851 1850 1849 1848 1847 1846 1845 1844 1843 1842 1841 1840 1839 1838 1838 1837 1836 1834 1834 1834 1833 1833 1832 1831 1830 1830 1829 1828 1828 1827 1826 1825 1825 1824 1823 1822 1822 1821 1820 1819 1818 1818 1817 1816 1815 1814 1814 1814 1813 1813 1812 1812 1812 1812 1811 1811 1811 1811 1811 1811 1810 1810 1810 1810 1810 1810 1809 1808 1808 1807 1807 1806 1804 1803 1801 1799 1797 1796 1795 1795 1793 1793 1792 1790 1790 1789 1789 1788 1788 1787 1786 1784 1784 1782 1781 1779 1779 1779 1779 1779 1779 1778 1778 1778 1778 1778 1778 1779 1779 1780 1780 1783 1785 1786 1787 1788 1790 1791 1791 1792 1793 1794 1795 1797 1799 1803 1803 1804 1806 1806 1806 1808 1808 1808 1808 1808 1808 1810 1810 1810 1809 1801 1793 1793 1793 1800 1800 1800 1797 1790 1786 1781 1777 1774 1770 1768 1761 1761 1761 1766 1767 1767 1766 1764 1759 1754 1752 1750 1746 1737 1732 1729 1714 1698 0 0 0 0 0
1663 1663 1667 1671 1674 1677 1681 1681 1681 1682 1682 1692 1698 1700 1702 1702 1702 1700 1699 1699 1699 1704 1708 1710 1711 1711 1711 1708 1707 1705 1705 1705 1703 1703 1704 1704 1704 1705 1710 1711 1712 1712 1714 1714 1714 1713 1710 1707 1699 1696 1695 1695 1695 1697 1697 1697 1694 1691 1688 1687 1686 1683 1680 1676 1670 1668 1664 1662 1660 1658 1656 1653 1649 1648 1645 1644 1642 1640 1637 1636 1635 1633 1631 1631 1631 1632 1635 1638 1639 1639 1640 1643 1647 1662 1664 1668 1673 1673 1687 1689 1689 1707 1734 1753 1753 0 0 0 0 0 0 0 0 0 0 0 0 0 0 0 0 0 0 0 0 0 0 0 0 0 0 0 0 0 0 0 0 0 0 0 2145 2145 2146 2153 2182 2202 2202 2202 2198 2198 2198 2209 2209 2214 2214 2221 2238 2247 2247 2251 2253 2255 2257 2257 2274 2284 2286 2304 2352 2440 2454 2454 2459 2466 2472 2475 2475 2475 2475 2475 2476 2485 2495 2502 2506 2506 2506 2503 2496 2496 2496 2500 2500 2500 2495 2495 2495 2494 2494 2494 2494 2493 2492 2490 2481 2481 2481 2492 2511 2520 2520 2520 2489 2441 0 0 0 0 0 0 0 0 0 0 0 0 0 0 0 0 0 0 0 0 0 0 0 0 0 0 0 0 0 0 2329 2329 2329 2317 0 0 0 0 0 0 0 0 2207 2199 2197 2197 2197 2235 2247 2247 2247 2230 2212 2209 2209 2209 2217 2229 2230 2232 2235 2236 2236 2236 2236 2236 2235 2232 2225 2224 2223 2223 2212 2212 2194 0 0 0 0 0 0 0 0 0 0 0 0 0 0 0 0 0 0 0 0 0 0 0 0 0 0 0 0 0 0 0 0 0 0 0 0 0 0 0 0 0 0 0 0 0 0 0 0 0 0 0 0 0 0 0 0 0 0 0 0 0 0 0 0 0 0 0 0 0 0 0 0 0 0 0 0 0 0 0 2379 2322 2315 2306 2287 2255 2221 2187 2168 2156 2146 2137 2131 2129 2125 2116 2110 2102 2094 2087 2081 2073 2065 2055 2044 2037 2033 2029 2026 2023 2015 2008 2003 1999 1993 1989 1987 1982 1977 1971 1964 1957 1952 1948 1943 1939 1936 1934 1931 1928 1924 1922 1919 1916 1912 1909 1906 1904 1902 1901 1899 1895 1893 1891 1890 1888 1888 1886 1882 1880 1877 1875 1873 1872 1870 1869 1867 1866 1864 1862 1861 1860 1859 1858 1857 1856 1854 1853 1851 1850 1850 1848 1847 1847 1846 1844 1844 1843 1842 1841 1840 1838 1837 1837 1836 1835 1834 1834 1834 1833 1832 1831 1831 1830 1830 1829 1828 1827 1827 1825 1824 1824 1822 1822 1822 1820 1820 1819 1818 1818 1817 1817 1816 1814 1814 1814 1813 1813 1813 1812 1812 1812 1812 1812 1811 1811 1811 1811 1811 1810 1810 1810 1810 1810 1810 1809 1809 1808 1808 1808 1807 1805 1803 1802 1799 1798 1797 1796 1795 1794 1793 1792 1790 1790 1789 1789 1788 1788 1787 1786 1784 1784 1782 1781 1780 1779 1779 1779 1779 1780 1780 1780 1780 1780 1780 1780 1780 1780 1780 1781 1784 1785 1786 1787 1788 1790 1792 1792 1793 1793 1793 1794 1796 1798 1803 1807 1810 1810 1810 1810 1810 1810 1810 1810 1810 1810 1810 1810 1810 1809 1804 1801 1801 1801 1805 1805 1805 1801 1796 1793 1788 1782 1782 1778 1773 1768 1768 1768 1768 1768 1768 1767 1764 1759 1754 1752 1750 1743 1734 1730 1727 1714 1704 0 0 0 0 0
1663 1663 1670 1671 1675 1689 1690 1691 1691 1697 1699 1706 1706 1706 1706 1703 1702 1700 1699 1699 1699 1704 1708 1710 1711 1711 1711 1708 1706 1704 1704 1704 1702 1702 1701 1701 1701 1703 1706 1706 1706 1706 1706 1705 1705 1704 1702 1697 1695 1690 1687 1687 1687 1691 1692 1692 1692 1689 1685 1682 1680 1678 1675 1672 1670 1668 1664 1661 1659 1655 1653 1652 1649 1648 1645 1644 1642 1639 1637 1635 1633 1632 1627 1627 1627 1628 1631 1633 1635 1636 1637 1637 1641 1646 1650 1664 1665 1668 1671 1682 1683 1706 1732 1752 1752 0 0 0 0 0 0 0 0 0 0 0 0 0 0 0 0 0 0 0 0 0 0 0 0 0 0 0 0 0 0 0 0 0 0 0 0 2163 2172 2183 2202 2213 2215 2221 2236 2236 2236 2222 2214 2214 2214 2218 2234 2234 2234 2225 2225 2225 2226 2234 2243 2258 2283 2304 2343 2416 2447 2454 2455 2465 2472 2475 2475 2475 2473 2473 2473 2480 2486 2493 2503 2503 2503 2497 2493 2492 2492 2492 2493 2493 2493 2490 2490 2490 2490 2490 2490 2484 2482 2479 2479 2479 2480 2492 2511 2517 2517 2517 2514 2499 2488 0 0 0 0 0 0 0 0 0 0 0 0 0 0 0 0 0 0 0 0 0 0 0 0 0 0 0 0 2307 2343 2343 2343 2342 2339 2335 2297 2251 0 2224 2224 2211 2208 2208 2206 2206 2206 2242 2251 2251 2251 2235 2221 2209 2209 2209 2218 2230 2231 2232 2235 2236 2236 2236 2235 2233 2230 2228 2225 2222 2221 2214 2212 2212 2187 0 0 0 0 0 0 0 0 0 0 0 0 0 0 0 0 0 0 0 0 0 0 0 0 0 0 0 0 0 0 0 0 0 0 0 0 0 0 0 0 0 0 0 0 0 0 0 0 0 0 0 0 0 0 0 0 0 0 0 0 0 0 0 0 0 0 0 0 0 0 0 0 0 0 0 0 0 0 2336 2336 2321 2303 2287 2257 2236 2213 2180 2159 2153 2143 2135 2128 2124 2120 2115 2109 2101 2092 2084 2075 2070 2062 2053 2043 2034 2030 2027 2023 2018 2012 2007 2001 1996 1991 1987 1983 1979 1975 1970 1963 1957 1952 1948 1943 1939 1936 1934 1932 1927 1924 1920 1918 1915 1912 1909 1906 1903 1902 1899 1897 1895 1893 1891 1890 1888 1887 1886 1882 1880 1878 1875 1873 1872 1871 1869 1867 1866 1865 1863 1861 1861 1859 1858 1857 1856 1854 1852 1851 1850 1849 1848 1847 1847 1846 1844 1843 1842 1842 1841 1840 1838 1837 1836 1836 1835 1834 1833 1833 1833 1832 1831 1830 1830 1828 1828 1827 1826 1826 1825 1824 1823 1822 1821 1821 1820 1820 1819 1818 1817 1817 1816 1815 1814 1813 1813 1813 1813 1813 1812 1812 1812 1812 1812 1811 1811 1811 1811 1811 1810 1810 1810 1810 1810 1810 1809 1809 1809 1808 1808 1807 1805 1803 1802 1800 1799 1798 1797 1795 1794 1793 1792 1791 1790 1789 1789 1789 1788 1787 1786 1784 1784 1783 1783 1783 1783 1781 1781 1781 1781 1781 1781 1782 1781 1781 1780 1780 1780 1782 1783 1784 1785 1786 1787 1789 1791 1792 1792 1793 1793 1793 1794 1794 1797 1802 1807 1810 1810 1810 1810 1810 1810 1810 1810 1809 1809 1809 1809 1809 1809 1804 1804 1804 1806 1806 1806 1805 1801 1801 1799 1797 1794 1792 1784 1778 1778 1778 1775 1775 1775 1768 1767 1764 1759 1754 1752 1750 1743 1734 1728 1721 1721 1718 0 0 0 0 0
1685 1686 1694 1698 1704 1705 1705 1705 1701 1701 1701 1706 1706 1706 1706 1703 1702 1700 1698 1698 1698 1704 1707 1707 1707 1708 1707 1707 1706 1702 1702 1702 1701 1701 1700 1698 1698 1698 1699 1700 1700 1700 1697 1693 1693 1693 1691 1689 1687 1686 1682 1682 1682 1685 1685 1685 1685 1683 1680 1676 1673 1671 1669 1668 1665 1663 1661 1659 1657 1654 1653 1651 1649 1648 1646 1644 1641 1638 1637 1635 1633 1629 1625 1624 1624 1624 1627 1630 1633 1634 1636 1637 1639 1641 1649 1664 1665 1668 1668 1669 1670 1682 1724 1752 1752 0 0 0 0 0 0 0 0 0 0 0 0 0 0 0 0 0 0 0 0 0 0 0 0 0 0 0 0 0 0 0 0 0 0 0 0 0 2181 2183 2202 2213 2215 2236 2243 2243 2243 2222 2214 2214 2214 2216 2232 2232 2232 2222 2213 2204 2204 2204 2217 2237 2268 2304 2330 2362 2392 2412 2436 2453 2470 2475 2475 2475 2466 2466 2466 2469 2473 2474 2483 2494 2494 2494 2486 2484 2484 2484 2488 2488 2488 2486 2485 2485 2485 2485 2485 2483 2474 2472 2472 2472 2480 2491 2508 2517 2517 2517 2514 2499 2488 2459 0 0 0 0 0 0 0 0 0 0 0 0 0 0 0 0 0 0 0 0 0 0 0 0 0 0 0 2310 2348 2355 2360 2360 2355 2354 2350 2272 2229 2224 2224 2213 2208 2208 2208 2208 2224 2242 2246 2246 2246 2235 2221 2209 2209 2209 2225 2230 2231 2232 2239 2239 2239 2236 2234 2233 2229 2228 2225 2222 2221 2214 2206 2206 2187 0 0 0 0 0 0 0 0 0 0 0 0 0 0 0 0 0 0 0 0 0 0 0 0 0 0 0 0 0 0 0 0 0 0 0 0 0 0 0 0 0 0 0 0 0 0 0 0 0 0 0 0 0 0 0 0 0 0 0 0 0 0 0 0 0 0 0 0 0 0 0 0 0 0 0 0 0 0 2302 2302 2302 2301 2273 2250 2230 2208 2177 2157 2146 2139 2133 2127 2122 2119 2115 2108 2100 2091 2080 2071 2066 2061 2053 2042 2034 2027 2023 2019 2012 2005 2001 1998 1996 1991 1987 1982 1977 1971 1966 1961 1956 1952 1948 1944 1940 1937 1934 1932 1927 1923 1919 1916 1914 1912 1908 1906 1903 1901 1899 1897 1895 1893 1891 1890 1888 1886 1885 1882 1880 1877 1875 1873 1872 1871 1869 1867 1866 1865 1863 1862 1861 1860 1859 1857 1856 1854 1852 1851 1849 1848 1847 1846 1846 1845 1844 1843 1842 1841 1840 1839 1838 1837 1836 1835 1835 1834 1833 1833 1832 1831 1830 1828 1828 1828 1826 1826 1826 1825 1825 1824 1823 1822 1821 1821 1820 1819 1819 1817 1816 1816 1816 1814 1814 1813 1813 1813 1813 1813 1812 1812 1812 1812 1812 1811 1811 1811 1811 1810 1810 1810 1810 1810 1810 1810 1809 1809 1809 1808 1808 1807 1805 1804 1802 1801 1800 1799 1797 1796 1794 1793 1792 1791 1790 1789 1789 1789 1788 1787 1786 1784 1784 1784 1784 1783 1783 1782 1782 1782 1782 1782 1782 1782 1782 1782 1781 1781 1781 1782 1783 1784 1785 1786 1787 1789 1791 1792 1793 1793 1793 1794 1794 1794 1797 1801 1805 1810 1810 1810 1810 1810 1810 1811 1811 1811 1810 1810 1810 1809 1809 1804 1804 1804 1806 1806 1806 1805 1802 1801 1801 1801 1798 1795 1788 1781 1778 1778 1778 1778 1778 1778 1769 1764 1759 1754 1752 1750 1743 1737 1728 1722 1722 1721 0 0 0 0 0
1702 1704 1708 1708 1709 1708 1708 1707 1701 1701 1701 1706 1706 1706 1703 1700 1698 1696 1696 1696 1698 1703 1703 1704 1705 1705 1705 1705 1705 1702 1701 1701 1699 1696 1694 1690 1689 1689 1689 1692 1692 1692 1684 1683 1681 1681 1679 1679 1679 1678 1676 1676 1676 1678 1679 1679 1678 1676 1672 1668 1666 1666 1665 1664 1663 1660 1659 1657 1654 1653 1652 1651 1649 1649 1647 1644 1641 1638 1636 1633 1630 1627 1622 1622 1622 1623 1625 1628 1629 1631 1634 1634 1637 1640 1642 1657 1662 1665 1665 1668 1669 1673 1709 1731 1731 0 0 0 0 0 0 0 0 0 0 0 0 0 0 0 0 0 0 0 0 0 0 0 0 0 0 0 0 0 0 0 0 0 0 0 0 0 2181 2183 2202 2213 2215 2236 2243 2243 2243 2222 2203 2189 2188 2188 2188 2188 2188 2180 2180 2180 2193 2194 2205 2231 2261 2286 2320 2346 2368 2372 2409 2435 2453 2465 2465 2465 2457 2457 2457 2457 2458 2461 2466 2474 2475 2475 2475 2475 2475 2479 2480 2480 2480 2476 2468 2468 2468 2468 2468 2468 2460 2460 2460 2463 2475 2491 2499 2501 2501 2501 2501 2499 2488 2460 2455 2426 0 0 0 0 0 0 0 0 0 0 0 0 0 0 0 0 0 0 0 0 0 0 0 0 0 2326 2356 2366 2367 2367 2366 2354 2350 2344 2266 2217 2217 2213 2211 2217 2221 2222 2224 2242 2246 2250 2250 2246 2229 2219 2219 2219 2225 2228 2230 2231 2239 2239 2239 2234 2231 2230 2228 2228 2228 2222 2214 2212 2206 2202 2202 0 0 0 0 0 0 0 0 0 0 0 0 0 0 0 0 0 0 0 0 0 0 0 0 0 0 0 0 0 0 0 0 0 0 0 0 0 0 0 0 0 0 0 0 0 0 0 0 0 0 0 0 0 0 0 0 0 0 0 0 0 0 0 0 0 0 0 0 0 0 0 0 0 0 0 0 0 0 2301 2301 2301 2282 2259 2241 2219 2192 2176 2157 2146 2139 2129 2122 2119 2117 2114 2107 2100 2088 2079 2071 2065 2060 2052 2042 2031 2024 2021 2016 2010 2004 1999 1994 1991 1989 1986 1982 1976 1970 1963 1958 1955 1951 1948 1945 1941 1938 1935 1932 1928 1923 1919 1916 1913 1911 1908 1906 1903 1901 1899 1897 1896 1894 1892 1890 1888 1886 1884 1882 1880 1877 1875 1873 1872 1871 1869 1867 1866 1865 1863 1862 1861 1860 1859 1857 1856 1854 1852 1851 1849 1848 1847 1846 1846 1845 1844 1843 1841 1840 1839 1838 1838 1837 1836 1835 1835 1834 1832 1832 1832 1830 1830 1828 1828 1828 1826 1826 1825 1825 1825 1823 1823 1822 1821 1821 1820 1819 1818 1817 1816 1816 1815 1814 1813 1813 1813 1813 1813 1812 1812 1812 1812 1812 1811 1811 1811 1811 1810 1810 1810 1810 1810 1810 1810 1810 1809 1809 1809 1808 1808 1807 1806 1805 1804 1803 1801 1799 1798 1796 1796 1794 1792 1791 1791 1791 1790 1790 1788 1787 1786 1786 1785 1784 1784 1784 1783 1783 1782 1782 1782 1782 1782 1782 1782 1782 1781 1781 1781 1782 1783 1784 1785 1786 1787 1790 1791 1792 1793 1793 1793 1794 1794 1794 1797 1800 1804 1807 1808 1810 1810 1810 1810 1812 1812 1812 1812 1811 1810 1809 1809 1804 1804 1804 1805 1805 1805 1801 1801 1801 1801 1801 1798 1795 1789 1783 1780 1780 1780 1780 1780 1778 1773 1768 1767 1765 1763 1754 1745 1739 1724 1722 1722 1721 0 0 0 0 0
1706 1706 1708 1708 1709 1708 1708 1707 1701 1699 1699 1699 1699 1695 1692 1691 1691 1691 1691 1692 1696 1701 1701 1701 1700 1698 1698 1698 1698 1698 1698 1698 1693 1690 1688 1686 1680 1680 1680 1683 1683 1683 1679 1672 1671 1669 1669 1669 1668 1668 1669 1669 1670 1670 1670 1669 1669 1668 1666 1664 1662 1662 1660 1659 1657 1656 1656 1655 1654 1653 1652 1651 1649 1649 1647 1644 1640 1636 1633 1631 1628 1624 1622 1621 1621 1621 1624 1626 1628 1628 1630 1631 1635 1638 1639 1641 1653 1659 1661 1665 1668 1672 1698 1720 1739 1739 0 0 0 0 0 0 0 0 0 0 0 0 0 0 0 0 0 0 0 0 0 0 0 0 0 0 0 0 0 0 0 0 0 0 0 0 0 2181 2192 2197 2206 2236 2236 2236 2223 2198 2169 2163 2161 2159 2159 2159 2175 2177 2177 2180 2181 2190 2202 2216 2256 2286 2292 2335 2344 2354 2384 2415 2437 2449 2450 2450 2450 2444 2444 2444 2448 2450 2452 2457 2462 2464 2467 2467 2469 2471 2471 2471 2465 2461 2455 2451 2451 2451 2451 2451 2448 2444 2444 2444 2462 2478 2478 2478 2478 2472 2460 2456 2456 2452 2451 2446 2413 2391 0 0 0 0 0 0 0 0 0 0 0 0 0 0 0 0 0 0 0 0 0 0 0 2358 2363 2366 2367 2367 2366 2354 2350 2344 2279 2212 2207 2207 2207 2207 2212 2215 2215 2223 2224 2225 2246 2246 2246 2246 2236 2233 2225 2224 2224 2224 2239 2239 2239 2233 2228 2228 2228 2228 2228 2223 2216 2215 2212 2202 2202 2197 0 0 0 0 0 0 0 0 0 0 0 0 0 0 0 0 0 0 0 0 0 0 0 0 0 0 0 0 0 0 0 0 0 0 0 0 0 0 0 0 0 0 0 0 0 0 0 0 0 0 0 0 0 0 0 0 0 0 0 0 0 0 0 0 0 0 0 0 0 0 0 0 0 0 0 0 0 2299 2299 2299 2273 2258 2237 2207 2188 2173 2157 2146 2137 2127 2120 2115 2112 2108 2104 2095 2087 2078 2070 2062 2059 2050 2041 2030 2021 2017 2014 2010 2004 1998 1993 1990 1989 1985 1982 1976 1969 1963 1957 1953 1950 1948 1945 1941 1938 1935 1932 1928 1923 1919 1916 1913 1911 1909 1906 1903 1901 1899 1898 1896 1894 1892 1890 1888 1886 1883 1882 1880 1877 1875 1873 1872 1870 1867 1867 1866 1865 1863 1862 1860 1859 1858 1857 1855 1853 1851 1850 1849 1848 1847 1846 1845 1844 1843 1842 1841 1839 1839 1837 1837 1836 1835 1835 1834 1833 1832 1832 1831 1830 1830 1828 1828 1828 1826 1826 1825 1825 1824 1823 1822 1821 1821 1820 1819 1819 1817 1817 1816 1815 1815 1814 1813 1813 1813 1813 1812 1812 1812 1812 1812 1812 1811 1811 1811 1810 1810 1810 1810 1810 1810 1810 1810 1810 1809 1809 1808 1808 1808 1807 1807 1805 1804 1803 1802 1801 1799 1798 1796 1796 1794 1793 1792 1791 1791 1790 1789 1788 1787 1786 1785 1785 1784 1784 1784 1784 1783 1783 1782 1782 1782 1782 1782 1782 1782 1782 1782 1782 1782 1784 1785 1786 1787 1790 1791 1792 1793 1793 1794 1794 1795 1796 1798 1800 1804 1806 1807 1808 1810 1810 1811 1813 1813 1813 1812 1810 1810 1809 1806 1804 1803 1802 1802 1802 1801 1801 1801 1801 1800 1800 1798 1795 1794 1790 1784 1784 1784 1783 1783 1778 1778 1778 1780 1780 1780 1773 1754 1749 1724 1723 1723 1712 0 0 0 0 0
1706 1706 1708 1708 1709 1708 1708 1707 1699 1697 1694 1692 1691 1691 1689 1687 1687 1687 1688 1691 1695 1698 1698 1698 1696 1692 1690 1690 1690 1690 1690 1690 1688 1687 1685 1681 1674 1674 1674 1675 1675 1675 1673 1670 1668 1663 1660 1660 1660 1660 1660 1661 1663 1664 1664 1664 1664 1663 1663 1663 1660 1658 1656 1653 1653 1653 1654 1654 1654 1652 1651 1650 1649 1649 1647 1644 1640 1636 1632 1629 1626 1624 1622 1620 1620 1620 1622 1624 1624 1625 1626 1627 1630 1635 1635 1637 1645 1659 1660 1661 1663 1670 1683 1704 1729 1756 1756 0 0 0 0 0 0 0 0 0 0 0 0 0 0 0 0 0 0 0 0 0 0 0 0 0 0 0 0 0 0 0 0 0 0 0 0 2149 2174 2169 2176 2188 2184 2184 2184 2179 2147 2145 2144 2145 2147 2157 2173 2175 2177 2180 2181 2186 2189 2212 2252 2269 2292 2314 2319 2338 2369 2405 2420 2437 2442 2442 2442 2440 2440 2440 2440 2440 2440 2440 2442 2448 2456 2459 2466 2466 2466 2457 2446 2438 2438 2433 2432 2432 2432 2435 2435 2435 2437 2441 2454 2464 2466 2467 2467 2466 2460 2455 2455 2452 2451 2451 2446 2416 2387 2360 0 0 0 0 0 0 0 0 0 0 0 0 0 0 0 0 0 0 0 0 0 2358 2363 2363 2363 2347 2334 2334 2328 2326 2279 2212 2197 2197 2197 2204 2208 2208 2208 2188 2188 2188 2219 2246 2250 2250 2246 2234 2225 2221 2221 2221 2239 2239 2239 2233 2226 2226 2226 2226 2226 2224 2219 2215 2212 2202 2202 2201 0 0 0 0 0 0 0 0 0 0 0 0 0 0 0 0 0 0 0 0 0 0 0 0 0 0 0 0 0 0 0 0 0 0 0 0 0 0 0 0 0 0 0 0 0 0 0 0 0 0 0 0 0 0 0 0 0 0 0 0 0 0 0 0 0 0 0 0 0 0 0 0 0 0 0 0 0 2299 2299 2299 2273 2253 2235 2207 2187 2170 2157 2149 2134 2126 2119 2115 2112 2105 2100 2093 2086 2077 2068 2060 2054 2048 2037 2026 2018 2015 2014 2010 2004 1997 1992 1987 1986 1984 1980 1975 1969 1962 1957 1953 1950 1947 1945 1941 1938 1935 1932 1928 1923 1919 1916 1913 1911 1909 1906 1904 1901 1899 1898 1896 1894 1892 1890 1887 1886 1883 1881 1879 1877 1875 1873 1871 1869 1867 1867 1866 1864 1863 1861 1860 1859 1858 1856 1855 1852 1851 1850 1849 1848 1847 1845 1845 1843 1842 1841 1840 1839 1838 1837 1836 1835 1835 1834 1833 1832 1832 1831 1831 1831 1830 1829 1829 1829 1827 1826 1825 1825 1824 1823 1822 1821 1820 1820 1819 1818 1817 1816 1815 1815 1814 1814 1813 1812 1812 1812 1812 1812 1812 1812 1812 1812 1811 1811 1810 1810 1809 1809 1809 1809 1810 1810 1810 1809 1808 1808 1808 1808 1808 1808 1807 1806 1805 1803 1802 1802 1800 1799 1798 1797 1795 1794 1793 1792 1791 1790 1789 1788 1788 1787 1785 1785 1785 1785 1785 1785 1785 1784 1783 1783 1783 1782 1782 1782 1782 1782 1782 1782 1782 1784 1785 1787 1788 1790 1791 1792 1793 1794 1794 1794 1795 1797 1799 1800 1804 1805 1807 1808 1809 1810 1811 1813 1813 1813 1812 1809 1809 1806 1802 1801 1800 1800 1801 1801 1801 1801 1801 1800 1799 1796 1795 1794 1792 1792 1789 1787 1787 1786 1786 1786 1786 1786 1785 1785 1785 1773 1762 1749 1724 1723 1723 1712 0 0 0 0 0
1701 1701 1701 1701 1701 1705 1705 1705 1699 1692 1688 1688 1688 1687 1687 1685 1685 1685 1687 1690 1694 1698 1698 1698 1693 1687 1680 1680 1678 1678 1678 1681 1682 1682 1682 1675 1665 1665 1665 1663 1663 1663 1663 1663 1661 1657 1652 1652 1652 1653 1655 1657 1657 1657 1657 1657 1659 1659 1659 1659 1657 1653 1649 1649 1649 1649 1650 1650 1650 1649 1648 1648 1648 1646 1645 1642 1639 1635 1631 1627 1625 1624 1622 1620 1620 1620 1620 1621 1622 1623 1623 1624 1626 1630 1632 1634 1643 1651 1658 1659 1661 1670 1682 1689 1727 1739 1753 1753 0 0 0 0 0 0 0 0 0 0 0 0 0 0 0 0 0 0 0 0 0 0 0 0 0 0 0 0 0 0 0 0 0 0 0 2125 2134 2144 2148 2153 2167 2167 2167 2149 2132 2132 2132 2136 2141 2152 2171 2177 2181 2184 2181 2181 2181 2184 2214 2258 2264 2286 2315 2319 2351 2383 2398 2411 2417 2431 2438 2439 2439 2438 2436 2433 2430 2430 2430 2435 2445 2455 2455 2455 2450 2440 2429 2420 2420 2419 2419 2419 2419 2425 2433 2434 2434 2441 2446 2453 2458 2462 2462 2462 2459 2452 2452 2451 2451 2451 2446 2418 2391 2377 2360 0 0 0 0 0 0 0 0 0 0 0 0 0 0 0 0 0 0 0 0 2358 2358 2358 2356 2347 2334 2328 2326 2326 2279 2212 2186 2186 2186 2204 2204 2204 2195 2188 2188 2188 2218 2223 2246 2246 2246 2234 2223 2221 2221 2221 2239 2239 2239 2229 2226 2226 2226 2226 2226 2225 2224 2215 2213 2208 2208 2201 0 0 0 0 0 0 0 0 0 0 0 0 0 0 0 0 0 0 0 0 0 0 0 0 0 0 0 0 0 0 0 0 0 0 0 0 0 0 0 0 0 0 0 0 0 0 0 0 0 0 0 0 0 0 0 0 0 0 0 0 0 0 0 0 0 0 0 0 0 0 0 0 0 0 0 0 0 2312 2298 2291 2273 2248 2231 2205 2181 2167 2157 2149 2136 2126 2119 2115 2112 2103 2097 2092 2084 2075 2067 2058 2050 2042 2033 2024 2018 2013 2011 2008 2004 1997 1991 1985 1982 1980 1977 1974 1968 1962 1957 1953 1950 1946 1944 1941 1938 1935 1932 1928 1924 1920 1917 1914 1911 1909 1906 1904 1901 1899 1898 1896 1894 1891 1889 1887 1885 1883 1881 1879 1877 1875 1873 1871 1869 1867 1866 1865 1864 1863 1861 1860 1859 1858 1856 1854 1852 1851 1850 1849 1848 1847 1845 1844 1843 1842 1841 1840 1839 1838 1836 1836 1835 1835 1833 1833 1832 1831 1831 1831 1830 1830 1830 1829 1829 1827 1826 1825 1824 1824 1823 1821 1821 1820 1819 1818 1818 1816 1815 1815 1815 1813 1813 1812 1812 1812 1812 1812 1812 1811 1811 1811 1811 1811 1810 1810 1809 1809 1809 1809 1809 1809 1809 1809 1809 1808 1808 1808 1808 1808 1808 1807 1806 1805 1804 1802 1802 1800 1800 1798 1798 1796 1794 1794 1793 1792 1791 1790 1790 1789 1787 1786 1785 1785 1785 1786 1786 1786 1785 1783 1783 1783 1783 1783 1783 1782 1782 1782 1782 1782 1784 1785 1787 1788 1789 1791 1792 1793 1794 1795 1795 1796 1798 1799 1801 1803 1805 1807 1808 1809 1810 1812 1813 1813 1813 1812 1807 1801 1796 1796 1796 1797 1798 1799 1799 1799 1799 1799 1798 1796 1794 1794 1792 1791 1791 1792 1792 1796 1798 1800 1800 1800 1792 1792 1790 1785 1773 1762 1749 1730 1730 1730 0 0 0 0 0 0
1690 1690 1690 1690 1690 1699 1699 1699 1692 1686 1683 1683 1683 1683 1683 1684 1684 1684 1687 1689 1692 1696 1696 1696 1689 1683 1674 1671 1668 1668 1668 1674 1674 1674 1672 1665 1658 1658 1658 1657 1655 1655 1654 1653 1653 1649 1647 1647 1647 1648 1653 1653 1653 1652 1652 1652 1652 1653 1653 1653 1651 1647 1642 1642 1642 1644 1644 1644 1644 1644 1644 1644 1644 1643 1643 1640 1636 1633 1630 1627 1625 1624 1622 1620 1619 1619 1619 1619 1619 1619 1620 1622 1624 1625 1628 1628 1639 1645 1646 1655 1659 1669 1670 1688 1699 1717 1753 1758 1760 0 0 0 0 0 0 0 0 0 0 0 0 0 0 0 0 0 0 0 0 0 0 0 0 0 0 0 0 0 0 0 0 0 0 2111 2112 2115 2127 2130 2141 2141 2141 2121 2114 2114 2114 2119 2129 2149 2171 2180 2180 2181 2180 2180 2179 2179 2179 2192 2220 2254 2292 2296 2309 2337 2371 2373 2390 2409 2426 2434 2435 2435 2435 2426 2424 2423 2423 2426 2430 2438 2438 2438 2433 2425 2417 2416 2410 2410 2410 2411 2418 2425 2432 2434 2434 2438 2443 2445 2449 2451 2456 2456 2456 2452 2451 2451 2451 2451 2446 2418 2400 2383 2364 2362 0 0 0 0 0 0 0 0 0 0 0 0 0 0 0 0 0 0 0 2348 2352 2348 2347 2347 2334 2328 2326 2326 0 2212 2183 2183 2183 2193 2194 2194 2194 2188 2188 2188 2218 2221 2232 2234 2234 2234 2217 2216 2216 2216 2224 2224 2224 2214 2214 2214 2221 2226 2226 2226 2224 2215 2215 2214 2215 2214 0 0 0 0 0 0 0 0 0 0 0 0 0 0 0 0 0 0 0 0 0 0 0 0 0 0 0 0 0 0 0 0 0 0 0 0 0 0 0 0 0 0 0 0 0 0 0 0 0 0 0 0 0 0 0 0 0 0 0 0 0 0 0 0 0 0 0 0 0 0 0 0 0 0 0 0 2312 2312 2298 2290 2273 2246 2231 2202 2180 2166 2157 2149 2137 2125 2119 2116 2111 2103 2096 2089 2082 2074 2064 2055 2045 2040 2031 2022 2016 2012 2010 2007 2003 1997 1990 1985 1982 1978 1974 1972 1966 1961 1957 1953 1950 1946 1942 1941 1938 1935 1932 1928 1924 1920 1918 1914 1911 1909 1906 1904 1901 1899 1898 1896 1893 1891 1889 1886 1884 1882 1881 1878 1876 1874 1873 1871 1869 1867 1866 1865 1864 1863 1861 1860 1858 1857 1855 1853 1851 1850 1850 1849 1848 1847 1845 1844 1843 1842 1841 1840 1839 1838 1836 1836 1835 1834 1833 1832 1832 1831 1831 1831 1830 1830 1830 1829 1829 1827 1826 1825 1824 1823 1822 1821 1821 1819 1819 1818 1818 1816 1815 1815 1814 1813 1813 1812 1812 1812 1811 1811 1811 1811 1811 1811 1811 1811 1810 1810 1809 1808 1808 1808 1808 1808 1808 1808 1808 1808 1808 1808 1808 1808 1808 1807 1806 1805 1804 1803 1802 1801 1800 1799 1798 1797 1796 1794 1793 1792 1791 1791 1790 1789 1788 1786 1785 1785 1785 1786 1786 1786 1786 1784 1783 1783 1783 1783 1783 1782 1782 1782 1782 1783 1784 1785 1787 1788 1789 1791 1792 1793 1794 1796 1798 1798 1800 1800 1802 1803 1805 1806 1808 1809 1811 1813 1813 1813 1813 1808 1804 1800 1796 1796 1796 1797 1798 1799 1799 1799 1799 1797 1797 1791 1789 1788 1788 1788 1791 1791 1792 1796 1802 1802 1802 1800 1792 1792 1790 1778 1772 1762 1749 1730 1730 1720 0 0 0 0 0 0
1682 1684 1684 1685 1690 1692 1692 1692 1685 1680 1679 1679 1679 1679 1679 1677 1677 1677 1682 1684 1687 1692 1692 1692 1682 1673 1666 1661 1661 1661 1661 1665 1665 1665 1661 1658 1657 1656 1656 1655 1653 1651 1650 1650 1648 1645 1645 1645 1645 1647 1649 1649 1649 1645 1645 1645 1645 1649 1649 1649 1647 1640 1638 1638 1638 1638 1638 1637 1637 1637 1637 1639 1639 1639 1638 1636 1633 1629 1627 1625 1622 1622 1621 1619 1618 1617 1616 1616 1616 1616 1617 1619 1620 1621 1623 1624 1632 1642 1644 1646 1657 1669 1670 1683 1697 1704 1708 1746 1758 1760 0 0 0 0 0 0 0 0 0 0 0 0 0 0 0 0 0 0 0 0 0 0 0 0 0 0 0 0 0 0 0 0 0 2108 2112 2114 2122 2128 2128 2128 2126 2117 2114 2114 2114 2119 2128 2148 2171 2180 2180 2180 2180 2180 2177 2177 2177 2180 2186 2204 2240 2264 2286 2287 2290 2326 2354 2378 2403 2415 2421 2421 2422 2422 2421 2419 2413 2408 2408 2408 2415 2418 2418 2418 2417 2414 2410 2406 2406 2406 2415 2424 2432 2432 2434 2438 2443 2443 2443 2446 2448 2451 2451 2451 2445 2445 2444 2441 2432 2418 2404 2394 2394 2389 2389 2387 0 0 0 0 0 0 0 0 0 0 0 0 0 0 0 0 0 2343 2343 2343 2349 2352 2352 2352 2347 2326 0 0 0 0 0 0 0 0 2183 2183 2183 2193 2213 2219 2221 2227 2227 2227 2216 2208 2208 2208 2205 2205 2204 2204 2204 2211 2217 2223 2224 2224 2224 2215 2215 2215 2225 2225 0 0 0 0 0 0 0 0 0 0 0 0 0 0 0 0 0 0 0 0 0 0 0 0 0 0 0 0 0 0 0 0 0 0 0 0 0 0 0 0 0 0 0 0 0 0 0 0 0 0 0 0 0 0 0 0 0 0 0 0 0 0 0 0 0 0 0 0 0 0 0 0 0 0 0 2343 2343 2298 2294 2290 2273 2244 2222 2195 2177 2165 2155 2148 2137 2125 2119 2116 2111 2103 2093 2085 2079 2072 2061 2052 2043 2036 2028 2022 2016 2011 2008 2004 2000 1997 1988 1984 1980 1977 1974 1969 1965 1961 1957 1953 1950 1946 1942 1939 1936 1934 1931 1927 1924 1921 1918 1914 1911 1909 1906 1904 1901 1900 1898 1896 1893 1891 1888 1886 1884 1882 1880 1877 1876 1874 1872 1870 1869 1867 1866 1865 1864 1863 1861 1860 1858 1856 1855 1853 1851 1850 1850 1849 1848 1847 1845 1843 1842 1841 1840 1840 1839 1838 1836 1836 1835 1834 1834 1832 1832 1831 1831 1830 1830 1830 1830 1829 1828 1827 1826 1825 1824 1823 1822 1821 1821 1819 1819 1818 1818 1816 1815 1815 1814 1813 1813 1812 1812 1811 1811 1811 1811 1811 1811 1810 1810 1810 1810 1810 1809 1807 1807 1807 1807 1807 1807 1807 1807 1807 1808 1808 1808 1808 1808 1807 1806 1805 1804 1803 1802 1801 1801 1799 1799 1798 1796 1795 1793 1792 1791 1791 1791 1789 1788 1787 1786 1786 1786 1786 1786 1786 1786 1784 1783 1783 1783 1783 1783 1782 1782 1782 1782 1784 1785 1785 1787 1788 1789 1791 1792 1793 1794 1796 1799 1800 1801 1801 1802 1803 1805 1806 1808 1809 1810 1813 1813 1813 1812 1808 1804 1800 1796 1796 1796 1797 1798 1800 1800 1800 1799 1797 1793 1791 1784 1779 1779 1779 1786 1791 1791 1796 1802 1802 1802 1800 1792 1775 1774 1766 1759 1759 1738 1731 1731 1727 0 0 0 0 0 0
1670 1677 1683 1684 1685 1685 1684 1682 1675 1671 1671 1671 1671 1671 1671 1670 1670 1670 1676 1678 1681 1684 1684 1684 1674 1666 1658 1652 1652 1652 1655 1655 1655 1654 1654 1652 1652 1652 1652 1652 1651 1647 1646 1646 1644 1642 1642 1642 1644 1644 1644 1644 1644 1641 1639 1639 1639 1641 1641 1641 1640 1635 1634 1634 1634 1634 1634 1631 1629 1629 1629 1633 1633 1633 1630 1629 1627 1625 1624 1622 1619 1617 1617 1616 1616 1615 1614 1614 1614 1614 1615 1616 1617 1618 1618 1620 1622 1639 1640 1644 1653 1661 1669 1681 1693 1695 1700 1700 1732 1760 1760 0 0 0 0 0 0 0 0 0 0 0 0 0 0 0 0 0 0 0 0 0 0 0 0 0 0 0 0 0 0 0 2084 2101 2106 2112 2117 2117 2117 2116 2115 2109 2109 2109 2114 2117 2126 2144 2163 2180 2180 2180 2180 2180 2176 2176 2176 2180 2185 2198 2223 2230 2254 2257 2280 2316 2320 2341 2369 2383 2397 2402 2415 2415 2415 2413 2405 2402 2402 2402 2406 2417 2417 2417 2415 2413 2410 2406 2406 2406 2413 2419 2423 2428 2433 2438 2438 2438 2435 2428 2428 2428 2436 2441 2441 2441 2440 2428 2417 2408 2408 2406 2404 2408 2409 2415 2415 0 0 0 0 0 0 0 0 0 0 0 0 0 0 0 0 0 2335 2341 2342 2352 2352 2352 2347 2321 0 0 0 0 0 0 0 0 0 2179 2179 2193 2198 2198 2202 2202 2202 2206 2206 2206 2205 2205 2196 2195 2195 2195 2203 2209 2216 2218 2218 2218 2218 2214 2214 2214 2225 2225 0 0 0 0 0 0 0 0 0 0 0 0 0 0 0 0 0 0 0 0 0 0 0 0 0 0 0 0 0 0 0 0 0 0 0 0 0 0 0 0 0 0 0 0 0 0 0 0 0 0 0 0 0 0 0 0 0 0 0 0 0 0 0 0 0 0 0 0 0 0 0 0 0 0 0 2357 2313 2294 2291 2288 2270 2242 2214 2184 2167 2158 2155 2147 2136 2125 2119 2116 2111 2099 2090 2082 2076 2069 2061 2052 2043 2036 2028 2021 2014 2011 2007 2002 1998 1995 1988 1983 1979 1977 1973 1969 1964 1960 1957 1953 1950 1945 1941 1938 1935 1933 1930 1927 1924 1921 1918 1914 1912 1909 1906 1904 1902 1900 1898 1895 1893 1891 1888 1885 1883 1882 1880 1877 1874 1872 1871 1870 1869 1867 1866 1865 1864 1863 1861 1859 1858 1856 1854 1852 1851 1850 1849 1848 1847 1845 1843 1842 1841 1841 1840 1840 1838 1838 1836 1836 1835 1835 1834 1833 1832 1831 1831 1830 1830 1830 1829 1829 1827 1826 1825 1824 1824 1823 1822 1821 1821 1819 1818 1818 1818 1816 1815 1814 1814 1813 1812 1812 1812 1811 1811 1811 1811 1810 1810 1810 1810 1809 1809 1808 1807 1807 1806 1806 1806 1806 1806 1806 1806 1806 1806 1807 1807 1807 1806 1806 1806 1805 1804 1804 1803 1802 1801 1801 1800 1798 1798 1796 1796 1794 1792 1791 1791 1789 1788 1787 1787 1787 1787 1786 1786 1786 1786 1784 1784 1784 1783 1783 1783 1782 1782 1782 1783 1784 1785 1786 1787 1788 1790 1791 1793 1794 1795 1797 1799 1800 1801 1801 1802 1802 1804 1805 1807 1808 1810 1812 1812 1812 1811 1808 1803 1797 1796 1796 1796 1798 1799 1799 1799 1799 1795 1793 1791 1788 1783 1776 1776 1776 1779 1782 1784 1792 1802 1802 1802 1789 1772 1772 1754 1747 1742 1742 1742 1745 1746 0 0 0 0 0 0 0
1669 1676 1679 1679 1679 1676 1675 1672 1664 1664 1664 1664 1665 1665 1665 1666 1666 1666 1668 1669 1673 1674 1674 1674 1668 1662 1655 1651 1649 1649 1649 1649 1649 1643 1641 1641 1641 1642 1642 1643 1643 1642 1641 1641 1641 1641 1641 1641 1641 1641 1640 1640 1638 1635 1635 1635 1636 1636 1636 1636 1633 1631 1631 1631 1627 1626 1626 1624 1624 1624 1624 1625 1625 1625 1622 1620 1620 1619 1619 1618 1616 1614 1613 1613 1612 1612 1611 1611 1611 1611 1612 1613 1613 1613 1614 1615 1615 1619 1632 1640 1648 1651 1658 1671 1685 1685 1687 1690 1707 1740 1740 1740 0 0 0 0 0 0 0 0 0 0 0 0 0 0 0 0 0 0 0 0 0 0 0 0 0 0 0 0 0 0 2072 2091 2098 2112 2112 2112 2114 2110 2110 2109 2109 2109 2114 2117 2117 2121 2121 2130 2144 2157 2159 2168 2171 2172 2176 2180 2184 2192 2199 2205 2220 2240 2243 2272 2309 2324 2335 2343 2365 2383 2404 2407 2407 2407 2404 2402 2402 2402 2403 2410 2411 2412 2412 2412 2409 2405 2405 2405 2405 2407 2412 2422 2427 2427 2427 2419 2416 2409 2409 2409 2417 2426 2434 2434 2434 2425 2406 2406 2406 2408 2410 2415 2415 2416 2415 2415 0 0 0 0 0 0 0 0 0 0 0 0 0 0 0 0 2276 2308 2339 2352 2352 2352 2347 2328 0 0 0 0 0 0 0 0 0 0 0 0 0 0 2191 2188 2188 2191 2206 2206 2206 2205 2196 2191 2191 2191 2198 2209 2213 2213 2213 2213 2211 2210 2210 2210 2225 2225 0 0 0 0 0 0 0 0 0 0 0 0 0 0 0 0 0 0 0 0 0 0 0 0 0 0 0 0 0 0 0 0 0 0 0 0 0 0 0 0 0 0 0 0 0 0 0 0 0 0 0 0 0 0 0 0 0 0 0 0 0 0 0 0 0 0 0 0 0 0 0 0 0 0 2357 2357 2313 2294 2291 2280 2258 2234 2214 2184 2158 2149 2147 2146 2136 2125 2119 2114 2107 2097 2086 2079 2073 2065 2059 2051 2043 2035 2027 2021 2014 2011 2007 2002 1998 1994 1988 1982 1978 1976 1972 1968 1963 1959 1957 1953 1950 1945 1941 1938 1935 1932 1929 1926 1924 1921 1918 1914 1912 1911 1908 1904 1902 1900 1898 1895 1893 1891 1887 1885 1882 1881 1879 1876 1874 1871 1868 1868 1867 1866 1865 1864 1862 1861 1859 1857 1857 1855 1854 1852 1850 1849 1848 1847 1846 1844 1843 1841 1841 1840 1840 1840 1838 1837 1837 1836 1835 1835 1834 1833 1832 1831 1831 1830 1830 1829 1829 1828 1827 1826 1825 1824 1824 1823 1822 1821 1820 1819 1818 1818 1818 1817 1815 1815 1814 1813 1812 1812 1812 1811 1811 1810 1810 1810 1809 1809 1809 1808 1808 1808 1807 1805 1805 1805 1806 1806 1806 1806 1806 1806 1806 1806 1806 1806 1806 1805 1805 1805 1804 1804 1804 1804 1804 1803 1803 1800 1799 1797 1796 1795 1794 1792 1791 1789 1788 1788 1787 1786 1786 1786 1786 1786 1785 1785 1784 1784 1784 1784 1783 1783 1783 1784 1784 1785 1785 1786 1788 1788 1790 1792 1795 1796 1797 1798 1799 1800 1801 1801 1801 1802 1803 1804 1805 1807 1810 1810 1810 1810 1810 1807 1801 1797 1796 1796 1796 1798 1799 1799 1799 1795 1791 1788 1786 1784 1781 1776 1776 1776 1774 1774 1778 1780 1780 1786 1786 1786 1769 1748 1734 1729 1729 1729 1738 1757 1757 0 0 0 0 0 0 0
1669 1671 1671 1671 1668 1664 1664 1663 1658 1658 1658 1658 1659 1660 1660 1660 1658 1658 1658 1662 1662 1662 1662 1660 1658 1656 1652 1648 1645 1643 1640 1640 1639 1638 1633 1630 1630 1630 1632 1634 1634 1635 1636 1636 1636 1636 1636 1635 1635 1635 1635 1635 1633 1631 1631 1631 1631 1631 1631 1628 1628 1625 1625 1625 1625 1625 1621 1617 1617 1617 1619 1619 1619 1619 1616 1613 1613 1613 1613 1613 1613 1611 1610 1610 1610 1608 1608 1608 1608 1608 1609 1609 1609 1610 1610 1611 1612 1613 1615 1623 1634 1640 1650 1667 1670 1676 1677 1680 1694 1722 1772 1772 0 0 0 0 0 0 0 0 0 0 0 0 0 0 0 0 0 0 0 0 0 0 0 0 0 0 0 0 0 2028 2057 2088 2095 2100 2104 2105 2109 2110 2110 2110 2111 2111 2111 2110 2109 2107 2107 2107 2123 2136 2141 2156 2168 2171 2176 2180 2181 2184 2184 2185 2189 2198 2211 2214 2229 2280 2317 2336 2337 2368 2392 2406 2406 2406 2403 2396 2396 2396 2399 2401 2402 2402 2402 2403 2403 2403 2401 2399 2399 2399 2404 2412 2412 2412 2408 2396 2391 2391 2391 2399 2404 2414 2419 2419 2419 2416 2395 2395 2395 2408 2410 2415 2415 2416 2415 2415 2410 2396 0 0 0 0 0 0 0 0 0 0 0 0 0 0 2264 2278 2320 2344 2346 2346 2346 2331 0 0 0 0 0 0 0 0 0 0 0 0 0 0 2155 2172 2179 2187 2204 2216 2216 2216 2196 2190 2190 2190 2198 2206 2213 2213 2213 2211 2197 2197 2197 2199 2212 2212 0 0 0 0 0 0 0 0 0 0 0 0 0 0 0 0 0 0 0 0 0 0 0 0 0 0 0 0 0 0 0 0 0 0 0 0 0 0 0 0 0 0 0 0 0 0 0 0 0 0 0 0 0 0 0 0 0 0 0 0 0 0 0 0 0 0 0 0 0 0 0 0 0 0 2381 2366 2313 2310 2295 2280 2258 2234 2214 2184 2158 2147 2144 2140 2133 2121 2114 2111 2103 2096 2085 2078 2071 2064 2057 2049 2041 2034 2027 2021 2014 2010 2006 2002 1998 1993 1988 1982 1977 1973 1969 1965 1960 1958 1956 1953 1949 1944 1940 1936 1934 1930 1927 1925 1924 1921 1918 1914 1912 1911 1909 1905 1903 1900 1898 1895 1893 1891 1887 1884 1881 1880 1879 1876 1873 1870 1868 1866 1865 1865 1863 1863 1861 1859 1857 1857 1856 1855 1854 1852 1849 1848 1847 1846 1844 1843 1842 1841 1841 1840 1840 1839 1838 1837 1837 1836 1836 1835 1834 1833 1832 1832 1831 1829 1828 1827 1827 1826 1826 1825 1824 1823 1823 1823 1822 1821 1821 1820 1819 1818 1818 1817 1815 1815 1814 1813 1812 1812 1812 1811 1811 1810 1809 1809 1808 1808 1808 1807 1806 1806 1805 1805 1805 1805 1804 1804 1804 1804 1805 1805 1805 1805 1805 1805 1805 1805 1805 1805 1804 1804 1804 1804 1804 1804 1803 1801 1799 1798 1796 1795 1794 1793 1791 1789 1788 1788 1787 1786 1786 1786 1785 1785 1785 1785 1785 1784 1784 1784 1784 1784 1784 1784 1784 1786 1786 1788 1788 1788 1790 1792 1795 1797 1797 1798 1799 1800 1801 1801 1801 1802 1803 1804 1805 1806 1807 1807 1807 1806 1804 1800 1799 1795 1792 1792 1792 1798 1799 1799 1799 1794 1786 1786 1784 1783 1781 1776 1776 1776 1773 1773 1766 1766 1766 1779 1779 1779 1767 1748 1734 1729 1729 1729 1743 1768 1768 0 0 0 0 0 0 0
1667 1671 1671 1671 1664 1658 1658 1658 1657 1656 1655 1655 1655 1655 1654 1654 1652 1652 1652 1655 1655 1655 1651 1650 1650 1650 1646 1639 1633 1628 1628 1628 1629 1629 1629 1626 1626 1626 1627 1632 1632 1632 1631 1629 1629 1629 1630 1630 1630 1630 1630 1629 1627 1627 1627 1628 1628 1628 1626 1625 1624 1624 1624 1623 1623 1622 1616 1612 1612 1612 1612 1613 1613 1613 1613 1610 1610 1610 1610 1610 1610 1610 1609 1609 1609 1608 1605 1605 1605 1606 1606 1606 1606 1606 1606 1606 1607 1607 1611 1617 1619 1633 1634 1643 1664 1666 1668 1673 1687 1702 1740 1782 0 0 0 0 0 0 0 0 0 0 0 0 0 0 0 0 0 0 0 0 0 0 0 0 0 0 0 0 0 2032 2057 2082 2086 2088 2092 2097 2109 2109 2109 2109 2109 2107 2105 2101 2089 2086 2086 2086 2102 2117 2131 2143 2163 2166 2168 2172 2172 2172 2168 2168 2168 2168 2177 2180 2194 2220 0 2295 2332 2363 2387 2400 2401 2401 2401 2396 2395 2395 2394 2394 2394 2394 2396 2398 2401 2401 2401 2396 2396 2396 2399 2400 2400 2400 2390 2385 2385 2385 2391 2397 2400 2404 2404 2404 2401 2397 2395 2395 2395 2402 2410 2410 2410 2409 2409 2403 2403 2396 2372 0 0 0 0 0 0 0 0 0 0 0 0 0 2228 2238 2286 2323 2346 2346 2346 2345 0 0 0 0 0 0 0 0 0 0 0 0 0 0 2153 2155 2176 2184 2204 2221 2221 2221 2201 2190 2190 2190 2198 2201 2202 2207 2207 2207 2187 2187 2187 2189 2194 2194 0 0 0 0 0 0 0 0 0 0 0 0 0 0 0 0 0 0 0 0 0 0 0 0 0 0 0 0 0 0 0 0 0 0 0 0 0 0 0 0 0 0 0 0 0 0 0 0 0 0 0 0 0 0 0 0 0 0 0 0 0 0 0 0 0 0 0 0 0 0 0 0 0 2381 2381 2366 2313 2310 2308 2280 2258 2233 2214 2189 2158 2147 2143 2135 2127 2117 2105 2102 2100 2092 2082 2075 2067 2060 2053 2046 2040 2033 2026 2021 2014 2010 2006 2002 1998 1993 1988 1982 1977 1973 1968 1963 1959 1955 1952 1948 1944 1941 1938 1935 1931 1928 1925 1924 1922 1921 1917 1915 1913 1911 1909 1906 1903 1901 1898 1895 1893 1891 1887 1883 1880 1878 1876 1874 1871 1870 1868 1866 1865 1864 1862 1861 1860 1858 1857 1856 1855 1854 1853 1851 1848 1846 1845 1844 1844 1842 1840 1840 1840 1840 1839 1839 1838 1837 1837 1836 1836 1835 1834 1833 1832 1831 1831 1829 1828 1827 1826 1826 1825 1825 1824 1823 1823 1823 1822 1821 1821 1820 1818 1818 1818 1817 1815 1815 1814 1813 1812 1812 1811 1811 1811 1810 1809 1809 1808 1808 1806 1805 1804 1803 1803 1803 1803 1803 1803 1803 1803 1803 1803 1804 1804 1804 1804 1804 1804 1804 1804 1804 1804 1804 1804 1804 1804 1804 1803 1801 1800 1798 1796 1795 1794 1793 1791 1789 1788 1787 1786 1786 1786 1786 1785 1785 1785 1785 1785 1785 1785 1785 1785 1785 1785 1785 1786 1787 1787 1788 1788 1788 1790 1792 1795 1797 1797 1798 1799 1799 1800 1800 1801 1802 1803 1804 1805 1805 1805 1804 1803 1803 1802 1800 1799 1793 1789 1789 1789 1791 1797 1797 1797 1792 1786 1786 1784 1783 1781 1776 1772 1772 1769 1768 1760 1760 1760 1769 1769 1769 1763 1748 1734 1729 1729 1729 1744 1768 1768 0 0 0 0 0 0 0
1669 1668 1668 1668 1662 1653 1653 1653 1654 1655 1655 1654 1653 1648 1647 1647 1645 1645 1645 1652 1652 1652 1649 1646 1646 1642 1634 1625 1621 1620 1620 1620 1622 1622 1622 1622 1622 1623 1627 1632 1632 1632 1629 1626 1625 1625 1625 1625 1625 1625 1624 1624 1621 1621 1621 1621 1621 1619 1619 1619 1622 1622 1622 1622 1622 1618 1612 1607 1605 1605 1605 1605 1608 1608 1608 1608 1605 1605 1605 1605 1606 1606 1606 1606 1606 1606 1602 1602 1602 1603 1603 1603 1603 1603 1603 1602 1602 1602 1602 1605 1615 1629 1631 1633 1643 1652 1660 1669 1678 1691 1715 1765 0 0 0 0 0 0 0 0 0 0 0 0 0 0 0 0 0 0 0 0 0 0 0 0 0 0 0 0 0 2032 2057 2082 2086 2088 2088 2092 2103 2105 2107 2109 2109 2107 2105 2098 2082 2074 2074 2074 2086 2102 2118 2130 2146 2151 2152 2152 2151 2148 2142 2142 2142 2150 2165 2179 2183 2190 2212 0 2309 2345 2372 2394 2400 2400 2400 2396 2392 2392 2390 2390 2390 2390 2390 2394 2395 2395 2395 2393 2393 2393 2393 2393 2393 2391 2385 2385 2385 2385 2391 2396 2397 2398 2398 2400 2400 2397 2395 2395 2395 2402 2402 2402 2402 2402 2398 2397 2397 2396 2378 2362 2329 0 0 0 0 0 0 0 0 0 0 0 2228 2231 2252 2312 2343 2346 2346 2346 0 0 0 0 0 0 0 0 0 0 0 0 0 0 2153 2155 2172 2187 2202 2228 2228 2228 2206 2185 2185 2185 2186 2187 2197 2200 2200 2200 2187 2187 2187 2189 2194 2200 0 0 0 0 0 0 0 0 0 0 0 0 0 0 0 0 0 0 0 0 0 0 0 0 0 0 0 0 0 0 0 0 0 0 0 0 0 0 0 0 0 0 0 0 0 0 0 0 0 0 0 0 0 0 0 0 0 0 0 0 0 0 0 0 0 0 0 0 0 0 0 0 0 2381 2381 2366 2316 2313 2310 2284 2255 2233 2214 2189 2163 2147 2138 2134 2124 2114 2103 2100 2095 2089 2080 2072 2065 2057 2050 2044 2038 2033 2026 2021 2014 2010 2006 2002 1997 1992 1987 1982 1977 1972 1967 1963 1959 1954 1951 1947 1942 1939 1935 1932 1929 1926 1924 1922 1921 1920 1917 1915 1913 1911 1909 1906 1903 1901 1898 1895 1894 1891 1886 1882 1878 1875 1874 1872 1871 1870 1868 1866 1865 1864 1862 1861 1859 1858 1856 1856 1854 1853 1852 1850 1847 1845 1844 1844 1843 1841 1840 1839 1839 1839 1839 1838 1838 1837 1837 1836 1836 1835 1834 1833 1832 1831 1830 1829 1828 1827 1826 1825 1825 1824 1824 1823 1823 1822 1822 1821 1821 1819 1818 1818 1818 1817 1815 1815 1814 1813 1813 1812 1811 1810 1810 1810 1809 1809 1808 1808 1806 1805 1804 1803 1803 1803 1803 1803 1802 1802 1802 1802 1803 1803 1803 1803 1803 1803 1803 1804 1804 1804 1804 1804 1804 1804 1804 1804 1802 1801 1800 1798 1796 1795 1794 1793 1790 1789 1788 1787 1786 1786 1786 1786 1785 1785 1785 1785 1785 1786 1787 1787 1787 1787 1787 1787 1787 1788 1788 1788 1788 1788 1789 1791 1794 1797 1797 1798 1799 1799 1800 1800 1801 1802 1804 1804 1805 1805 1805 1804 1802 1801 1800 1800 1799 1793 1789 1787 1787 1787 1789 1789 1789 1787 1785 1783 1782 1782 1780 1776 1770 1770 1765 1764 1760 1757 1757 1757 1761 1761 1761 1752 1750 1744 1744 1744 1744 1745 1745 0 0 0 0 0 0 0
1666 1665 1665 1665 1654 1646 1646 1646 1649 1654 1654 1654 1653 1648 1645 1641 1641 1641 1641 1645 1645 1645 1645 1643 1641 1637 1630 1624 1621 1619 1619 1619 1619 1620 1620 1622 1622 1623 1627 1628 1628 1628 1627 1623 1622 1621 1620 1619 1619 1618 1617 1617 1613 1613 1613 1613 1613 1612 1612 1612 1617 1618 1619 1619 1619 1613 1607 1602 1600 1599 1599 1599 1602 1602 1602 1602 1598 1598 1598 1598 1599 1602 1603 1603 1603 1602 1601 1600 1600 1600 1600 1599 1599 1599 1599 1599 1598 1598 1599 1601 1606 1618 1628 1631 1634 1649 1652 1657 1667 1677 1683 1725 0 0 0 0 0 0 0 0 0 0 0 0 0 0 0 0 0 0 0 0 0 0 0 0 0 0 0 0 0 2038 2080 2082 2082 2084 2084 2090 2098 2098 2099 2101 2101 2101 2098 2093 2082 2071 2071 2071 2078 2088 2100 2107 2114 2118 2119 2119 2119 2112 2112 2112 2115 2139 2162 2176 2181 2183 2189 2215 0 2320 2360 2385 2395 2395 2395 2382 2382 2382 2383 2383 2384 2384 2386 2390 2390 2390 2390 2389 2389 2389 2390 2390 2390 2389 2383 2383 2383 2385 2393 2396 2398 2398 2398 2400 2400 2399 2399 2401 2401 2401 2401 2401 2401 2401 2398 2397 2397 2396 2390 2362 2338 2331 0 0 0 0 0 0 0 0 0 0 0 2252 2252 2312 2343 2366 2366 2366 0 0 0 0 0 0 0 0 0 0 0 0 0 0 2166 2172 2191 2202 2226 2230 2230 2230 2210 2185 2183 2183 2183 2187 2192 2193 2193 2193 2192 2189 2189 2192 2194 2200 2200 0 0 0 0 0 0 0 0 0 0 0 0 0 0 0 0 0 0 0 0 0 0 0 0 0 0 0 0 0 0 0 0 0 0 0 0 0 0 0 0 0 0 0 0 0 0 0 0 0 0 0 0 0 0 0 0 0 0 0 0 0 0 0 0 0 0 0 0 0 0 0 0 2373 2373 2366 2316 2307 2306 2286 2258 2233 2214 2189 2165 2149 2138 2133 2116 2107 2098 2095 2093 2086 2079 2072 2062 2055 2050 2042 2038 2032 2026 2020 2014 2009 2005 2001 1996 1991 1987 1982 1977 1971 1967 1962 1956 1954 1951 1946 1942 1939 1935 1930 1926 1925 1923 1921 1919 1919 1917 1915 1913 1911 1909 1906 1904 1901 1898 1896 1894 1891 1886 1882 1878 1875 1873 1871 1871 1870 1869 1866 1864 1863 1861 1859 1859 1858 1856 1855 1854 1853 1852 1849 1846 1844 1843 1842 1842 1841 1840 1839 1839 1838 1838 1838 1837 1837 1837 1836 1835 1835 1834 1833 1832 1831 1830 1829 1828 1826 1825 1825 1825 1824 1824 1823 1823 1822 1822 1821 1820 1819 1818 1817 1817 1817 1815 1815 1814 1814 1813 1812 1811 1811 1811 1810 1809 1809 1809 1808 1806 1805 1804 1803 1803 1803 1803 1802 1802 1802 1802 1802 1803 1803 1803 1803 1803 1803 1803 1803 1803 1803 1803 1803 1803 1802 1802 1802 1801 1800 1799 1798 1796 1795 1793 1791 1790 1789 1787 1786 1785 1785 1785 1785 1785 1785 1785 1785 1785 1787 1789 1789 1789 1788 1788 1788 1788 1788 1788 1788 1788 1788 1789 1790 1794 1797 1797 1798 1799 1800 1800 1800 1800 1802 1804 1804 1804 1804 1804 1804 1799 1799 1799 1798 1798 1793 1789 1787 1787 1786 1783 1781 1781 1781 1782 1782 1782 1782 1780 1775 1769 1765 1764 1763 1760 1757 1757 1757 1758 1758 1758 1752 1750 1744 1744 1744 1744 1744 1744 0 0 0 0 0 0 0
1661 1661 1661 1659 1654 1645 1641 1641 1641 1649 1653 1653 1653 1648 1645 1641 1638 1636 1636 1636 1639 1639 1639 1639 1637 1635 1628 1621 1619 1619 1619 1619 1619 1620 1620 1621 1622 1623 1626 1626 1626 1625 1623 1620 1619 1616 1616 1613 1613 1612 1612 1609 1607 1606 1606 1606 1605 1605 1605 1606 1609 1615 1615 1615 1614 1608 1602 1599 1594 1594 1594 1594 1595 1595 1595 1594 1590 1590 1590 1590 1591 1595 1597 1597 1597 1597 1597 1597 1598 1598 1598 1597 1596 1595 1595 1595 1595 1595 1596 1599 1603 1608 1616 1617 1629 1631 1638 1647 1653 1665 1669 1702 0 0 0 1823 1823 1823 1823 1825 1826 1836 1838 1840 1838 1838 1840 0 0 0 0 0 0 0 0 0 0 0 0 0 0 2032 2080 2082 2082 2083 2084 2088 2089 2090 2090 2090 2090 2090 2090 2090 2081 2071 2071 2071 2074 2079 2084 2087 2089 2091 2091 2092 2092 2092 2092 2092 2100 2135 2153 2168 2172 2183 2186 2194 2236 0 2339 2382 2382 2382 2382 2377 2375 2374 2374 2375 2375 2378 2383 2386 2386 2386 2386 2385 2385 2385 2385 2386 2386 2386 2386 2386 2386 2396 2396 2397 2398 2397 2397 2397 2397 2397 2399 2400 2400 2400 2400 2400 2400 2400 2398 2397 2397 2396 2390 2380 2365 2357 2351 0 0 0 0 0 0 0 0 0 0 0 2254 2312 2351 2391 2391 2391 0 0 0 0 0 0 0 0 0 0 0 0 0 0 0 2167 2187 2202 2226 2244 2244 2244 2213 2186 2183 2183 2183 2187 2188 2189 2195 2196 2205 2205 2206 2210 2206 2205 2205 0 0 0 0 0 0 0 0 0 0 0 0 0 0 0 0 0 0 0 0 0 0 0 0 0 0 0 0 0 0 0 0 0 0 0 0 0 0 0 0 0 0 0 0 0 0 0 0 0 0 0 0 0 0 0 0 0 0 0 0 0 0 0 0 0 0 0 0 0 0 0 0 2362 2362 2362 2316 2303 2303 2286 2258 2229 2205 2186 2165 2151 2138 2133 2116 2107 2098 2095 2089 2086 2078 2071 2061 2053 2046 2040 2035 2031 2024 2018 2013 2008 2004 1999 1994 1990 1986 1981 1975 1969 1964 1960 1956 1951 1947 1942 1939 1937 1934 1930 1926 1924 1922 1921 1919 1917 1916 1915 1913 1911 1909 1906 1904 1901 1898 1896 1894 1892 1887 1882 1878 1875 1873 1871 1871 1870 1869 1866 1864 1863 1861 1859 1859 1858 1856 1855 1852 1852 1851 1848 1846 1844 1843 1842 1841 1840 1840 1839 1839 1838 1837 1837 1837 1837 1837 1836 1835 1835 1834 1833 1832 1831 1830 1829 1828 1826 1825 1825 1824 1824 1823 1822 1822 1821 1821 1821 1820 1819 1818 1817 1817 1816 1815 1815 1815 1814 1813 1812 1812 1811 1811 1810 1810 1810 1810 1810 1808 1806 1804 1804 1804 1802 1802 1801 1801 1801 1801 1802 1802 1802 1802 1802 1802 1802 1803 1803 1803 1803 1802 1802 1802 1801 1801 1801 1800 1798 1798 1796 1794 1792 1791 1789 1788 1786 1786 1785 1785 1785 1785 1785 1785 1785 1785 1785 1785 1787 1789 1789 1789 1788 1788 1788 1788 1788 1788 1788 1788 1788 1789 1790 1794 1797 1797 1799 1800 1800 1800 1800 1800 1802 1804 1804 1804 1804 1803 1801 1798 1798 1798 1798 1798 1793 1789 1788 1787 1785 1778 1778 1775 1775 1778 1779 1779 1779 1779 1774 1765 1762 1761 1761 1757 1757 1757 1757 1757 1757 1755 1752 1750 1744 1740 1739 1732 1728 1726 0 0 0 0 0 0 0
