0 0 0 0 0 0 2599 2632 2641 2659 2686 2715 2750 2769 2771 2775 2783 2801 2835 2859 2859 2859 2825 2799 2785 2781 2781 2781 2782 2803 2828 2853 2853 2853 2836 2818 2816 2795 2779 2779 2773 2770 2770 2766 2765 2758 2758 2758 2767 2791 2818 2837 2866 2882 2882 2883 2884 2886 2893 2899 2900 2903 2906 2911 2919 2934 2944 2955 2968 2975 2976 2982 2993 2995 3004 3006 3007 3007 3013 3015 3022 3031 3036 3042 3042 3048 3048 3051 3051 3050 3051 3051 3062 3067 3093 3109 3116 3117 3117 3123 3130 3130 3131 3132 3135 3142 3143 3145 3148 3157 3159 3163 3164 3166 3169 3170 3174 3177 3179 3181 3182 3189 3198 3201 3201 3201 3201 3199 3198 3189 3171 3165 3165 3165 3191 3207 3207 3211 3213 3213 3221 3228 3232 3235 3240 3247 3248 3248 3248 3243 3237 3234 3234 3231 3231 3229 3217 3209 3209 3209 3211 3212 3213 3218 3226 3236 3243 3250 3252 3255 3258 3256 3256 3256 3245 3244 3240 3237 3232 3216 3214 3214 3210 3205 3200 3199 3198 3198 3182 3165 3165 3165 3166 3175 3179 3179 3179 3171 3165 3160 3154 3150 3137 3122 3111 3111 3111 3115 3121 3122 3122 3122 3117 3116 3116 3113 3113 3113 3113 3113 3115 3115 3128 3135 3135 3135 3125 3100 3088 3073 3059 3058 3058 3058 3064 3064 3064 3064 3051 3030 3006 2992 2964 2939 2919 2909 2891 2885 2860 2809 2626 2579 2579 2579 2904 3035 3046 3046 3046 3041 3028 3010 2991 2985 2985 2982 2982 2980 2967 2948 2936 2909 2891 2882 2859 2827 2750 2638 0 0 0 0 1861 1858 1858 1852 1842 1836 1834 1832 1830 1826 1825 1821 1819 1816 1813 1809 1805 1803 1799 1797 1794 1792 1789 1785 1782 1780 1779 1777 1775 1773 1770 1769 1766 1764 1762 1760 1758 1756 1754 1751 1749 1746 1744 1742 1740 1737 1735 1735 1734 1731 1729 1728 1726 1724 1721 1720 1717 1714 1712 1710 1709 1707 1706 1705 1702 1699 1697 1695 1694 1691 1689 1687 1684 1682 1681 1680 1679 1678 1677 1676 1675 1673 1670 1668 1667 1665 1664 1661 1659 1657 1655 1653 1652 1650 1648 1647 1645 1644 1642 1641 1641 1640 1639 1638 1636 1635 1634 1633 1632 1631 1629 1628 1626 1625 1624 1624 1624 1623 1623 1622 1622 1622 1622 1621 1621 1621 1621 1620 1619 1619 1618 1618 1618 1618 1618 1619 1620 1620 1621 1621 1621 1620 1618 1616 1615 1615 1615 1614 1614 1614 1614 1615 1615 1615 1616 1616 1616 1616 1616 1615 1614 1614 1613 1612 1611 1611 1611 1610 1610 1610 1610 1609 1609 1608 1608 1608 1608 1608 1608 1608 1608 1608 1608 1608 1609 1609 1609 1610 1610 1610 1608 1608 1608 1607 1607 1607 1608 1609 1609 1609 1610 1611 1612 1612 1613 1614 1614 1614 1614 1614 1614 1615 1616 1617 1617 1617 1615 1615 1615 1615 1616 1616 1616 1616 1616 1616 1618 1618 1620 1620 1620 1620 1620 1624 1626 1627 1628 1631 1634 1636 1636 1636 1635 1635 1635 1635 1636 1637 1642 1645 1645 1645 1640 1639 1622 1620 1617 1613 0 0 0 0 0 0 0 0 0 0 0 0 0 0 0 0 0 0 0 0 0 0 0 0 0 0 0 0 0 0 0 0 0 0 0 0 0 0 0 0 0 0 0 0 0 0 0 0 0 0 0 0 0 0 0 0 0 0 0 0 0 0 0 0 0 0 0 0 0 0 0 0 0 0 0 0 0 0 0 0 0 0 0 0 0 0 0 0 0 0 0 0 0 0 0 0 0 0 0 0
0 0 0 0 0 0 0 2632 2663 2686 2704 2719 2751 2772 2772 2786 2794 2808 2835 2859 2859 2859 2841 2807 2787 2784 2784 2784 2791 2824 2854 2874 2874 2874 2874 2873 2852 2818 2788 2770 2770 2768 2765 2762 2753 2753 2753 2758 2767 2786 2821 2837 2877 2890 2890 2891 2892 2898 2904 2910 2912 2915 2916 2919 2928 2940 2944 2955 2968 2975 2976 2982 2986 2997 3005 3007 3009 3018 3031 3034 3034 3035 3037 3045 3047 3053 3053 3055 3057 3063 3068 3075 3084 3094 3108 3118 3120 3121 3123 3131 3137 3140 3143 3144 3144 3153 3156 3161 3161 3162 3166 3167 3169 3169 3176 3176 3178 3180 3182 3182 3193 3197 3198 3201 3201 3202 3202 3202 3202 3193 3176 3176 3176 3186 3203 3213 3213 3214 3216 3216 3222 3228 3232 3239 3247 3253 3258 3260 3260 3260 3256 3254 3254 3253 3253 3236 3211 3189 3189 3189 3193 3203 3212 3218 3229 3249 3259 3259 3259 3259 3259 3260 3260 3260 3253 3250 3250 3244 3239 3226 3222 3221 3220 3219 3216 3209 3204 3198 3190 3182 3178 3177 3177 3177 3179 3179 3179 3171 3162 3149 3147 3143 3135 3120 3117 3117 3117 3120 3120 3120 3120 3119 3116 3116 3116 3119 3120 3121 3121 3123 3123 3123 3131 3142 3142 3142 3126 3106 3088 3077 3077 3077 3082 3082 3082 3076 3071 3069 3058 3042 3021 2994 2970 2939 2908 2901 2887 2874 2848 2775 2588 2588 2588 2697 2997 3049 3049 3049 3044 3041 3031 3018 3004 2991 2991 2991 2990 2990 2990 2975 2952 2924 2896 2882 2857 2824 2748 2632 0 0 0 0 1861 1856 1856 1844 1839 1835 1833 1832 1830 1826 1823 1820 1816 1813 1810 1806 1803 1800 1798 1796 1792 1790 1787 1784 1781 1779 1777 1775 1773 1771 1769 1767 1765 1762 1760 1758 1756 1753 1751 1750 1747 1743 1742 1739 1738 1735 1733 1732 1730 1728 1726 1724 1721 1720 1718 1718 1714 1712 1709 1708 1706 1706 1704 1702 1700 1697 1694 1691 1690 1688 1685 1682 1680 1679 1678 1678 1676 1676 1675 1673 1671 1668 1666 1665 1663 1662 1660 1659 1657 1655 1652 1651 1649 1648 1646 1645 1643 1642 1640 1639 1639 1638 1636 1635 1633 1632 1631 1631 1631 1630 1628 1626 1624 1623 1622 1622 1622 1621 1621 1621 1621 1621 1621 1620 1620 1620 1619 1618 1617 1616 1616 1616 1616 1615 1615 1615 1615 1617 1617 1617 1617 1616 1613 1612 1612 1612 1612 1611 1611 1611 1611 1611 1612 1612 1613 1614 1614 1614 1613 1612 1611 1611 1610 1609 1609 1608 1608 1608 1608 1608 1607 1607 1607 1607 1606 1605 1605 1605 1605 1605 1605 1605 1605 1606 1606 1606 1607 1607 1607 1607 1606 1606 1605 1605 1605 1606 1606 1607 1607 1608 1609 1610 1611 1612 1612 1613 1613 1613 1613 1614 1614 1614 1615 1615 1615 1615 1615 1615 1615 1615 1615 1615 1615 1615 1614 1614 1614 1618 1619 1619 1619 1619 1620 1623 1625 1626 1627 1629 1631 1635 1635 1635 1635 1635 1635 1639 1642 1643 1645 1645 1647 1647 1647 1640 1626 1620 1620 1617 1617 1591 0 0 0 0 0 0 0 0 0 0 0 0 0 0 0 0 0 0 0 0 0 0 0 0 0 0 0 0 0 0 0 0 0 0 0 0 0 0 0 0 0 0 0 0 0 0 0 0 0 0 0 0 0 0 0 0 0 0 0 0 0 0 0 0 0 0 0 0 0 0 0 0 0 0 0 0 0 0 0 0 0 0 0 0 0 0 0 0 0 0 0 0 0 0 0 0 0 0
0 0 0 2571 2577 2582 2605 2632 2682 2703 2718 2736 2759 2773 2785 2808 2814 2821 2835 2859 2859 2859 2841 2807 2788 2785 2785 2785 2794 2832 2869 2891 2891 2891 2890 2890 2877 2831 2792 2770 2765 2762 2761 2759 2753 2753 2753 2758 2767 2786 2821 2848 2886 2894 2895 2902 2909 2923 2923 2923 2924 2924 2924 2924 2932 2941 2950 2960 2971 2975 2976 2982 2986 2997 3005 3011 3021 3040 3041 3041 3042 3042 3042 3045 3049 3054 3060 3060 3067 3079 3093 3100 3104 3107 3118 3120 3120 3121 3128 3135 3148 3150 3150 3152 3152 3153 3163 3175 3178 3178 3179 3180 3181 3181 3186 3186 3186 3186 3186 3186 3198 3201 3203 3201 3201 3203 3207 3207 3207 3201 3178 3178 3178 3202 3222 3222 3222 3216 3216 3216 3222 3229 3234 3243 3248 3256 3262 3271 3272 3272 3272 3270 3266 3255 3254 3236 3210 3189 3181 3174 3174 3174 3180 3199 3231 3256 3261 3261 3261 3261 3261 3261 3261 3261 3256 3256 3256 3256 3256 3246 3235 3235 3235 3233 3233 3233 3225 3214 3210 3200 3187 3177 3177 3177 3179 3179 3179 3164 3152 3137 3135 3134 3129 3121 3121 3121 3121 3122 3122 3121 3119 3119 3117 3117 3118 3119 3120 3124 3128 3129 3132 3136 3154 3154 3154 3142 3125 3104 3088 3077 3077 3077 3082 3082 3082 3077 3077 3077 3075 3073 3053 3020 2981 2939 2908 2886 2882 2860 2825 2712 2523 2523 2523 2838 3045 3047 3047 3047 3043 3038 3032 3023 3016 3004 2998 2998 2997 2996 2996 2992 2957 2927 2898 2879 2856 2816 2724 2552 0 0 0 1884 1861 1856 1847 1841 1837 1832 1832 1829 1828 1824 1821 1817 1814 1811 1808 1804 1800 1798 1795 1793 1791 1789 1787 1782 1780 1777 1775 1774 1771 1769 1767 1764 1762 1760 1757 1755 1753 1752 1749 1747 1744 1741 1739 1738 1735 1732 1731 1728 1726 1723 1722 1721 1718 1716 1716 1714 1713 1710 1709 1706 1705 1704 1702 1701 1697 1694 1690 1687 1687 1685 1683 1680 1677 1675 1675 1675 1674 1673 1672 1671 1669 1666 1664 1662 1660 1657 1657 1656 1654 1652 1650 1647 1647 1646 1643 1642 1641 1639 1638 1638 1637 1637 1635 1633 1632 1631 1629 1628 1627 1627 1626 1624 1623 1621 1620 1620 1620 1620 1620 1619 1619 1619 1618 1618 1618 1618 1616 1615 1615 1615 1614 1614 1614 1614 1614 1613 1613 1613 1613 1613 1613 1612 1611 1609 1607 1607 1607 1607 1608 1608 1609 1609 1609 1609 1609 1611 1611 1611 1610 1609 1609 1608 1608 1607 1607 1606 1606 1605 1605 1605 1605 1605 1604 1604 1603 1603 1603 1603 1602 1602 1602 1602 1603 1604 1604 1604 1605 1604 1604 1604 1604 1603 1603 1603 1604 1604 1605 1606 1606 1607 1607 1608 1610 1611 1612 1612 1613 1613 1613 1613 1613 1614 1615 1615 1615 1615 1614 1614 1614 1614 1614 1615 1615 1614 1614 1614 1614 1614 1614 1616 1616 1617 1618 1619 1622 1624 1626 1627 1630 1633 1634 1634 1634 1635 1635 1640 1643 1647 1648 1648 1648 1648 1647 1642 1639 1639 1630 1626 1622 1617 1576 0 0 0 0 0 0 0 0 0 0 0 0 0 0 0 0 0 0 0 0 0 0 0 0 0 0 0 0 0 0 0 0 0 0 0 0 0 0 0 0 0 0 0 0 0 0 0 0 0 0 0 0 0 0 0 0 0 0 0 0 0 0 0 0 0 0 0 0 0 0 0 0 0 0 0 0 0 0 0 0 0 0 0 0 0 0 0 0 0 0 0 0 0 0 0 0 0
2498 2498 2525 2571 2577 2582 2600 2648 2683 2723 2738 2771 2783 2795 2806 2816 2821 2823 2824 2842 2842 2842 2841 2807 2791 2787 2787 2787 2802 2842 2882 2896 2903 2910 2910 2910 2902 2833 2793 2770 2765 2762 2761 2759 2753 2753 2753 2768 2782 2786 2821 2849 2886 2902 2906 2919 2928 2944 2944 2944 2941 2935 2935 2935 2940 2943 2952 2961 2972 2979 2982 2986 2986 2997 3005 3017 3032 3045 3045 3045 3047 3047 3048 3050 3056 3063 3064 3069 3080 3097 3104 3107 3108 3108 3118 3121 3122 3124 3133 3139 3150 3152 3152 3152 3152 3152 3163 3175 3181 3191 3192 3196 3196 3200 3200 3200 3191 3191 3191 3192 3201 3201 3204 3202 3202 3205 3209 3210 3210 3210 3185 3185 3185 3215 3231 3231 3231 3216 3216 3216 3222 3229 3235 3243 3249 3260 3266 3275 3275 3275 3275 3270 3266 3255 3254 3236 3210 3189 3181 3174 3174 3174 3180 3199 3238 3258 3266 3266 3266 3266 3266 3262 3262 3262 3259 3259 3259 3260 3260 3260 3256 3256 3256 3262 3262 3262 3249 3229 3221 3208 3192 3177 3177 3177 3178 3178 3178 3164 3152 3137 3129 3120 3120 3120 3120 3128 3128 3128 3124 3122 3119 3119 3118 3118 3118 3119 3120 3124 3132 3132 3137 3146 3154 3154 3154 3142 3120 3100 3088 3077 3077 3077 3082 3082 3082 3081 3081 3079 3077 3077 3070 3051 3005 2961 2908 2881 2861 2836 2790 2631 2587 2587 2587 2883 3045 3047 3047 3047 3044 3038 3034 3028 3025 3018 3005 3005 2998 2998 2996 2992 2957 2927 2898 2879 2854 2797 2651 0 0 0 0 1877 1861 1849 1841 1836 1833 1830 1829 1828 1826 1823 1819 1815 1812 1809 1806 1802 1797 1794 1792 1790 1789 1787 1784 1782 1779 1775 1774 1772 1770 1767 1764 1761 1759 1757 1755 1753 1751 1750 1748 1745 1743 1740 1737 1736 1734 1730 1727 1725 1722 1719 1718 1717 1715 1713 1712 1711 1709 1708 1707 1705 1703 1701 1700 1698 1695 1691 1688 1684 1682 1681 1678 1676 1674 1673 1673 1673 1671 1670 1668 1666 1665 1663 1662 1659 1657 1655 1654 1654 1652 1650 1647 1645 1643 1642 1641 1639 1638 1637 1637 1637 1637 1635 1634 1632 1629 1629 1627 1627 1626 1625 1624 1622 1621 1619 1619 1618 1617 1617 1617 1617 1617 1617 1617 1617 1616 1616 1614 1614 1613 1613 1613 1613 1613 1612 1612 1611 1611 1610 1610 1610 1609 1609 1607 1605 1604 1604 1604 1604 1606 1606 1606 1606 1606 1606 1606 1606 1607 1607 1607 1606 1606 1605 1605 1604 1604 1603 1603 1603 1603 1603 1603 1602 1602 1602 1602 1602 1601 1600 1600 1600 1600 1600 1601 1601 1602 1602 1602 1602 1602 1602 1602 1602 1602 1602 1602 1603 1603 1604 1605 1605 1606 1608 1608 1610 1611 1611 1612 1612 1612 1613 1613 1614 1614 1615 1615 1615 1614 1613 1613 1613 1614 1614 1614 1614 1614 1614 1614 1614 1614 1615 1616 1616 1618 1619 1621 1623 1625 1626 1628 1631 1633 1634 1634 1634 1636 1640 1643 1647 1648 1650 1650 1650 1650 1648 1648 1648 1648 1648 1628 1617 1606 1587 1576 0 0 0 0 0 0 0 0 0 0 0 0 0 0 0 0 0 0 0 0 0 0 0 0 0 0 0 0 0 0 0 0 0 0 0 0 0 0 0 0 0 0 0 0 0 0 0 0 0 0 0 0 0 0 0 0 0 0 0 0 0 0 0 0 0 0 0 0 0 0 0 0 0 0 0 0 0 0 0 0 0 0 0 0 0 0 0 0 0 0 0 0 0 0 0
2498 2498 2525 2571 2577 2582 2605 2648 2687 2727 2758 2793 2817 2820 2820 2821 2820 2821 2821 2821 2821 2821 2821 2807 2792 2792 2792 2792 2820 2857 2888 2900 2910 2917 2923 2923 2923 2849 2824 2796 2769 2762 2762 2762 2765 2771 2800 2825 2826 2831 2833 2853 2886 2902 2922 2939 2950 2950 2950 2947 2943 2941 2941 2941 2954 2956 2969 2975 2987 2989 2990 3001 3002 3007 3014 3027 3041 3052 3053 3054 3056 3056 3059 3059 3060 3065 3072 3080 3095 3110 3110 3110 3111 3111 3118 3120 3122 3125 3135 3142 3150 3153 3153 3153 3155 3155 3163 3175 3181 3191 3197 3205 3211 3216 3216 3216 3203 3198 3198 3198 3201 3203 3206 3206 3207 3209 3210 3212 3212 3212 3185 3185 3185 3215 3235 3235 3235 3217 3217 3217 3226 3229 3235 3246 3256 3267 3278 3280 3280 3280 3275 3270 3266 3249 3243 3228 3215 3193 3188 3174 3174 3174 3180 3199 3238 3261 3266 3266 3266 3267 3266 3265 3265 3265 3262 3262 3262 3270 3272 3273 3277 3277 3277 3277 3277 3277 3257 3238 3223 3211 3193 3177 3175 3175 3175 3175 3175 3163 3152 3137 3129 3119 3119 3119 3120 3133 3133 3133 3130 3126 3119 3119 3119 3120 3121 3121 3122 3124 3132 3139 3143 3146 3154 3154 3154 3138 3120 3100 3088 3077 3074 3074 3074 3079 3082 3084 3085 3085 3085 3077 3070 3051 3005 2966 2915 2878 2856 2819 2751 2493 0 2493 2609 2923 3045 3049 3049 3049 3044 3038 3033 3028 3025 3020 3009 2999 2996 2996 2992 2991 2957 2927 2898 2869 2840 2759 2606 0 0 0 1901 1876 1861 1847 1841 1835 1830 1829 1828 1826 1824 1822 1818 1814 1810 1807 1804 1799 1795 1791 1787 1786 1785 1784 1783 1781 1778 1774 1772 1769 1767 1764 1760 1759 1756 1755 1753 1751 1750 1747 1745 1743 1741 1739 1736 1733 1731 1729 1725 1722 1718 1716 1714 1713 1712 1711 1710 1709 1707 1704 1703 1702 1700 1698 1696 1694 1690 1688 1684 1680 1678 1676 1675 1674 1671 1671 1669 1669 1668 1666 1666 1663 1661 1660 1659 1658 1655 1653 1652 1651 1650 1647 1646 1643 1641 1639 1638 1636 1636 1635 1635 1635 1635 1634 1632 1631 1629 1627 1626 1624 1624 1623 1622 1621 1619 1618 1617 1616 1616 1616 1616 1615 1615 1615 1615 1614 1614 1614 1613 1612 1612 1611 1610 1610 1610 1609 1609 1608 1608 1608 1607 1607 1607 1606 1606 1603 1601 1601 1601 1602 1603 1603 1603 1603 1603 1603 1603 1603 1603 1603 1603 1603 1603 1603 1602 1602 1602 1601 1601 1601 1601 1600 1600 1600 1600 1600 1599 1599 1598 1598 1598 1598 1598 1599 1599 1599 1599 1600 1600 1600 1600 1600 1600 1600 1600 1600 1600 1601 1602 1603 1603 1604 1605 1606 1608 1609 1610 1611 1611 1612 1612 1613 1613 1614 1614 1614 1614 1614 1614 1613 1613 1613 1613 1613 1613 1613 1614 1614 1614 1614 1614 1615 1616 1616 1618 1619 1621 1623 1624 1625 1626 1627 1630 1633 1634 1634 1636 1640 1643 1647 1648 1650 1650 1650 1650 1650 1650 1651 1651 1651 1639 1619 1617 1613 1594 1587 0 0 0 0 0 0 0 0 0 0 0 0 0 0 0 0 0 0 0 0 0 0 0 0 0 0 0 0 0 0 0 0 0 0 0 0 0 0 0 0 0 0 0 0 0 0 0 0 0 0 0 0 0 0 0 0 0 0 0 0 0 0 0 0 0 0 0 0 0 0 0 0 0 0 0 0 0 0 0 0 0 0 0 0 0 0 0 0 0 0 0 0 0 0
2498 2498 2525 2559 2575 2582 2605 2648 2687 2727 2761 2793 2817 2820 2820 2820 2818 2818 2818 2821 2821 2821 2817 2805 2795 2795 2795 2798 2839 2881 2898 2900 2910 2917 2925 2925 2925 2887 2864 2846 2810 2784 2784 2784 2789 2807 2827 2834 2838 2847 2847 2860 2880 2902 2922 2939 2953 2955 2955 2953 2947 2947 2947 2950 2955 2967 2981 2990 2991 2992 2994 3003 3010 3018 3028 3043 3055 3055 3056 3056 3056 3063 3063 3063 3066 3066 3074 3086 3100 3110 3111 3113 3114 3114 3116 3118 3122 3125 3135 3142 3150 3153 3153 3153 3157 3157 3164 3178 3187 3192 3198 3205 3211 3223 3223 3223 3216 3213 3213 3212 3208 3206 3206 3206 3207 3209 3209 3210 3210 3210 3185 3185 3185 3215 3235 3235 3235 3224 3224 3224 3227 3235 3246 3261 3272 3284 3289 3289 3289 3280 3275 3270 3254 3243 3234 3228 3215 3198 3195 3195 3195 3213 3225 3232 3252 3264 3267 3267 3267 3267 3267 3268 3268 3268 3267 3267 3267 3270 3283 3283 3283 3282 3280 3279 3277 3277 3265 3249 3233 3215 3194 3181 3175 3175 3175 3175 3175 3163 3155 3142 3129 3119 3119 3119 3129 3134 3138 3138 3138 3134 3131 3127 3126 3125 3123 3123 3123 3124 3132 3140 3142 3144 3144 3142 3137 3123 3103 3096 3088 3072 3062 3062 3062 3072 3082 3085 3085 3085 3085 3075 3070 3051 3005 2966 2918 2878 2847 2805 2685 2460 2460 2460 2706 2957 3052 3052 3052 3050 3044 3038 3033 3028 3025 3020 3015 2999 2996 2991 2991 2982 2956 2913 2881 2850 2803 2719 0 0 0 0 1888 1875 1860 1847 1841 1835 1830 1827 1825 1824 1823 1820 1817 1813 1809 1806 1802 1798 1794 1790 1786 1784 1782 1781 1780 1777 1776 1772 1769 1766 1764 1761 1759 1756 1754 1752 1752 1750 1748 1746 1743 1740 1738 1736 1734 1731 1729 1726 1724 1720 1717 1713 1712 1710 1710 1709 1708 1706 1704 1701 1698 1696 1694 1691 1690 1687 1686 1683 1681 1679 1677 1674 1672 1671 1670 1668 1667 1665 1664 1663 1661 1661 1659 1659 1657 1656 1653 1651 1649 1649 1647 1646 1644 1641 1639 1638 1636 1635 1633 1633 1633 1633 1632 1631 1631 1630 1628 1625 1624 1622 1622 1621 1619 1618 1617 1616 1616 1615 1614 1614 1614 1613 1613 1613 1613 1612 1612 1612 1611 1611 1610 1609 1609 1608 1607 1606 1606 1606 1606 1606 1606 1606 1605 1604 1602 1601 1601 1600 1600 1600 1600 1600 1600 1600 1600 1600 1601 1601 1601 1601 1600 1600 1600 1600 1600 1600 1599 1599 1599 1599 1599 1598 1598 1598 1597 1597 1597 1596 1596 1595 1595 1595 1596 1597 1597 1598 1598 1598 1598 1598 1598 1599 1599 1598 1598 1599 1599 1600 1600 1601 1601 1603 1604 1605 1607 1608 1608 1610 1610 1611 1611 1612 1612 1613 1613 1613 1613 1613 1613 1613 1613 1612 1612 1612 1612 1613 1613 1614 1614 1614 1614 1614 1615 1616 1617 1618 1619 1622 1623 1624 1625 1627 1627 1631 1633 1634 1636 1640 1643 1646 1648 1650 1650 1650 1651 1651 1652 1652 1653 1653 1653 1629 1621 1620 1608 1608 1606 0 0 0 0 0 0 0 0 0 0 0 0 0 0 0 0 0 0 0 0 0 0 0 0 0 0 0 0 0 0 0 0 0 0 0 0 0 0 0 0 0 0 0 0 0 0 0 0 0 0 0 0 0 0 0 0 0 0 0 0 0 0 0 0 0 0 0 0 0 0 0 0 0 0 0 0 0 0 0 0 0 0 0 0 0 0 0 0 0 0 0 0 0
2483 2483 2515 2548 2567 2580 2600 2653 2689 2727 2761 2793 2817 2819 2819 2819 2818 2818 2818 2821 2821 2821 2813 2804 2795 2795 2795 2808 2839 2881 2898 2901 2910 2917 2925 2925 2925 2894 2888 2879 2857 2827 2802 2802 2802 2826 2851 2854 2857 2864 2868 2869 2877 2889 2922 2939 2955 2958 2958 2958 2958 2958 2958 2963 2968 2975 2982 2990 2992 2992 2996 3009 3016 3025 3039 3053 3055 3056 3057 3057 3058 3063 3063 3066 3067 3068 3076 3088 3101 3114 3117 3117 3117 3117 3117 3118 3122 3125 3142 3143 3150 3153 3153 3153 3157 3157 3164 3178 3187 3195 3198 3205 3211 3223 3226 3226 3226 3226 3224 3216 3212 3208 3207 3207 3207 3209 3209 3209 3209 3208 3196 3196 3196 3214 3228 3229 3231 3233 3235 3239 3244 3253 3264 3268 3272 3284 3289 3289 3289 3280 3262 3250 3242 3238 3234 3228 3221 3220 3220 3220 3229 3236 3245 3250 3264 3265 3268 3268 3268 3268 3268 3271 3274 3274 3274 3271 3271 3271 3283 3284 3284 3284 3280 3279 3278 3277 3265 3255 3245 3228 3208 3194 3180 3180 3176 3175 3175 3164 3160 3151 3139 3124 3124 3124 3133 3135 3141 3141 3141 3141 3138 3134 3134 3133 3132 3129 3129 3129 3132 3142 3142 3144 3144 3142 3137 3123 3103 3095 3088 3072 3062 3062 3062 3072 3082 3085 3085 3085 3079 3063 3049 3031 3001 2973 2923 2880 2839 2776 2637 2526 2526 2526 2754 2997 3052 3052 3052 3050 3048 3038 3035 3028 3027 3020 3015 3013 2996 2989 2983 2968 2941 2911 2878 2841 2781 2632 0 0 0 1908 1883 1871 1857 1845 1841 1835 1830 1825 1823 1821 1820 1819 1815 1812 1808 1804 1801 1797 1794 1790 1786 1783 1780 1778 1776 1774 1771 1768 1765 1763 1760 1759 1757 1754 1752 1751 1750 1748 1747 1744 1743 1740 1736 1732 1730 1727 1724 1722 1720 1717 1714 1711 1708 1707 1706 1706 1704 1703 1700 1697 1695 1693 1690 1687 1685 1684 1682 1681 1680 1678 1675 1673 1671 1669 1667 1665 1663 1663 1662 1660 1660 1658 1657 1655 1654 1652 1650 1648 1647 1645 1644 1642 1640 1638 1637 1636 1636 1634 1632 1632 1631 1631 1630 1629 1629 1627 1626 1624 1622 1621 1620 1618 1618 1617 1615 1614 1613 1613 1613 1612 1612 1612 1611 1611 1611 1610 1610 1610 1609 1609 1609 1608 1607 1606 1605 1604 1603 1603 1603 1603 1603 1603 1602 1601 1601 1600 1598 1598 1598 1598 1598 1598 1598 1598 1598 1598 1598 1598 1598 1598 1597 1598 1598 1597 1597 1597 1597 1597 1597 1597 1597 1597 1596 1596 1596 1595 1594 1594 1594 1594 1594 1595 1595 1595 1595 1595 1595 1596 1597 1597 1597 1597 1597 1597 1597 1597 1597 1597 1598 1599 1600 1601 1603 1604 1605 1607 1607 1607 1609 1609 1611 1611 1612 1612 1612 1612 1612 1612 1612 1612 1612 1612 1612 1612 1612 1613 1613 1613 1614 1614 1614 1615 1615 1616 1616 1618 1619 1620 1622 1624 1625 1625 1627 1629 1631 1633 1635 1637 1641 1645 1648 1650 1650 1651 1651 1651 1652 1653 1657 1657 1657 1648 1632 1628 1628 1630 1622 0 0 0 0 0 0 0 0 0 0 0 0 0 0 0 0 0 0 0 0 0 0 0 0 0 0 0 0 0 0 0 0 0 0 0 0 0 0 0 0 0 0 0 0 0 0 0 0 0 0 0 0 0 0 0 0 0 0 0 0 0 0 0 0 0 0 0 0 0 0 0 0 0 0 0 0 0 0 0 0 0 0 0 0 0 0 0 0 0 0 0 0 0
2483 2483 2506 2544 2563 2571 2600 2653 2687 2727 2758 2790 2816 2816 2816 2818 2818 2818 2818 2821 2821 2821 2807 2804 2795 2795 2795 2809 2839 2881 2898 2901 2909 2915 2925 2925 2925 2894 2888 2879 2857 2846 2835 2832 2832 2835 2857 2860 2874 2874 2876 2877 2877 2889 2920 2932 2952 2953 2958 2958 2958 2960 2972 2976 2979 2986 2992 2992 2994 2995 2996 3010 3017 3028 3040 3055 3057 3057 3058 3058 3058 3063 3066 3068 3070 3075 3083 3090 3102 3115 3122 3122 3122 3118 3118 3118 3122 3128 3143 3145 3150 3154 3154 3156 3157 3157 3164 3178 3189 3195 3198 3201 3210 3223 3229 3229 3229 3229 3229 3227 3223 3209 3209 3209 3209 3209 3209 3209 3209 3207 3199 3189 3189 3189 3219 3229 3229 3231 3242 3255 3261 3268 3271 3272 3273 3284 3289 3289 3289 3274 3262 3250 3242 3238 3234 3228 3228 3228 3231 3235 3245 3259 3267 3267 3268 3270 3270 3268 3268 3268 3268 3271 3281 3285 3285 3285 3285 3285 3285 3287 3287 3287 3285 3279 3275 3270 3265 3255 3245 3235 3219 3207 3203 3201 3190 3186 3176 3173 3167 3163 3158 3153 3141 3140 3140 3140 3142 3142 3144 3144 3144 3144 3143 3142 3141 3136 3136 3136 3137 3143 3143 3144 3144 3142 3137 3123 3103 3095 3088 3072 3062 3062 3062 3072 3082 3082 3082 3075 3072 3058 3038 3015 2995 2973 2925 2880 2839 2749 2561 2529 2529 2529 2758 3002 3058 3058 3058 3057 3056 3054 3042 3028 3027 3022 3015 3013 2996 2987 2980 2961 2940 2911 2875 2835 2756 2579 0 0 0 1906 1881 1861 1852 1845 1841 1835 1830 1825 1822 1820 1818 1816 1813 1810 1806 1804 1800 1797 1794 1789 1785 1781 1777 1775 1772 1770 1767 1764 1760 1759 1758 1756 1753 1751 1750 1749 1748 1746 1744 1742 1741 1736 1734 1729 1726 1723 1719 1717 1717 1714 1711 1706 1704 1703 1700 1698 1697 1697 1697 1694 1691 1689 1687 1685 1684 1681 1679 1678 1678 1675 1673 1671 1669 1667 1665 1663 1661 1660 1659 1659 1657 1656 1653 1652 1651 1649 1647 1646 1645 1642 1641 1638 1638 1636 1635 1633 1633 1632 1631 1630 1629 1628 1628 1626 1626 1624 1623 1621 1620 1620 1618 1616 1616 1615 1613 1612 1612 1611 1611 1610 1610 1610 1609 1609 1609 1609 1609 1608 1608 1607 1607 1606 1605 1603 1603 1602 1601 1600 1600 1600 1600 1600 1600 1599 1599 1598 1597 1596 1596 1596 1596 1596 1596 1596 1596 1596 1596 1596 1596 1595 1595 1595 1596 1596 1596 1595 1595 1595 1595 1595 1595 1595 1595 1595 1593 1593 1593 1592 1592 1592 1592 1593 1593 1593 1593 1593 1594 1594 1594 1594 1594 1594 1594 1594 1595 1595 1595 1596 1597 1597 1598 1600 1600 1602 1604 1605 1606 1607 1608 1609 1609 1611 1611 1611 1611 1612 1612 1612 1612 1612 1612 1612 1612 1612 1613 1613 1613 1613 1614 1614 1614 1615 1615 1616 1616 1617 1619 1620 1622 1623 1624 1625 1626 1628 1630 1633 1634 1636 1639 1643 1647 1649 1650 1650 1651 1651 1652 1653 1656 1657 1657 1657 1652 1643 1637 1637 1633 1629 0 0 0 0 0 0 0 0 0 0 0 0 0 0 0 0 0 0 0 0 0 0 0 0 0 0 0 0 0 0 0 0 0 0 0 0 0 0 0 0 0 0 0 0 0 0 0 0 0 0 0 0 0 0 0 0 0 0 0 0 0 0 0 0 0 0 0 0 0 0 0 0 0 0 0 0 0 0 0 0 0 0 0 0 0 0 0 0 0 0 0 0
2483 2483 2506 2540 2542 2566 2585 2653 2687 2707 2728 2764 2789 2794 2795 2801 2816 2823 2826 2826 2826 2821 2807 2794 2794 2794 2798 2812 2838 2870 2891 2900 2908 2913 2913 2913 2912 2894 2888 2879 2857 2857 2853 2853 2853 2864 2872 2875 2888 2888 2888 2888 2888 2889 2920 2932 2946 2950 2950 2958 2969 2972 2982 2986 2993 3003 3003 3003 2999 2999 2999 3011 3026 3036 3049 3057 3057 3058 3058 3058 3061 3063 3066 3069 3072 3083 3090 3098 3109 3117 3125 3125 3125 3123 3123 3123 3126 3129 3144 3149 3154 3163 3171 3174 3175 3177 3184 3193 3196 3197 3197 3197 3206 3217 3225 3230 3231 3231 3231 3227 3225 3222 3211 3211 3210 3210 3209 3210 3209 3207 3206 3201 3185 3185 3185 3217 3225 3229 3242 3260 3275 3275 3275 3276 3277 3283 3283 3283 3282 3274 3262 3250 3242 3238 3235 3228 3228 3228 3231 3235 3245 3260 3273 3273 3273 3273 3273 3272 3271 3271 3271 3278 3284 3291 3296 3296 3296 3291 3291 3291 3290 3290 3285 3279 3275 3270 3260 3255 3248 3236 3224 3218 3218 3218 3210 3197 3188 3185 3183 3182 3176 3170 3168 3162 3153 3150 3150 3150 3150 3154 3154 3154 3148 3145 3143 3138 3138 3138 3139 3143 3144 3145 3145 3145 3139 3124 3103 3095 3092 3076 3073 3073 3073 3084 3084 3084 3075 3062 3058 3047 3030 3008 2995 2973 2944 2898 2839 2726 2558 2558 2558 2670 2959 3071 3083 3083 3083 3081 3080 3073 3057 3041 3027 3023 3015 3014 3005 2989 2980 2961 2940 2911 2875 2831 2730 0 0 0 0 1902 1879 1861 1848 1838 1835 1833 1830 1825 1822 1820 1818 1815 1811 1808 1805 1803 1799 1796 1793 1789 1784 1779 1774 1772 1770 1767 1764 1760 1756 1755 1755 1754 1751 1749 1748 1748 1746 1744 1741 1739 1737 1734 1731 1726 1722 1719 1715 1713 1711 1709 1705 1702 1700 1698 1695 1693 1693 1693 1693 1690 1689 1687 1685 1682 1679 1678 1677 1675 1675 1672 1670 1669 1665 1662 1661 1659 1659 1657 1656 1656 1655 1652 1650 1648 1648 1645 1644 1643 1641 1639 1637 1635 1633 1632 1631 1630 1629 1629 1628 1628 1627 1625 1625 1625 1623 1622 1621 1619 1618 1617 1616 1615 1613 1612 1610 1610 1610 1610 1609 1609 1608 1608 1608 1608 1607 1607 1606 1606 1606 1605 1604 1603 1602 1601 1601 1601 1600 1599 1598 1598 1598 1598 1598 1598 1597 1596 1596 1595 1595 1595 1594 1594 1594 1594 1594 1594 1594 1594 1594 1594 1594 1595 1595 1595 1595 1594 1594 1593 1593 1593 1593 1593 1593 1593 1592 1591 1590 1590 1590 1590 1590 1590 1590 1590 1590 1591 1591 1592 1592 1592 1592 1592 1592 1592 1592 1593 1593 1594 1594 1595 1596 1597 1599 1600 1602 1603 1604 1605 1606 1608 1608 1609 1609 1610 1610 1610 1610 1610 1611 1612 1612 1612 1612 1612 1612 1613 1613 1613 1614 1615 1615 1615 1615 1616 1616 1618 1619 1620 1622 1622 1624 1625 1625 1625 1628 1632 1634 1635 1636 1639 1641 1643 1646 1647 1650 1651 1652 1653 1655 1657 1657 1657 1655 1652 1652 1650 1650 1649 1647 0 0 0 0 0 0 0 0 0 0 0 0 0 0 0 0 0 0 0 0 0 0 0 0 0 0 0 0 0 0 0 0 0 0 0 0 0 0 0 0 0 0 0 0 0 0 0 0 0 0 0 0 0 0 0 0 0 0 0 0 0 0 0 0 0 0 0 0 0 0 0 0 0 0 0 0 0 0 0 0 0 0 0 0 0 0 0 0 0 0 0
2489 2489 2513 2519 2520 2564 2582 2618 2656 2674 2684 2706 2745 2768 2781 2798 2813 2823 2843 2843 2843 2827 2807 2794 2794 2794 2806 2817 2835 2866 2882 2898 2905 2912 2912 2912 2901 2893 2888 2877 2858 2858 2858 2866 2873 2884 2895 2899 2909 2909 2909 2908 2908 2908 2920 2932 2946 2949 2951 2958 2971 2975 2986 2996 3004 3014 3014 3014 3002 3002 3002 3020 3035 3050 3064 3064 3064 3059 3059 3059 3062 3064 3066 3069 3073 3088 3099 3106 3116 3125 3129 3130 3131 3131 3132 3134 3140 3145 3156 3159 3166 3174 3182 3187 3192 3197 3200 3200 3200 3197 3197 3197 3206 3217 3225 3231 3232 3232 3232 3229 3227 3225 3220 3217 3214 3212 3210 3210 3209 3210 3207 3207 3206 3179 3179 3179 3216 3229 3244 3261 3275 3275 3276 3276 3277 3282 3282 3282 3282 3274 3265 3258 3250 3248 3236 3230 3230 3230 3231 3235 3245 3260 3279 3279 3279 3278 3277 3276 3277 3278 3279 3286 3292 3298 3305 3305 3305 3303 3294 3291 3291 3290 3285 3281 3275 3270 3260 3255 3251 3236 3236 3236 3231 3231 3227 3211 3194 3194 3193 3192 3191 3190 3189 3179 3170 3163 3159 3159 3159 3159 3159 3159 3148 3145 3145 3138 3138 3138 3143 3144 3145 3149 3159 3159 3159 3140 3115 3108 3101 3088 3084 3084 3084 3087 3087 3087 3065 3055 3048 3033 3023 3007 2995 2992 2973 2901 2842 2722 2528 2528 2528 2818 3048 3122 3122 3122 3108 3099 3094 3086 3078 3066 3051 3023 3018 3015 3006 2993 2980 2961 2940 2911 2875 2826 2651 0 0 0 1922 1896 1867 1847 1841 1835 1834 1832 1830 1824 1822 1819 1817 1813 1810 1807 1805 1802 1798 1795 1791 1787 1783 1777 1774 1772 1768 1766 1762 1759 1756 1753 1753 1751 1748 1745 1745 1745 1743 1741 1738 1735 1732 1730 1726 1723 1718 1715 1712 1709 1706 1703 1701 1698 1696 1695 1693 1692 1690 1689 1688 1688 1686 1685 1682 1680 1676 1674 1672 1671 1669 1667 1666 1663 1660 1659 1658 1657 1657 1655 1654 1653 1650 1648 1646 1644 1643 1641 1639 1638 1637 1635 1634 1632 1631 1630 1630 1628 1628 1627 1626 1625 1625 1624 1623 1622 1622 1620 1619 1617 1616 1614 1614 1612 1612 1610 1609 1609 1608 1607 1607 1607 1607 1607 1606 1606 1606 1605 1605 1605 1604 1604 1603 1602 1601 1600 1599 1598 1597 1597 1597 1597 1597 1597 1597 1596 1595 1594 1594 1594 1593 1593 1593 1593 1593 1593 1592 1592 1592 1592 1593 1593 1593 1594 1594 1594 1594 1593 1592 1592 1592 1592 1591 1591 1591 1591 1590 1589 1589 1588 1588 1588 1588 1588 1588 1588 1588 1588 1588 1589 1589 1589 1589 1589 1589 1589 1590 1590 1591 1592 1592 1593 1595 1596 1598 1599 1600 1601 1602 1603 1605 1607 1607 1608 1608 1608 1609 1609 1609 1609 1610 1610 1611 1612 1612 1612 1612 1613 1613 1614 1614 1615 1615 1615 1615 1617 1617 1618 1619 1620 1622 1622 1624 1624 1625 1625 1627 1630 1632 1633 1633 1635 1640 1640 1641 1644 1644 1647 1647 1647 1649 1649 1649 1652 1652 1652 1652 1650 1650 1650 1649 1640 1637 0 0 0 0 0 0 0 0 0 0 0 0 0 0 0 0 0 0 0 0 0 0 0 0 0 0 0 0 0 0 0 0 0 0 0 0 0 0 0 0 0 0 0 0 0 0 0 0 0 0 0 0 0 0 0 0 0 0 0 0 0 0 0 0 0 0 0 0 0 0 0 0 0 0 0 0 0 0 0 0 0 0 0 0 0 0 0 0 0
2495 2495 2513 2519 2520 2528 2541 2570 2619 2636 2642 2668 2705 2745 2773 2796 2813 2823 2843 2843 2843 2827 2808 2808 2808 2808 2810 2818 2832 2846 2857 2862 2879 2895 2901 2901 2901 2893 2888 2877 2858 2858 2858 2866 2878 2884 2895 2906 2915 2922 2923 2926 2929 2939 2940 2942 2946 2949 2951 2959 2972 2976 2987 2996 3004 3015 3015 3015 3015 3017 3021 3034 3049 3062 3071 3071 3071 3065 3065 3065 3068 3069 3069 3069 3081 3092 3103 3112 3120 3125 3129 3132 3136 3142 3145 3148 3150 3154 3158 3163 3169 3180 3182 3187 3193 3200 3200 3200 3200 3199 3199 3199 3206 3217 3225 3231 3234 3234 3234 3233 3229 3226 3225 3219 3215 3214 3214 3214 3217 3217 3217 3217 3211 3200 3200 3200 3201 3220 3244 3263 3275 3275 3275 3276 3277 3281 3282 3282 3282 3275 3274 3269 3255 3253 3242 3230 3222 3222 3222 3229 3240 3259 3279 3280 3282 3282 3283 3284 3284 3286 3286 3291 3292 3301 3305 3305 3305 3305 3294 3291 3291 3290 3285 3282 3277 3270 3260 3255 3251 3243 3243 3243 3243 3243 3241 3223 3205 3196 3194 3193 3191 3190 3189 3182 3177 3171 3167 3167 3167 3167 3166 3159 3150 3150 3149 3150 3151 3151 3148 3151 3151 3151 3161 3161 3161 3140 3116 3109 3108 3097 3094 3094 3094 3094 3094 3087 3065 3055 3048 3033 3023 3007 2999 2996 2973 2922 2842 2675 2566 2566 2566 2912 3118 3147 3147 3147 3126 3111 3102 3093 3084 3075 3066 3041 3026 3018 3006 3000 2996 2982 2947 2911 2875 2807 2514 0 0 0 1907 1876 1852 1839 1836 1834 1831 1829 1828 1822 1819 1817 1814 1810 1809 1806 1804 1799 1795 1792 1789 1785 1780 1777 1773 1771 1768 1765 1761 1758 1755 1752 1750 1747 1745 1743 1743 1741 1740 1737 1734 1732 1730 1728 1725 1721 1718 1715 1711 1706 1703 1699 1697 1694 1693 1691 1689 1688 1687 1686 1684 1683 1681 1679 1678 1675 1672 1671 1667 1663 1662 1661 1661 1660 1658 1657 1655 1655 1653 1652 1651 1648 1646 1644 1642 1640 1638 1636 1635 1634 1633 1632 1630 1630 1629 1629 1627 1627 1626 1625 1624 1623 1623 1622 1621 1620 1619 1618 1616 1615 1614 1613 1612 1610 1610 1609 1609 1608 1607 1606 1606 1606 1605 1605 1605 1605 1604 1603 1602 1602 1601 1601 1599 1598 1598 1598 1597 1596 1595 1595 1595 1595 1595 1595 1594 1594 1593 1593 1592 1592 1592 1592 1592 1591 1591 1591 1591 1591 1591 1591 1591 1591 1591 1592 1592 1592 1591 1591 1591 1590 1590 1590 1590 1589 1589 1588 1588 1588 1586 1586 1586 1586 1586 1587 1587 1587 1587 1586 1586 1586 1586 1587 1587 1587 1587 1587 1588 1588 1588 1589 1590 1591 1593 1593 1594 1596 1598 1599 1601 1602 1604 1604 1605 1606 1607 1607 1607 1607 1607 1608 1609 1609 1610 1610 1611 1612 1612 1613 1613 1614 1614 1615 1615 1615 1617 1617 1617 1618 1619 1619 1621 1622 1624 1624 1624 1625 1626 1627 1629 1630 1632 1634 1635 1638 1641 1642 1642 1642 1641 1641 1641 1641 1643 1645 1649 1650 1650 1650 1650 1649 1649 1648 1639 1626 1622 1584 0 0 0 0 0 0 0 0 0 0 0 0 0 0 0 0 0 0 0 0 0 0 0 0 0 0 0 0 0 0 0 0 0 0 0 0 0 0 0 0 0 0 0 0 0 0 0 0 0 0 0 0 0 0 0 0 0 0 0 0 0 0 0 0 0 0 0 0 0 0 0 0 0 0 0 0 0 0 0 0 0 0 0 0 0 0
2499 2499 2513 2519 2520 2528 2532 2549 2600 2628 2636 2637 2677 2725 2756 2783 2813 2816 2843 2843 2843 2827 2808 2808 2808 2811 2813 2819 2830 2838 2844 2849 2864 2884 2895 2895 2895 2893 2891 2877 2858 2858 2858 2866 2878 2884 2895 2906 2915 2922 2923 2934 2946 2952 2952 2952 2951 2951 2951 2959 2972 2981 2988 2996 3004 3016 3018 3018 3021 3027 3034 3044 3052 3063 3077 3077 3077 3074 3074 3074 3074 3081 3090 3093 3101 3102 3109 3115 3120 3125 3129 3132 3137 3142 3145 3148 3150 3154 3158 3163 3169 3180 3183 3188 3195 3201 3201 3201 3201 3201 3201 3204 3209 3221 3229 3234 3236 3236 3236 3236 3235 3227 3226 3221 3216 3216 3216 3217 3228 3236 3236 3236 3221 3213 3201 3201 3201 3220 3244 3264 3275 3276 3277 3277 3280 3280 3282 3282 3282 3276 3275 3270 3270 3257 3242 3230 3222 3222 3222 3229 3240 3252 3268 3275 3282 3291 3291 3291 3291 3292 3292 3293 3295 3301 3305 3305 3305 3305 3295 3289 3288 3288 3286 3285 3277 3275 3267 3262 3255 3251 3251 3251 3248 3247 3241 3233 3214 3199 3194 3194 3191 3190 3189 3182 3178 3178 3176 3176 3176 3174 3173 3160 3160 3160 3162 3168 3169 3169 3169 3154 3154 3154 3161 3161 3161 3140 3118 3110 3110 3106 3100 3099 3099 3098 3096 3087 3065 3055 3048 3033 3023 3007 3005 2996 2973 2922 2842 2609 2609 2609 2641 2973 3146 3158 3158 3158 3139 3123 3108 3097 3089 3077 3070 3058 3041 3031 3018 3009 2996 2982 2947 2911 2871 2784 0 0 0 0 1899 1876 1852 1839 1835 1833 1829 1825 1822 1818 1814 1813 1811 1808 1806 1804 1800 1796 1791 1788 1785 1781 1778 1774 1772 1770 1768 1763 1761 1758 1754 1750 1747 1745 1743 1741 1740 1739 1736 1733 1731 1729 1727 1724 1722 1719 1714 1710 1705 1701 1698 1694 1692 1690 1690 1688 1686 1686 1685 1683 1681 1677 1675 1674 1673 1671 1667 1664 1663 1661 1659 1658 1658 1657 1656 1654 1651 1650 1648 1648 1648 1646 1643 1642 1639 1637 1635 1634 1632 1632 1630 1629 1629 1628 1627 1627 1625 1624 1623 1622 1622 1621 1621 1621 1620 1619 1617 1616 1615 1613 1612 1611 1610 1609 1609 1608 1607 1607 1606 1605 1605 1604 1604 1604 1604 1604 1603 1602 1600 1599 1598 1598 1596 1596 1596 1595 1595 1594 1594 1593 1593 1592 1592 1592 1592 1591 1591 1591 1591 1591 1590 1590 1590 1590 1590 1590 1590 1590 1590 1590 1590 1590 1590 1590 1590 1590 1589 1589 1589 1589 1588 1588 1587 1587 1586 1586 1586 1586 1585 1585 1585 1585 1585 1585 1585 1585 1585 1585 1585 1585 1586 1586 1586 1586 1585 1585 1585 1586 1586 1588 1588 1590 1591 1592 1592 1593 1595 1597 1598 1600 1601 1602 1603 1604 1604 1606 1606 1606 1606 1607 1607 1608 1609 1610 1611 1611 1612 1612 1613 1613 1614 1615 1615 1616 1617 1617 1618 1618 1619 1619 1621 1622 1622 1624 1624 1624 1626 1627 1628 1629 1631 1634 1635 1636 1637 1640 1640 1640 1638 1638 1638 1638 1639 1639 1641 1641 1641 1644 1647 1649 1649 1649 1640 1633 1625 1617 1575 1560 0 0 0 0 0 0 0 0 0 0 0 0 0 0 0 0 0 0 0 0 0 0 0 0 0 0 0 0 0 0 0 0 0 0 0 0 0 0 0 0 0 0 0 0 0 0 0 0 0 0 0 0 0 0 0 0 0 0 0 0 0 0 0 0 0 0 0 0 0 0 0 0 0 0 0 0 0 0 0 0 0 0 0 0
2503 2503 2518 2528 2528 2529 2535 2546 2588 2627 2629 2635 2666 2703 2742 2772 2777 2797 2810 2819 2819 2819 2808 2808 2808 2813 2820 2820 2827 2834 2838 2842 2850 2866 2886 2895 2895 2895 2892 2889 2874 2866 2866 2866 2878 2880 2894 2908 2920 2928 2930 2935 2946 2957 2960 2960 2960 2960 2960 2963 2972 2981 2988 2996 3001 3010 3019 3024 3030 3038 3046 3047 3052 3063 3077 3077 3078 3078 3078 3078 3078 3091 3107 3108 3108 3111 3111 3115 3120 3121 3129 3132 3138 3143 3145 3148 3150 3154 3158 3163 3169 3180 3184 3192 3199 3204 3204 3205 3205 3205 3205 3208 3216 3227 3237 3238 3239 3240 3241 3242 3242 3242 3235 3227 3221 3221 3221 3223 3235 3246 3248 3248 3248 3229 3202 3202 3202 3220 3257 3264 3275 3276 3277 3279 3281 3281 3283 3283 3283 3279 3277 3274 3271 3258 3243 3232 3228 3228 3228 3229 3240 3252 3268 3275 3287 3299 3299 3299 3298 3297 3297 3297 3301 3301 3307 3307 3307 3306 3297 3289 3288 3288 3287 3287 3286 3286 3277 3273 3266 3258 3256 3252 3251 3247 3243 3234 3220 3205 3195 3194 3192 3188 3185 3182 3182 3182 3182 3184 3184 3184 3179 3168 3168 3168 3175 3185 3187 3187 3185 3179 3169 3169 3167 3166 3155 3137 3121 3114 3113 3112 3110 3106 3102 3101 3096 3087 3067 3058 3052 3041 3026 3017 3014 2996 2963 2922 2824 2594 2594 2594 2751 3035 3169 3169 3169 3159 3141 3126 3114 3105 3089 3081 3073 3060 3049 3034 3018 3009 2996 2982 2947 2900 2841 2681 0 0 0 1914 1896 1875 1852 1839 1835 1833 1829 1825 1822 1818 1813 1812 1809 1807 1803 1801 1797 1793 1791 1788 1784 1779 1775 1772 1769 1768 1765 1762 1758 1755 1750 1747 1745 1742 1741 1739 1738 1735 1733 1730 1728 1725 1723 1721 1717 1712 1707 1702 1697 1693 1691 1689 1687 1686 1685 1684 1684 1683 1682 1681 1677 1673 1671 1670 1668 1666 1663 1660 1660 1658 1656 1656 1655 1655 1653 1650 1647 1646 1645 1644 1644 1643 1640 1638 1636 1635 1633 1632 1631 1630 1629 1628 1626 1625 1624 1623 1622 1621 1621 1620 1619 1619 1618 1618 1618 1617 1616 1615 1613 1612 1611 1610 1608 1608 1607 1607 1606 1605 1605 1604 1603 1603 1602 1602 1601 1601 1601 1599 1598 1596 1596 1595 1594 1594 1592 1592 1592 1592 1591 1591 1591 1591 1591 1590 1589 1589 1589 1589 1589 1589 1589 1589 1589 1589 1589 1589 1589 1589 1589 1589 1589 1589 1589 1588 1588 1588 1588 1588 1587 1587 1587 1586 1586 1585 1585 1585 1584 1584 1584 1583 1583 1583 1584 1584 1584 1584 1584 1584 1584 1584 1584 1585 1585 1585 1584 1584 1584 1584 1584 1585 1587 1588 1589 1589 1590 1591 1593 1595 1595 1598 1598 1599 1600 1601 1602 1603 1605 1605 1605 1606 1607 1608 1608 1609 1610 1611 1611 1611 1612 1613 1613 1614 1615 1616 1617 1617 1618 1618 1619 1619 1621 1621 1622 1623 1624 1624 1626 1627 1628 1629 1631 1632 1635 1635 1635 1635 1636 1637 1637 1637 1637 1637 1637 1637 1637 1637 1637 1637 1638 1641 1647 1649 1651 1651 1649 1645 1621 1590 1577 0 0 0 0 0 0 0 0 0 0 0 0 0 0 0 0 0 0 0 0 0 0 0 0 0 0 0 0 0 0 0 0 0 0 0 0 0 0 0 0 0 0 0 0 0 0 0 0 0 0 0 0 0 0 0 0 0 0 0 0 0 0 0 0 0 0 0 0 0 0 0 0 0 0 0 0 0 0 0 0 0 0 0
2508 2508 2524 2534 2534 2544 2546 2546 2587 2620 2624 2630 2666 2703 2738 2764 2769 2790 2796 2807 2807 2807 2799 2799 2799 2813 2820 2821 2827 2834 2838 2842 2850 2857 2874 2891 2893 2893 2893 2890 2881 2868 2868 2868 2878 2880 2891 2908 2920 2928 2930 2935 2946 2957 2966 2966 2966 2966 2966 2966 2973 2981 2990 2996 3001 3010 3019 3033 3042 3050 3050 3051 3052 3063 3077 3080 3080 3080 3080 3080 3081 3098 3107 3108 3108 3111 3111 3115 3118 3121 3129 3133 3139 3142 3144 3148 3150 3154 3156 3159 3169 3180 3184 3194 3201 3209 3209 3209 3210 3210 3210 3218 3227 3237 3245 3246 3246 3249 3250 3251 3251 3251 3247 3240 3232 3228 3228 3228 3237 3246 3250 3250 3250 3249 3226 3226 3226 3239 3266 3275 3276 3278 3280 3280 3281 3282 3283 3283 3283 3281 3277 3276 3271 3259 3243 3234 3234 3234 3235 3240 3246 3252 3268 3275 3294 3309 3309 3309 3303 3301 3301 3301 3301 3301 3307 3310 3310 3310 3297 3289 3288 3288 3288 3288 3290 3290 3290 3289 3279 3265 3258 3252 3251 3247 3247 3238 3228 3213 3211 3194 3192 3188 3183 3183 3183 3185 3186 3191 3191 3191 3190 3176 3176 3176 3180 3188 3188 3188 3188 3188 3181 3181 3180 3170 3152 3132 3121 3118 3118 3116 3110 3108 3108 3102 3096 3090 3075 3063 3063 3060 3047 3039 3026 2994 2955 2913 2769 2577 2577 2577 2836 3103 3175 3175 3175 3168 3153 3139 3122 3110 3089 3081 3076 3067 3050 3034 3018 3009 2993 2970 2923 2866 2790 0 0 0 0 1911 1895 1871 1852 1843 1835 1830 1827 1825 1822 1816 1813 1810 1808 1804 1802 1798 1795 1793 1790 1788 1783 1778 1774 1770 1768 1765 1762 1758 1754 1751 1749 1746 1744 1742 1739 1737 1734 1730 1728 1725 1724 1722 1719 1715 1711 1707 1702 1696 1692 1689 1688 1686 1683 1681 1681 1680 1679 1679 1678 1675 1673 1671 1669 1667 1665 1662 1660 1659 1657 1656 1654 1652 1652 1651 1650 1648 1646 1644 1642 1641 1640 1639 1638 1635 1635 1633 1632 1630 1630 1627 1627 1625 1624 1623 1623 1622 1620 1619 1619 1619 1618 1617 1617 1616 1615 1615 1613 1613 1611 1610 1609 1608 1607 1606 1606 1605 1605 1604 1603 1603 1601 1601 1600 1600 1600 1600 1598 1598 1597 1595 1593 1593 1592 1592 1590 1589 1589 1589 1589 1588 1588 1588 1588 1588 1588 1588 1588 1588 1588 1588 1588 1588 1588 1588 1588 1588 1588 1588 1588 1588 1588 1588 1587 1587 1586 1586 1586 1586 1586 1586 1586 1585 1585 1584 1584 1584 1583 1583 1583 1582 1582 1582 1583 1583 1583 1583 1583 1583 1583 1583 1583 1583 1583 1583 1583 1583 1583 1583 1583 1584 1585 1586 1587 1588 1588 1589 1591 1592 1593 1595 1596 1597 1597 1598 1600 1601 1602 1603 1604 1604 1605 1607 1607 1607 1609 1609 1611 1611 1611 1611 1612 1613 1615 1615 1616 1617 1618 1618 1619 1620 1621 1621 1622 1623 1624 1625 1626 1627 1628 1629 1631 1632 1634 1634 1634 1634 1635 1636 1636 1636 1636 1636 1636 1635 1635 1635 1635 1637 1638 1641 1644 1648 1649 1651 1657 1657 1657 1642 1628 1602 0 0 0 0 0 0 0 0 0 0 0 0 0 0 0 0 0 0 0 0 0 0 0 0 0 0 0 0 0 0 0 0 0 0 0 0 0 0 0 0 0 0 0 0 0 0 0 0 0 0 0 0 0 0 0 0 0 0 0 0 0 0 0 0 0 0 0 0 0 0 0 0 0 0 0 0 0 0 0 0 0 0
2527 2527 2529 2535 2535 2541 2541 2541 2582 2620 2624 2627 2659 2702 2738 2761 2763 2779 2784 2794 2797 2797 2797 2797 2797 2813 2820 2821 2827 2834 2838 2842 2850 2857 2872 2889 2894 2894 2894 2891 2884 2876 2876 2876 2878 2880 2891 2908 2920 2928 2930 2934 2945 2957 2966 2970 2970 2970 2970 2970 2976 2985 2995 2998 3001 3010 3028 3041 3047 3050 3050 3050 3051 3058 3071 3080 3083 3083 3082 3082 3083 3099 3107 3108 3111 3111 3115 3118 3119 3121 3129 3136 3141 3142 3143 3147 3150 3154 3156 3159 3169 3181 3191 3201 3210 3218 3218 3218 3218 3218 3223 3230 3238 3247 3252 3255 3258 3259 3259 3260 3259 3259 3256 3252 3247 3240 3237 3237 3237 3246 3251 3257 3257 3257 3226 3226 3226 3244 3281 3281 3282 3282 3282 3282 3282 3283 3283 3283 3283 3281 3281 3280 3276 3260 3245 3244 3244 3244 3253 3260 3269 3272 3277 3285 3303 3318 3318 3318 3314 3308 3306 3301 3301 3301 3310 3314 3314 3314 3304 3299 3294 3291 3291 3291 3290 3290 3290 3289 3284 3274 3259 3252 3249 3247 3246 3246 3238 3237 3227 3206 3193 3187 3183 3183 3183 3189 3193 3199 3199 3199 3198 3182 3182 3182 3189 3191 3194 3194 3195 3196 3196 3191 3187 3173 3152 3132 3124 3124 3124 3118 3113 3111 3111 3109 3108 3097 3081 3071 3068 3067 3065 3053 3028 2994 2953 2900 2710 2662 2662 2662 2999 3139 3175 3175 3175 3172 3169 3154 3138 3118 3096 3088 3083 3071 3053 3034 3008 2994 2977 2948 2898 2828 2707 0 0 0 1932 1908 1879 1868 1852 1843 1835 1830 1827 1825 1821 1816 1813 1810 1806 1802 1799 1796 1792 1791 1789 1786 1783 1778 1774 1769 1766 1763 1759 1756 1752 1750 1747 1744 1742 1740 1737 1734 1730 1726 1725 1721 1720 1718 1715 1712 1708 1703 1700 1694 1690 1688 1687 1686 1683 1680 1676 1675 1673 1673 1673 1671 1669 1668 1666 1664 1661 1660 1659 1657 1655 1653 1651 1648 1648 1648 1647 1646 1644 1642 1641 1639 1639 1637 1636 1634 1633 1631 1630 1629 1628 1627 1625 1623 1622 1621 1621 1620 1618 1617 1616 1615 1615 1614 1614 1613 1613 1612 1611 1609 1609 1608 1606 1606 1606 1605 1605 1603 1603 1602 1601 1600 1600 1599 1599 1598 1598 1598 1597 1596 1595 1594 1592 1591 1590 1588 1588 1587 1587 1587 1587 1587 1587 1586 1586 1586 1587 1587 1587 1587 1587 1587 1587 1587 1587 1587 1587 1586 1587 1586 1586 1586 1586 1586 1586 1586 1585 1584 1584 1584 1584 1584 1584 1584 1583 1583 1583 1582 1582 1581 1581 1581 1581 1581 1581 1581 1581 1581 1581 1581 1581 1581 1581 1581 1581 1581 1581 1581 1581 1582 1582 1582 1584 1585 1585 1586 1586 1588 1589 1589 1590 1592 1593 1595 1595 1596 1597 1598 1600 1601 1602 1603 1604 1604 1605 1605 1606 1607 1609 1609 1610 1610 1611 1612 1614 1615 1616 1617 1618 1618 1619 1619 1621 1621 1622 1623 1624 1624 1626 1627 1628 1629 1631 1632 1633 1634 1634 1634 1635 1636 1636 1636 1636 1635 1635 1635 1635 1635 1635 1637 1638 1640 1641 1644 1649 1651 1657 1657 1657 1657 1651 1633 1627 0 0 0 0 0 0 0 0 0 0 0 0 0 0 0 0 0 0 0 0 0 0 0 0 0 0 0 0 0 0 0 0 0 0 0 0 0 0 0 0 0 0 0 0 0 0 0 0 0 0 0 0 0 0 0 0 0 0 0 0 0 0 0 0 0 0 0 0 0 0 0 0 0 0 0 0 0 0 0 0 0
2528 2528 2531 2536 2536 2536 2536 2536 2560 2595 2604 2618 2658 2702 2738 2758 2758 2758 2758 2758 2774 2788 2788 2793 2793 2793 2811 2821 2833 2837 2844 2852 2857 2857 2872 2889 2893 2893 2893 2891 2884 2882 2882 2882 2883 2883 2891 2912 2921 2928 2930 2934 2944 2954 2966 2970 2970 2972 2972 2972 2977 2985 2995 3001 3007 3015 3028 3041 3047 3050 3050 3050 3051 3053 3064 3071 3074 3083 3088 3090 3094 3099 3104 3107 3108 3111 3115 3118 3119 3125 3135 3140 3141 3141 3143 3145 3152 3154 3156 3159 3172 3186 3195 3203 3213 3224 3228 3229 3230 3232 3232 3236 3246 3254 3254 3256 3260 3264 3264 3264 3261 3260 3258 3257 3251 3240 3237 3237 3237 3242 3250 3257 3257 3257 3226 3226 3226 3264 3281 3281 3282 3282 3282 3282 3282 3283 3284 3285 3287 3287 3287 3283 3276 3258 3248 3248 3248 3266 3276 3283 3285 3287 3287 3295 3313 3321 3321 3321 3321 3320 3320 3319 3320 3320 3322 3322 3322 3322 3313 3304 3297 3292 3292 3292 3292 3292 3292 3289 3285 3274 3262 3252 3249 3247 3246 3246 3246 3245 3241 3217 3195 3187 3183 3183 3183 3189 3197 3203 3203 3203 3201 3195 3195 3195 3197 3197 3198 3198 3198 3205 3205 3205 3194 3175 3149 3132 3126 3125 3124 3122 3115 3111 3111 3109 3108 3097 3082 3071 3070 3067 3067 3060 3029 2992 2952 2880 2700 2700 2700 2753 3035 3152 3175 3175 3175 3174 3169 3165 3156 3135 3115 3097 3086 3076 3054 3029 2994 2970 2949 2916 2870 2799 2605 0 0 0 1929 1905 1877 1860 1853 1845 1835 1830 1827 1825 1821 1816 1813 1809 1805 1801 1797 1794 1792 1790 1786 1782 1778 1776 1772 1769 1765 1761 1757 1754 1751 1749 1747 1744 1741 1738 1736 1732 1728 1725 1722 1719 1716 1714 1711 1708 1705 1700 1697 1692 1689 1688 1686 1684 1682 1678 1674 1672 1670 1670 1670 1670 1667 1665 1662 1660 1659 1657 1656 1654 1651 1650 1648 1647 1646 1645 1645 1643 1641 1640 1639 1638 1636 1635 1633 1632 1631 1630 1627 1625 1625 1624 1624 1622 1620 1619 1617 1617 1616 1615 1613 1613 1611 1611 1610 1610 1610 1609 1608 1607 1606 1605 1605 1604 1603 1603 1603 1602 1601 1600 1599 1599 1599 1598 1597 1597 1597 1596 1596 1595 1594 1592 1591 1588 1587 1586 1586 1586 1586 1586 1586 1585 1585 1585 1585 1585 1585 1585 1586 1586 1586 1586 1586 1586 1585 1585 1585 1585 1585 1585 1584 1584 1584 1584 1584 1584 1583 1583 1582 1582 1582 1582 1582 1582 1582 1581 1581 1581 1581 1580 1580 1580 1580 1580 1580 1580 1580 1580 1580 1580 1580 1580 1580 1580 1580 1580 1580 1580 1580 1580 1580 1582 1582 1583 1584 1584 1585 1586 1586 1587 1588 1589 1590 1591 1592 1594 1595 1596 1597 1598 1599 1600 1601 1602 1603 1604 1605 1606 1607 1608 1608 1609 1610 1611 1613 1614 1616 1617 1618 1618 1619 1619 1621 1621 1622 1623 1623 1624 1626 1626 1628 1629 1630 1632 1633 1633 1634 1634 1635 1635 1635 1635 1635 1635 1635 1635 1635 1635 1636 1637 1639 1640 1640 1641 1642 1645 1653 1657 1657 1657 1651 1640 1633 1631 0 0 0 0 0 0 0 0 0 0 0 0 0 0 0 0 0 0 0 0 0 0 0 0 0 0 0 0 0 0 0 0 0 0 0 0 0 0 0 0 0 0 0 0 0 0 0 0 0 0 0 0 0 0 0 0 0 0 0 0 0 0 0 0 0 0 0 0 0 0 0 0 0 0 0 0 0 0 0 0
2538 2538 2552 2552 2552 2536 2536 2536 2560 2581 2601 2617 2654 2702 2738 2753 2753 2757 2758 2758 2768 2785 2785 2786 2793 2793 2803 2815 2833 2841 2854 2857 2860 2864 2874 2891 2893 2893 2893 2892 2891 2891 2891 2891 2895 2898 2898 2913 2921 2928 2930 2935 2944 2953 2962 2971 2971 2975 2975 2975 2981 2988 2997 3001 3010 3017 3028 3041 3047 3047 3047 3048 3048 3050 3054 3057 3061 3070 3083 3098 3107 3107 3107 3107 3107 3111 3117 3119 3124 3129 3137 3140 3140 3141 3142 3147 3153 3162 3166 3172 3180 3193 3199 3203 3213 3224 3235 3241 3241 3242 3243 3245 3250 3255 3257 3258 3261 3265 3265 3265 3263 3262 3261 3258 3253 3246 3237 3237 3237 3242 3250 3257 3257 3257 3225 3225 3225 3271 3282 3282 3282 3282 3282 3282 3283 3288 3289 3289 3293 3293 3293 3283 3276 3258 3258 3258 3259 3285 3292 3294 3294 3294 3295 3305 3319 3329 3329 3329 3328 3328 3328 3333 3333 3333 3333 3333 3329 3322 3317 3308 3300 3300 3299 3298 3298 3295 3292 3289 3287 3280 3268 3252 3251 3249 3248 3248 3247 3246 3242 3224 3199 3184 3183 3183 3183 3189 3197 3206 3206 3206 3208 3208 3208 3210 3210 3210 3211 3212 3214 3214 3214 3212 3198 3176 3152 3133 3128 3127 3126 3125 3115 3111 3111 3109 3108 3097 3082 3071 3071 3071 3067 3060 3033 2994 2949 2863 2655 2655 2655 2848 3101 3174 3181 3181 3181 3180 3174 3173 3166 3145 3117 3099 3088 3080 3054 3029 2994 2966 2941 2910 2859 2750 0 0 0 0 1923 1900 1875 1860 1852 1845 1836 1830 1827 1821 1817 1814 1810 1806 1802 1799 1796 1794 1791 1788 1784 1779 1775 1772 1771 1767 1764 1760 1756 1752 1750 1748 1745 1742 1739 1736 1733 1729 1725 1723 1720 1716 1712 1710 1707 1704 1701 1697 1692 1690 1687 1685 1684 1682 1678 1675 1672 1670 1669 1668 1666 1664 1663 1663 1661 1659 1657 1656 1653 1650 1648 1646 1644 1644 1643 1642 1642 1641 1639 1637 1636 1635 1634 1632 1630 1629 1629 1626 1625 1624 1623 1622 1621 1619 1619 1617 1616 1614 1613 1612 1610 1609 1608 1607 1607 1607 1606 1605 1605 1604 1603 1602 1602 1601 1601 1601 1600 1599 1598 1597 1597 1596 1596 1596 1595 1594 1594 1594 1593 1593 1591 1590 1589 1587 1586 1585 1585 1585 1584 1584 1584 1584 1583 1583 1583 1583 1583 1583 1584 1584 1584 1584 1584 1584 1584 1584 1584 1584 1583 1583 1583 1583 1583 1583 1582 1582 1582 1581 1581 1581 1580 1580 1580 1580 1580 1580 1580 1580 1580 1579 1579 1579 1579 1579 1579 1579 1579 1579 1579 1579 1579 1578 1578 1578 1578 1578 1578 1578 1578 1578 1578 1579 1581 1581 1581 1581 1582 1583 1584 1584 1585 1587 1588 1589 1590 1591 1592 1593 1595 1595 1596 1598 1600 1600 1601 1602 1603 1604 1605 1606 1607 1607 1609 1610 1611 1613 1616 1616 1617 1618 1618 1619 1620 1621 1622 1623 1623 1624 1626 1626 1628 1628 1629 1631 1632 1632 1633 1634 1635 1635 1635 1635 1635 1635 1635 1636 1636 1637 1638 1639 1640 1640 1641 1641 1642 1645 1646 1651 1653 1653 1653 1644 1636 1635 1635 1635 1643 1643 0 0 0 0 0 0 0 0 0 0 0 0 0 0 0 0 0 0 0 0 0 0 0 0 0 0 0 0 0 0 0 0 0 0 0 0 0 0 0 0 0 0 0 0 0 0 0 0 0 0 0 0 0 0 0 0 0 0 0 0 0 0 0 0 0 0 0 0 0 0 0 0 0 0 0 0
2570 2571 2570 2570 2563 2536 2536 2536 2560 2581 2595 2617 2652 2702 2738 2744 2751 2757 2758 2758 2768 2781 2782 2784 2793 2793 2803 2814 2833 2841 2859 2868 2878 2883 2887 2893 2895 2895 2893 2894 2894 2894 2901 2902 2903 2903 2907 2913 2921 2926 2931 2936 2944 2951 2961 2970 2972 2973 2973 2977 2982 2989 2997 3003 3011 3018 3025 3027 3029 3037 3044 3047 3047 3047 3051 3057 3061 3070 3084 3101 3105 3105 3106 3106 3106 3112 3119 3126 3131 3133 3137 3139 3140 3140 3143 3148 3156 3168 3176 3185 3193 3197 3201 3205 3213 3224 3235 3241 3241 3243 3245 3248 3250 3256 3258 3258 3262 3266 3266 3266 3264 3264 3263 3260 3255 3249 3239 3239 3239 3242 3252 3252 3252 3246 3225 3225 3225 3275 3282 3282 3282 3275 3275 3275 3281 3289 3295 3296 3296 3296 3295 3283 3271 3253 3253 3253 3270 3285 3299 3299 3299 3307 3307 3317 3330 3331 3331 3331 3329 3329 3329 3333 3333 3333 3333 3333 3329 3322 3319 3313 3311 3311 3311 3311 3311 3299 3292 3288 3287 3285 3279 3265 3254 3254 3253 3250 3249 3247 3243 3228 3206 3184 3181 3181 3181 3185 3197 3206 3206 3206 3208 3208 3208 3214 3214 3217 3217 3226 3231 3231 3231 3220 3202 3180 3152 3136 3131 3130 3128 3125 3115 3111 3106 3103 3100 3091 3082 3073 3072 3070 3070 3060 3034 2990 2948 2790 2627 2627 2627 2974 3133 3187 3193 3193 3193 3189 3181 3174 3168 3146 3119 3100 3091 3083 3061 3029 2994 2966 2938 2899 2840 2686 0 0 0 1940 1911 1886 1869 1860 1852 1843 1836 1831 1828 1819 1816 1812 1808 1805 1801 1799 1796 1793 1790 1786 1781 1777 1773 1770 1768 1766 1763 1759 1756 1752 1749 1747 1745 1742 1738 1733 1729 1726 1723 1721 1717 1713 1709 1706 1703 1701 1697 1693 1689 1687 1683 1681 1680 1678 1675 1673 1670 1668 1667 1665 1664 1662 1662 1661 1660 1658 1655 1654 1651 1648 1645 1643 1642 1641 1640 1639 1638 1637 1635 1634 1633 1633 1631 1629 1628 1627 1626 1624 1623 1621 1620 1619 1617 1617 1616 1615 1613 1611 1609 1609 1608 1607 1606 1605 1604 1604 1604 1602 1601 1601 1600 1599 1598 1597 1597 1597 1596 1596 1595 1594 1594 1594 1593 1593 1593 1592 1592 1591 1590 1590 1589 1589 1588 1586 1585 1584 1583 1583 1582 1582 1582 1581 1581 1581 1581 1581 1582 1582 1582 1582 1582 1582 1582 1582 1583 1582 1582 1582 1582 1581 1581 1581 1581 1581 1581 1580 1580 1580 1579 1579 1579 1579 1579 1579 1579 1578 1578 1577 1577 1577 1577 1577 1577 1577 1578 1578 1578 1578 1578 1577 1577 1577 1577 1577 1576 1576 1576 1576 1576 1576 1577 1577 1578 1578 1578 1578 1579 1580 1581 1582 1583 1584 1586 1586 1587 1587 1588 1590 1592 1594 1594 1596 1597 1599 1599 1600 1601 1602 1603 1604 1605 1606 1608 1610 1610 1613 1614 1616 1617 1617 1618 1619 1619 1620 1621 1622 1623 1623 1625 1626 1627 1628 1629 1631 1631 1632 1633 1634 1635 1636 1636 1636 1636 1636 1636 1636 1637 1638 1640 1640 1640 1640 1642 1642 1642 1645 1646 1649 1652 1652 1652 1648 1643 1641 1641 1641 1646 1664 1672 1673 1673 1672 1637 0 0 0 0 0 0 0 0 0 0 0 0 0 0 0 0 0 0 0 0 0 0 0 0 0 0 0 0 0 0 0 0 0 0 0 0 0 0 0 0 0 0 0 0 0 0 0 0 0 0 0 0 0 0 0 0 0 0 0 0 0 0 0 0 0 0 0 0 0 0 0
2574 2574 2577 2577 2577 2560 2560 2560 2574 2581 2595 2617 2644 2689 2694 2743 2758 2759 2760 2760 2768 2784 2784 2785 2787 2794 2803 2814 2826 2841 2860 2878 2888 2900 2916 2916 2916 2904 2901 2900 2900 2900 2903 2905 2906 2907 2909 2913 2916 2921 2931 2943 2948 2951 2959 2963 2969 2971 2974 2982 2990 2994 3002 3004 3014 3019 3024 3025 3029 3037 3044 3046 3047 3047 3049 3055 3061 3070 3087 3101 3105 3105 3107 3107 3107 3114 3119 3126 3131 3136 3139 3139 3140 3141 3143 3148 3157 3169 3182 3194 3201 3201 3201 3205 3213 3223 3235 3241 3241 3243 3245 3248 3253 3256 3258 3260 3263 3266 3266 3266 3264 3264 3264 3264 3264 3263 3260 3251 3251 3251 3253 3253 3253 3246 3227 3227 3227 3279 3282 3282 3282 3275 3275 3275 3281 3291 3295 3298 3298 3298 3295 3285 3271 3253 3253 3253 3271 3285 3299 3307 3307 3308 3312 3329 3338 3338 3338 3332 3329 3329 3329 3333 3333 3333 3333 3333 3328 3326 3319 3318 3318 3318 3318 3318 3317 3304 3292 3285 3285 3284 3279 3265 3261 3261 3260 3255 3249 3248 3247 3229 3209 3184 3161 3161 3161 3180 3197 3206 3206 3206 3209 3209 3209 3214 3215 3220 3225 3237 3245 3245 3245 3224 3207 3183 3159 3143 3139 3138 3133 3125 3113 3104 3094 3087 3079 3070 3070 3070 3072 3072 3072 3060 3029 2990 2941 2764 2737 2737 2737 3022 3147 3191 3199 3199 3199 3199 3192 3183 3169 3150 3122 3101 3098 3095 3071 3037 3001 2966 2931 2890 2826 2609 0 0 0 1931 1909 1882 1868 1858 1852 1843 1835 1831 1828 1819 1814 1810 1807 1803 1801 1798 1796 1793 1788 1785 1780 1776 1771 1768 1766 1765 1763 1759 1755 1752 1748 1746 1743 1740 1735 1731 1727 1725 1722 1718 1715 1711 1706 1702 1699 1696 1693 1689 1686 1683 1679 1676 1676 1673 1671 1669 1667 1666 1664 1662 1661 1660 1659 1658 1657 1655 1653 1651 1649 1647 1644 1641 1640 1638 1637 1637 1635 1633 1631 1630 1630 1629 1629 1627 1626 1624 1623 1622 1622 1620 1618 1617 1615 1615 1614 1612 1610 1608 1607 1607 1607 1606 1604 1603 1602 1602 1601 1599 1599 1598 1597 1596 1595 1595 1595 1594 1594 1593 1592 1592 1591 1590 1590 1590 1590 1590 1590 1589 1589 1588 1588 1587 1586 1586 1583 1582 1582 1581 1581 1580 1580 1580 1580 1580 1580 1580 1580 1580 1580 1580 1580 1581 1581 1581 1581 1581 1581 1581 1580 1580 1580 1580 1580 1580 1579 1578 1578 1578 1577 1577 1577 1576 1576 1576 1576 1576 1576 1576 1576 1576 1576 1576 1576 1576 1576 1576 1576 1576 1576 1576 1576 1576 1575 1575 1575 1575 1574 1574 1574 1574 1574 1575 1575 1575 1576 1576 1576 1577 1577 1578 1580 1582 1583 1583 1584 1585 1585 1587 1589 1590 1592 1593 1595 1595 1597 1598 1598 1600 1601 1603 1604 1605 1606 1608 1610 1611 1613 1614 1615 1617 1617 1618 1619 1620 1621 1622 1622 1623 1624 1626 1627 1628 1629 1630 1631 1632 1633 1634 1635 1636 1636 1636 1636 1636 1637 1638 1639 1639 1640 1641 1641 1642 1643 1646 1646 1646 1646 1649 1651 1651 1651 1653 1653 1650 1653 1653 1653 1664 1672 1673 1673 1673 1672 1642 1640 0 0 0 0 0 0 0 0 0 0 0 0 0 0 0 0 0 0 0 0 0 0 0 0 0 0 0 0 0 0 0 0 0 0 0 0 0 0 0 0 0 0 0 0 0 0 0 0 0 0 0 0 0 0 0 0 0 0 0 0 0 0 0 0 0 0 0 0 0
2574 2574 2595 2595 2595 2582 2582 2581 2582 2586 2601 2618 2644 2672 2678 2721 2751 2758 2759 2760 2769 2783 2785 2787 2789 2803 2806 2814 2826 2840 2860 2878 2889 2900 2916 2917 2917 2917 2909 2909 2909 2911 2912 2912 2912 2911 2911 2911 2915 2919 2929 2943 2948 2952 2959 2962 2969 2971 2976 2985 2996 3002 3005 3018 3019 3019 3024 3025 3029 3037 3044 3046 3047 3047 3049 3055 3061 3074 3087 3103 3105 3105 3107 3107 3107 3115 3121 3126 3131 3136 3139 3139 3141 3143 3147 3152 3160 3171 3182 3196 3202 3204 3204 3208 3213 3223 3232 3234 3237 3243 3245 3249 3253 3257 3258 3262 3264 3269 3272 3272 3273 3273 3273 3277 3283 3283 3283 3277 3275 3274 3272 3271 3268 3246 3227 3227 3227 3279 3281 3281 3281 3275 3275 3275 3281 3291 3295 3298 3298 3298 3295 3285 3271 3256 3256 3256 3272 3286 3299 3307 3315 3318 3321 3330 3341 3341 3341 3334 3333 3333 3333 3333 3333 3333 3332 3332 3328 3324 3320 3318 3318 3318 3319 3319 3319 3306 3292 3285 3282 3280 3279 3265 3264 3264 3264 3261 3261 3257 3251 3238 3215 3189 3161 3161 3161 3180 3194 3196 3200 3201 3206 3206 3211 3216 3218 3220 3233 3246 3250 3250 3250 3236 3221 3195 3171 3161 3161 3155 3133 3110 3098 3083 3074 3071 3068 3068 3070 3070 3072 3072 3072 3060 3029 2982 2887 2667 2667 2667 2761 3056 3158 3193 3206 3206 3206 3199 3192 3183 3170 3156 3130 3116 3106 3096 3076 3044 3008 2969 2926 2884 2766 0 0 0 1954 1930 1901 1875 1861 1854 1852 1841 1835 1831 1828 1819 1814 1810 1807 1803 1801 1798 1795 1791 1788 1783 1779 1774 1771 1768 1765 1763 1760 1758 1755 1751 1747 1744 1742 1737 1733 1729 1725 1722 1719 1715 1711 1708 1703 1699 1695 1692 1690 1687 1684 1681 1676 1674 1672 1670 1667 1665 1664 1662 1662 1660 1659 1658 1656 1656 1654 1652 1651 1648 1646 1644 1641 1638 1636 1636 1634 1634 1632 1631 1630 1628 1627 1627 1626 1625 1624 1623 1621 1620 1619 1617 1615 1615 1614 1613 1610 1608 1607 1606 1605 1604 1604 1602 1601 1601 1600 1599 1597 1597 1595 1595 1595 1594 1594 1593 1593 1592 1592 1591 1590 1589 1589 1588 1588 1588 1588 1588 1588 1588 1586 1586 1586 1585 1585 1584 1583 1581 1580 1579 1579 1578 1578 1578 1578 1578 1578 1578 1578 1578 1578 1578 1579 1579 1579 1579 1579 1580 1579 1579 1579 1579 1578 1578 1578 1576 1576 1576 1575 1575 1575 1574 1574 1574 1574 1574 1573 1573 1573 1574 1574 1574 1574 1574 1574 1575 1575 1575 1575 1575 1574 1574 1574 1574 1573 1573 1572 1572 1572 1572 1572 1572 1572 1572 1573 1573 1573 1574 1574 1574 1574 1576 1576 1579 1580 1581 1582 1582 1582 1585 1586 1588 1590 1591 1592 1593 1595 1596 1597 1598 1600 1602 1603 1603 1605 1606 1608 1611 1612 1613 1614 1616 1616 1618 1619 1620 1620 1621 1621 1622 1623 1626 1626 1628 1629 1630 1631 1632 1633 1634 1635 1636 1636 1636 1637 1638 1638 1639 1639 1640 1641 1641 1642 1644 1644 1646 1646 1647 1648 1649 1649 1650 1651 1651 1652 1652 1653 1654 1654 1661 1670 1672 1673 1673 1673 1673 1673 1668 0 0 0 0 0 0 0 0 0 0 0 0 0 0 0 0 0 0 0 0 0 0 0 0 0 0 0 0 0 0 0 0 0 0 0 0 0 0 0 0 0 0 0 0 0 0 0 0 0 0 0 0 0 0 0 0 0 0 0 0 0 0 0 0 0 0 0 0
2574 2574 2595 2606 2606 2606 2605 2603 2603 2605 2610 2623 2644 2672 2678 2706 2722 2749 2759 2760 2769 2783 2785 2787 2793 2806 2812 2817 2826 2840 2861 2878 2889 2900 2916 2918 2918 2918 2913 2913 2913 2915 2919 2919 2919 2910 2910 2910 2914 2918 2929 2943 2948 2949 2955 2962 2967 2973 2979 2988 2998 3004 3005 3018 3019 3019 3022 3030 3035 3043 3047 3047 3047 3047 3049 3055 3067 3075 3088 3103 3105 3105 3107 3107 3107 3115 3122 3128 3132 3139 3141 3143 3143 3147 3154 3163 3169 3176 3184 3196 3203 3206 3209 3210 3217 3223 3232 3234 3237 3241 3244 3249 3253 3257 3259 3262 3265 3271 3276 3279 3279 3280 3281 3286 3293 3294 3294 3294 3293 3292 3290 3286 3279 3256 3227 3227 3227 3279 3281 3281 3281 3281 3281 3281 3282 3292 3295 3301 3301 3301 3295 3285 3278 3269 3269 3269 3274 3286 3296 3307 3321 3328 3330 3336 3341 3341 3341 3338 3336 3336 3335 3335 3333 3333 3332 3332 3328 3324 3320 3318 3318 3318 3319 3319 3319 3307 3289 3273 3273 3273 3269 3269 3269 3267 3265 3261 3261 3260 3257 3247 3227 3205 3177 3177 3177 3180 3194 3196 3200 3201 3206 3206 3211 3216 3220 3230 3237 3251 3257 3257 3257 3248 3230 3206 3194 3184 3168 3155 3133 3106 3096 3083 3074 3071 3068 3068 3070 3070 3077 3077 3077 3052 3023 2971 2823 2618 2618 2618 2870 3082 3172 3201 3208 3208 3208 3199 3192 3183 3170 3158 3142 3129 3120 3101 3076 3050 3013 2969 2926 2857 2681 0 0 0 1953 1926 1898 1872 1855 1851 1850 1840 1834 1829 1826 1818 1813 1809 1805 1803 1801 1798 1794 1790 1786 1782 1778 1774 1770 1767 1763 1760 1757 1754 1752 1750 1747 1743 1739 1735 1730 1727 1724 1720 1715 1713 1709 1705 1701 1696 1692 1689 1686 1684 1681 1677 1674 1671 1669 1667 1665 1663 1661 1659 1658 1657 1656 1655 1654 1653 1651 1650 1647 1644 1643 1641 1639 1636 1634 1633 1632 1632 1630 1629 1628 1627 1625 1624 1624 1623 1622 1620 1618 1617 1615 1614 1613 1612 1611 1610 1608 1606 1605 1603 1602 1601 1601 1599 1598 1597 1596 1596 1596 1594 1594 1593 1593 1592 1592 1591 1590 1590 1589 1588 1588 1588 1587 1587 1587 1586 1586 1586 1586 1586 1585 1585 1585 1584 1582 1581 1581 1580 1579 1579 1577 1577 1576 1576 1576 1576 1576 1576 1576 1576 1577 1577 1577 1578 1578 1578 1578 1577 1577 1577 1577 1577 1577 1577 1576 1575 1575 1575 1574 1573 1573 1572 1571 1571 1571 1571 1571 1572 1572 1572 1573 1573 1573 1573 1573 1573 1573 1573 1573 1573 1573 1572 1572 1571 1571 1570 1570 1570 1570 1570 1570 1570 1570 1570 1570 1571 1571 1572 1572 1572 1573 1573 1574 1575 1577 1578 1579 1580 1581 1581 1583 1586 1587 1588 1590 1591 1593 1594 1594 1596 1598 1600 1600 1602 1604 1605 1605 1608 1609 1613 1613 1614 1616 1617 1619 1619 1620 1621 1621 1622 1623 1625 1626 1628 1628 1629 1631 1632 1633 1634 1636 1636 1636 1637 1637 1638 1639 1639 1640 1640 1641 1642 1642 1644 1644 1647 1647 1648 1649 1651 1651 1651 1651 1651 1652 1653 1653 1654 1655 1658 1669 1670 1672 1673 1673 1676 1676 1676 0 0 0 0 0 0 0 0 0 0 0 0 0 0 0 0 0 0 0 0 0 0 0 0 0 0 0 0 0 0 0 0 0 0 0 0 0 0 0 0 0 0 0 0 0 0 0 0 0 0 0 0 0 0 0 0 0 0 0 0 0 0 0 0 0 0 0 0
2563 2563 2593 2612 2612 2612 2612 2612 2628 2635 2653 2658 2660 2672 2678 2706 2722 2747 2760 2761 2769 2783 2785 2787 2795 2810 2818 2825 2830 2840 2860 2875 2889 2897 2910 2919 2919 2919 2913 2913 2913 2915 2921 2921 2921 2912 2912 2912 2914 2919 2928 2936 2942 2950 2956 2962 2967 2973 2982 2991 3000 3004 3009 3018 3019 3020 3024 3033 3037 3047 3049 3049 3050 3050 3050 3062 3077 3092 3101 3106 3106 3106 3109 3109 3109 3119 3122 3128 3133 3140 3143 3145 3150 3153 3160 3169 3171 3179 3187 3196 3203 3208 3212 3215 3223 3229 3232 3234 3237 3241 3244 3249 3253 3257 3259 3262 3265 3272 3280 3280 3281 3283 3285 3289 3295 3298 3299 3300 3300 3300 3298 3293 3285 3256 3225 3225 3225 3241 3279 3279 3283 3282 3282 3283 3285 3293 3297 3304 3304 3304 3303 3298 3297 3291 3291 3290 3290 3292 3296 3308 3323 3332 3334 3339 3341 3341 3341 3339 3339 3338 3338 3336 3333 3333 3332 3332 3330 3326 3320 3317 3317 3317 3320 3320 3320 3307 3281 3265 3265 3265 3266 3266 3266 3267 3265 3261 3260 3260 3260 3257 3248 3230 3200 3180 3180 3180 3194 3196 3200 3201 3206 3214 3215 3218 3224 3235 3246 3256 3261 3261 3261 3248 3232 3217 3200 3184 3168 3155 3121 3104 3093 3083 3074 3071 3068 3068 3070 3070 3077 3077 3077 3052 3022 2970 2802 2684 2684 2684 2967 3150 3208 3215 3215 3215 3198 3189 3184 3181 3170 3159 3151 3143 3130 3112 3096 3067 3023 2978 2925 2834 2572 0 0 0 1945 1925 1897 1871 1855 1846 1843 1840 1834 1828 1823 1817 1812 1806 1803 1802 1801 1797 1792 1788 1785 1781 1777 1773 1770 1766 1762 1758 1755 1752 1750 1748 1745 1742 1738 1732 1728 1724 1720 1717 1713 1710 1706 1703 1698 1692 1688 1685 1683 1681 1678 1674 1671 1669 1667 1666 1664 1660 1659 1657 1656 1654 1654 1653 1652 1651 1649 1647 1644 1643 1641 1639 1637 1634 1633 1632 1630 1630 1628 1627 1626 1624 1623 1623 1622 1622 1619 1618 1616 1614 1614 1612 1610 1610 1608 1607 1605 1605 1603 1601 1600 1599 1597 1597 1595 1594 1593 1593 1593 1592 1592 1592 1590 1590 1589 1588 1588 1587 1587 1586 1585 1585 1585 1585 1584 1583 1583 1583 1584 1584 1584 1584 1583 1582 1581 1579 1579 1578 1578 1577 1576 1575 1575 1574 1574 1574 1574 1574 1575 1575 1575 1575 1575 1575 1576 1576 1576 1575 1575 1575 1575 1575 1575 1574 1574 1574 1573 1573 1573 1572 1571 1570 1569 1569 1569 1569 1569 1569 1570 1570 1571 1571 1571 1571 1571 1571 1571 1571 1571 1571 1570 1570 1570 1570 1569 1569 1568 1568 1568 1568 1568 1568 1568 1568 1568 1568 1568 1570 1570 1570 1570 1570 1572 1574 1574 1576 1576 1577 1578 1580 1582 1583 1584 1586 1588 1589 1590 1592 1592 1593 1595 1596 1598 1599 1600 1601 1603 1607 1608 1609 1612 1614 1615 1615 1617 1618 1620 1620 1620 1621 1623 1625 1626 1628 1628 1629 1631 1632 1634 1635 1636 1637 1637 1637 1638 1639 1640 1640 1640 1641 1642 1642 1643 1644 1644 1647 1647 1648 1650 1651 1651 1651 1652 1651 1651 1651 1653 1653 1656 1658 1662 1667 1670 1672 1674 1679 1690 1690 1690 1688 1675 1671 0 0 0 0 0 0 0 0 0 0 0 0 0 0 0 0 0 0 0 0 0 0 0 0 0 0 0 0 0 0 0 0 0 0 0 0 0 0 0 0 0 0 0 0 0 0 0 0 0 0 0 0 0 0 0 0 0 0 0 0 0 0 0 0
2561 2561 2591 2617 2617 2617 2629 2629 2639 2653 2677 2686 2690 2691 2691 2706 2722 2747 2760 2761 2769 2777 2785 2787 2795 2810 2818 2835 2839 2848 2860 2874 2876 2894 2910 2919 2919 2919 2914 2914 2914 2916 2921 2921 2921 2913 2913 2913 2915 2921 2928 2936 2942 2952 2959 2962 2967 2976 2984 2994 3000 3009 3016 3018 3019 3022 3025 3033 3040 3048 3052 3053 3053 3053 3055 3062 3077 3092 3107 3110 3110 3111 3111 3111 3116 3122 3127 3131 3136 3141 3147 3150 3153 3157 3165 3172 3180 3186 3188 3196 3202 3208 3213 3218 3226 3232 3234 3235 3237 3241 3244 3251 3253 3257 3259 3262 3265 3274 3283 3285 3285 3288 3289 3296 3300 3302 3303 3303 3303 3301 3298 3294 3289 3266 3251 3241 3225 3225 3241 3243 3261 3278 3283 3290 3295 3298 3299 3304 3304 3304 3305 3304 3303 3298 3298 3298 3298 3298 3298 3310 3325 3333 3336 3340 3341 3341 3341 3340 3339 3339 3339 3336 3334 3334 3333 3333 3332 3326 3321 3317 3317 3317 3319 3319 3319 3307 3280 3265 3265 3265 3266 3266 3266 3266 3261 3257 3257 3260 3257 3257 3253 3243 3219 3202 3202 3202 3202 3202 3205 3206 3216 3219 3219 3222 3231 3241 3252 3257 3261 3261 3261 3248 3232 3217 3200 3184 3168 3147 3120 3102 3089 3086 3086 3086 3086 3086 3070 3070 3070 3070 3063 3052 3020 2932 2690 2690 2690 2788 3069 3201 3213 3217 3217 3217 3198 3183 3172 3168 3167 3159 3151 3143 3130 3112 3096 3071 3033 2978 2924 2752 0 0 0 1956 1943 1919 1896 1871 1855 1843 1841 1838 1834 1828 1821 1817 1812 1806 1802 1800 1797 1794 1790 1786 1782 1779 1775 1773 1769 1766 1761 1757 1754 1750 1747 1746 1743 1740 1735 1729 1725 1722 1718 1714 1710 1707 1703 1698 1692 1688 1685 1682 1679 1676 1673 1671 1669 1667 1666 1663 1661 1659 1656 1654 1653 1653 1652 1651 1650 1649 1647 1645 1643 1641 1640 1638 1635 1633 1631 1629 1629 1627 1627 1625 1624 1622 1621 1620 1620 1619 1618 1616 1615 1613 1612 1611 1609 1607 1606 1605 1604 1602 1601 1599 1597 1597 1595 1594 1593 1593 1592 1591 1590 1590 1590 1590 1588 1588 1586 1586 1586 1585 1585 1583 1583 1583 1582 1582 1581 1581 1581 1581 1581 1581 1581 1581 1581 1580 1578 1577 1577 1576 1576 1576 1575 1574 1572 1572 1572 1572 1572 1572 1573 1573 1573 1573 1573 1573 1573 1573 1573 1573 1572 1572 1572 1571 1571 1571 1571 1571 1571 1571 1570 1569 1569 1568 1567 1567 1567 1567 1567 1568 1568 1568 1568 1569 1569 1569 1569 1569 1569 1569 1569 1569 1569 1568 1568 1568 1568 1567 1567 1567 1566 1566 1566 1566 1566 1566 1566 1567 1567 1567 1568 1568 1568 1568 1570 1570 1572 1574 1575 1575 1575 1577 1579 1580 1582 1584 1585 1586 1588 1589 1589 1591 1592 1593 1595 1596 1598 1599 1601 1603 1605 1606 1607 1609 1612 1613 1614 1616 1618 1619 1620 1621 1623 1624 1625 1626 1627 1628 1631 1632 1634 1635 1636 1637 1638 1638 1639 1639 1641 1642 1642 1642 1643 1643 1645 1645 1647 1647 1647 1649 1650 1651 1653 1653 1653 1653 1651 1651 1653 1653 1656 1658 1659 1666 1667 1667 1673 1676 1684 1688 1688 1688 1675 1672 0 0 0 0 0 0 0 0 0 0 0 0 0 0 0 0 0 0 0 0 0 0 0 0 0 0 0 0 0 0 0 0 0 0 0 0 0 0 0 0 0 0 0 0 0 0 0 0 0 0 0 0 0 0 0 0 0 0 0 0 0 0 0 0
2561 2561 2579 2611 2634 2638 2643 2653 2654 2667 2677 2687 2693 2695 2699 2710 2729 2747 2760 2761 2769 2777 2784 2785 2795 2810 2818 2835 2848 2854 2860 2871 2876 2894 2910 2919 2919 2919 2918 2916 2916 2916 2922 2922 2922 2919 2919 2919 2921 2924 2928 2936 2942 2953 2959 2964 2969 2979 2992 2994 3002 3012 3016 3018 3019 3022 3025 3034 3040 3048 3056 3057 3058 3060 3061 3063 3081 3096 3107 3115 3117 3118 3118 3118 3122 3126 3130 3138 3153 3155 3157 3157 3158 3160 3168 3174 3181 3186 3191 3196 3202 3208 3213 3220 3227 3233 3236 3237 3237 3241 3245 3252 3253 3257 3259 3262 3268 3275 3284 3291 3292 3293 3295 3301 3305 3306 3307 3307 3306 3304 3301 3295 3293 3288 3271 3266 3241 3241 3241 3241 3258 3271 3283 3290 3296 3301 3303 3306 3306 3306 3306 3305 3303 3305 3303 3302 3302 3303 3303 3310 3327 3335 3336 3341 3343 3343 3343 3340 3340 3340 3340 3338 3335 3335 3335 3335 3335 3329 3322 3317 3317 3317 3319 3319 3319 3307 3280 3265 3265 3265 3267 3267 3267 3266 3261 3257 3257 3259 3257 3257 3256 3248 3227 3215 3215 3213 3213 3215 3215 3216 3219 3224 3231 3233 3237 3242 3253 3258 3261 3261 3261 3247 3232 3217 3200 3180 3168 3139 3113 3101 3093 3093 3093 3089 3089 3089 3069 3067 3067 3061 3059 3052 3013 2895 2679 2679 2679 2888 3103 3201 3213 3218 3218 3218 3198 3183 3171 3166 3162 3159 3151 3143 3130 3112 3096 3072 3033 2978 2906 2702 0 0 0 1953 1938 1915 1892 1869 1852 1841 1840 1836 1832 1827 1817 1815 1809 1804 1802 1799 1796 1793 1789 1784 1780 1777 1774 1771 1767 1764 1759 1756 1752 1749 1746 1744 1740 1736 1731 1725 1723 1718 1715 1712 1707 1703 1698 1693 1689 1685 1681 1679 1675 1673 1671 1668 1668 1665 1662 1661 1658 1655 1652 1650 1650 1650 1650 1649 1647 1647 1645 1643 1641 1640 1638 1636 1633 1631 1629 1628 1626 1625 1624 1622 1622 1620 1619 1619 1618 1617 1617 1614 1612 1611 1610 1609 1607 1605 1604 1602 1601 1600 1599 1597 1596 1594 1593 1593 1592 1591 1591 1590 1589 1588 1587 1586 1586 1586 1585 1585 1583 1583 1582 1581 1581 1581 1581 1581 1581 1580 1579 1579 1579 1579 1579 1579 1578 1578 1577 1574 1574 1574 1574 1574 1573 1572 1572 1571 1571 1571 1571 1571 1570 1570 1571 1570 1570 1571 1570 1570 1570 1570 1570 1570 1569 1569 1569 1569 1569 1569 1569 1569 1568 1567 1567 1566 1565 1565 1565 1565 1565 1565 1565 1566 1566 1566 1567 1567 1567 1568 1568 1568 1568 1568 1566 1566 1566 1566 1566 1566 1565 1565 1565 1564 1564 1564 1564 1564 1564 1565 1565 1566 1567 1567 1568 1568 1569 1570 1571 1571 1572 1572 1572 1574 1576 1577 1579 1581 1583 1584 1584 1585 1586 1587 1589 1590 1592 1593 1594 1596 1597 1599 1601 1604 1606 1607 1608 1611 1612 1613 1615 1617 1619 1620 1622 1623 1625 1625 1626 1628 1630 1632 1634 1635 1637 1637 1639 1639 1640 1641 1642 1644 1645 1645 1646 1646 1647 1647 1648 1649 1649 1649 1650 1652 1653 1655 1655 1655 1653 1653 1653 1654 1656 1658 1659 1661 1666 1667 1667 1668 1680 1688 1688 1688 1675 1675 1672 0 0 0 0 0 0 0 0 0 0 0 0 0 0 0 0 0 0 0 0 0 0 0 0 0 0 0 0 0 0 0 0 0 0 0 0 0 0 0 0 0 0 0 0 0 0 0 0 0 0 0 0 0 0 0 0 0 0 0 0 0 0 0
2561 2561 2579 2610 2651 2677 2680 2680 2678 2678 2680 2691 2693 2701 2714 2725 2745 2762 2763 2764 2771 2777 2784 2785 2797 2812 2818 2835 2848 2854 2860 2871 2876 2894 2912 2920 2920 2920 2918 2918 2918 2919 2926 2926 2926 2929 2929 2931 2934 2935 2937 2938 2948 2959 2959 2967 2976 2988 2996 3001 3003 3013 3016 3021 3024 3031 3035 3041 3047 3051 3058 3063 3063 3064 3066 3066 3085 3101 3110 3118 3120 3121 3123 3126 3127 3130 3136 3148 3158 3163 3163 3164 3164 3167 3169 3176 3182 3188 3191 3199 3204 3208 3214 3223 3229 3237 3240 3241 3242 3244 3248 3252 3254 3260 3262 3265 3271 3277 3288 3297 3300 3300 3302 3304 3308 3308 3309 3309 3307 3304 3301 3297 3295 3292 3290 3276 3266 3248 3248 3248 3257 3263 3265 3290 3296 3304 3308 3308 3308 3308 3308 3307 3305 3305 3305 3306 3306 3306 3309 3311 3327 3336 3339 3341 3342 3342 3342 3341 3341 3341 3340 3339 3339 3338 3338 3337 3337 3330 3325 3321 3319 3319 3319 3319 3319 3299 3280 3268 3268 3268 3271 3271 3272 3271 3270 3266 3257 3256 3256 3255 3253 3253 3243 3237 3235 3233 3232 3224 3222 3222 3222 3229 3236 3243 3245 3250 3254 3258 3258 3258 3256 3240 3227 3211 3197 3178 3155 3129 3113 3101 3096 3096 3093 3092 3092 3089 3069 3065 3065 3061 3055 3052 2996 2839 2650 2650 2650 2943 3139 3201 3213 3218 3218 3218 3207 3183 3168 3160 3157 3157 3150 3142 3126 3111 3095 3072 3033 2978 2870 2533 0 0 1952 1937 1924 1898 1883 1869 1852 1840 1840 1833 1830 1824 1813 1809 1805 1804 1802 1799 1795 1791 1787 1782 1779 1775 1772 1768 1765 1761 1758 1754 1750 1746 1743 1741 1738 1733 1727 1721 1719 1716 1712 1709 1706 1702 1697 1691 1687 1684 1681 1677 1673 1671 1668 1667 1665 1663 1660 1657 1655 1652 1650 1649 1649 1649 1647 1646 1645 1643 1641 1641 1639 1636 1635 1633 1631 1630 1628 1626 1624 1623 1622 1621 1620 1619 1618 1616 1616 1615 1614 1611 1610 1608 1607 1606 1604 1602 1601 1600 1598 1597 1596 1595 1594 1592 1591 1591 1590 1590 1589 1589 1587 1587 1585 1584 1584 1583 1582 1581 1580 1580 1579 1579 1579 1579 1579 1579 1579 1579 1577 1577 1577 1577 1576 1576 1576 1576 1574 1573 1573 1572 1572 1571 1571 1570 1570 1570 1570 1569 1569 1569 1569 1568 1568 1567 1567 1567 1568 1567 1567 1567 1567 1566 1566 1566 1567 1567 1567 1567 1567 1566 1566 1564 1564 1563 1563 1563 1563 1563 1564 1564 1564 1564 1564 1564 1564 1565 1565 1566 1566 1566 1566 1566 1565 1565 1565 1565 1564 1564 1563 1563 1563 1562 1562 1562 1562 1562 1562 1562 1563 1564 1565 1566 1567 1567 1568 1568 1568 1569 1570 1571 1572 1572 1573 1574 1576 1579 1581 1581 1581 1583 1584 1586 1586 1587 1588 1590 1592 1593 1595 1595 1599 1601 1604 1605 1607 1609 1610 1612 1614 1615 1617 1619 1621 1623 1624 1625 1626 1628 1630 1632 1634 1635 1637 1637 1639 1640 1640 1642 1643 1644 1645 1645 1646 1647 1648 1649 1649 1650 1650 1650 1650 1652 1653 1655 1655 1655 1655 1655 1655 1655 1657 1657 1658 1659 1662 1664 1665 1666 1673 1673 1677 1677 1673 1673 1677 1680 1680 1680 0 0 0 0 0 0 0 0 0 0 0 0 0 0 0 0 0 0 0 0 0 0 0 0 0 0 0 0 0 0 0 0 0 0 0 0 0 0 0 0 0 0 0 0 0 0 0 0 0 0 0 0 0 0 0 0 0 0 0 0
2562 2562 2579 2610 2651 2686 2690 2690 2690 2693 2693 2693 2698 2707 2728 2750 2761 2765 2774 2778 2784 2785 2786 2786 2797 2812 2818 2838 2848 2855 2860 2871 2888 2898 2913 2925 2925 2925 2921 2921 2921 2923 2926 2926 2930 2930 2940 2945 2945 2946 2948 2949 2962 2965 2974 2978 2984 2991 3003 3004 3008 3014 3020 3025 3031 3036 3044 3049 3058 3062 3067 3071 3071 3075 3075 3075 3085 3101 3110 3118 3122 3125 3126 3128 3129 3133 3141 3150 3159 3163 3167 3170 3172 3173 3173 3176 3183 3189 3191 3199 3205 3208 3217 3228 3235 3241 3244 3244 3245 3246 3249 3253 3257 3260 3265 3268 3271 3278 3289 3300 3304 3304 3305 3305 3310 3312 3312 3312 3309 3304 3301 3297 3297 3294 3292 3282 3270 3251 3251 3251 3257 3263 3265 3294 3297 3305 3309 3310 3310 3310 3309 3308 3306 3306 3306 3308 3309 3310 3312 3316 3327 3339 3343 3343 3343 3343 3342 3342 3342 3341 3341 3339 3339 3338 3338 3337 3337 3331 3326 3321 3321 3321 3321 3321 3319 3299 3283 3277 3272 3272 3272 3272 3274 3280 3280 3280 3274 3258 3256 3255 3253 3253 3251 3246 3245 3235 3232 3224 3224 3224 3229 3233 3243 3253 3258 3262 3262 3262 3262 3253 3246 3240 3227 3211 3197 3178 3155 3129 3113 3101 3097 3097 3097 3092 3091 3077 3061 3056 3052 3052 3052 3034 2928 2720 2720 2720 2763 3051 3161 3197 3210 3218 3218 3218 3207 3190 3166 3159 3157 3156 3150 3142 3116 3108 3093 3071 3025 2949 2823 0 0 0 1945 1933 1914 1893 1880 1865 1852 1840 1836 1832 1829 1824 1813 1808 1805 1802 1801 1798 1794 1789 1784 1780 1776 1773 1769 1765 1762 1758 1754 1750 1746 1742 1739 1737 1733 1728 1723 1719 1715 1712 1709 1708 1704 1700 1694 1689 1686 1683 1679 1676 1672 1669 1667 1665 1663 1660 1657 1655 1653 1651 1649 1648 1648 1647 1645 1643 1642 1640 1639 1636 1636 1633 1632 1630 1628 1627 1625 1624 1622 1621 1620 1618 1617 1617 1616 1614 1614 1613 1611 1609 1607 1606 1605 1603 1602 1600 1598 1598 1596 1595 1594 1593 1592 1591 1591 1590 1589 1587 1587 1586 1586 1585 1584 1583 1582 1580 1580 1579 1577 1577 1577 1576 1576 1576 1576 1576 1576 1575 1575 1574 1574 1574 1574 1573 1573 1572 1572 1572 1571 1571 1570 1569 1568 1568 1568 1568 1568 1567 1567 1567 1567 1566 1566 1565 1565 1565 1565 1565 1565 1564 1563 1563 1563 1563 1563 1564 1564 1564 1564 1564 1563 1562 1562 1562 1562 1561 1561 1561 1562 1562 1562 1563 1563 1563 1563 1564 1564 1564 1564 1564 1564 1563 1563 1563 1562 1562 1562 1561 1561 1561 1561 1560 1560 1560 1560 1560 1561 1561 1561 1563 1563 1564 1565 1565 1566 1566 1566 1567 1568 1569 1570 1571 1572 1573 1573 1574 1575 1578 1579 1580 1582 1583 1583 1584 1585 1587 1588 1591 1592 1593 1595 1598 1601 1604 1605 1607 1608 1611 1613 1615 1616 1618 1618 1620 1622 1624 1626 1627 1629 1631 1634 1635 1637 1637 1639 1640 1641 1642 1643 1644 1645 1646 1646 1647 1648 1649 1650 1650 1650 1651 1651 1652 1653 1654 1655 1655 1655 1655 1655 1656 1658 1658 1658 1658 1659 1662 1663 1664 1666 1672 1672 1672 1672 1672 1677 1680 1689 1689 1689 0 0 0 0 0 0 0 0 0 0 0 0 0 0 0 0 0 0 0 0 0 0 0 0 0 0 0 0 0 0 0 0 0 0 0 0 0 0 0 0 0 0 0 0 0 0 0 0 0 0 0 0 0 0 0 0 0 0 0
2577 2577 2580 2611 2655 2686 2690 2691 2691 2693 2693 2693 2698 2721 2746 2752 2764 2775 2780 2788 2791 2799 2801 2801 2812 2818 2823 2838 2848 2855 2861 2876 2888 2898 2913 2925 2926 2929 2929 2929 2929 2932 2932 2934 2935 2942 2950 2950 2950 2955 2955 2963 2968 2980 2983 2988 2992 2999 3004 3011 3012 3016 3022 3029 3037 3043 3050 3059 3069 3072 3078 3081 3087 3089 3092 3093 3099 3106 3110 3118 3122 3126 3128 3129 3129 3136 3144 3156 3161 3167 3171 3174 3175 3175 3177 3179 3186 3195 3202 3210 3212 3216 3223 3231 3239 3243 3246 3246 3246 3246 3250 3255 3260 3263 3268 3270 3275 3279 3289 3303 3307 3307 3308 3308 3312 3315 3315 3315 3314 3309 3302 3301 3297 3294 3292 3282 3272 3261 3260 3260 3261 3263 3265 3294 3297 3305 3309 3310 3313 3313 3314 3314 3314 3309 3309 3309 3314 3315 3317 3320 3333 3347 3349 3349 3349 3346 3344 3343 3343 3342 3341 3339 3339 3338 3338 3337 3337 3331 3327 3325 3325 3324 3322 3322 3314 3292 3287 3286 3285 3284 3275 3275 3275 3281 3284 3284 3284 3270 3256 3256 3256 3257 3257 3257 3248 3235 3232 3228 3228 3228 3233 3238 3249 3272 3273 3273 3273 3268 3262 3253 3246 3240 3227 3211 3197 3178 3155 3129 3115 3108 3106 3097 3092 3088 3078 3062 3049 3040 3038 3038 3034 2997 2871 2695 2695 2695 2881 3107 3165 3197 3210 3218 3218 3218 3207 3190 3166 3158 3157 3156 3150 3142 3116 3104 3089 3067 3003 2917 2729 0 0 0 1940 1924 1906 1880 1862 1857 1848 1838 1834 1832 1828 1823 1812 1807 1804 1802 1799 1795 1790 1786 1781 1777 1774 1770 1765 1761 1757 1753 1751 1747 1743 1739 1736 1732 1729 1726 1721 1716 1713 1710 1709 1706 1702 1696 1690 1685 1682 1681 1677 1672 1669 1665 1662 1660 1660 1658 1656 1654 1652 1649 1648 1647 1646 1645 1643 1641 1639 1638 1635 1633 1631 1631 1630 1628 1627 1625 1623 1621 1620 1619 1619 1616 1616 1614 1614 1613 1611 1609 1608 1606 1606 1604 1602 1601 1599 1598 1597 1596 1595 1594 1592 1591 1590 1589 1589 1588 1587 1586 1586 1585 1585 1583 1581 1581 1579 1578 1577 1576 1575 1574 1574 1574 1573 1573 1572 1571 1571 1571 1571 1571 1571 1571 1571 1570 1570 1570 1570 1569 1569 1569 1568 1567 1567 1566 1565 1565 1565 1565 1565 1564 1564 1564 1564 1563 1562 1562 1562 1562 1562 1561 1560 1560 1560 1560 1561 1561 1562 1562 1562 1561 1561 1560 1560 1560 1560 1560 1560 1560 1560 1560 1561 1562 1562 1562 1562 1562 1562 1562 1562 1561 1561 1561 1561 1560 1560 1560 1559 1558 1558 1558 1558 1558 1558 1558 1558 1558 1558 1559 1560 1561 1561 1562 1563 1563 1564 1565 1565 1566 1566 1566 1569 1570 1570 1571 1572 1572 1573 1574 1576 1578 1579 1580 1580 1581 1582 1584 1586 1588 1589 1590 1592 1595 1599 1601 1603 1605 1607 1608 1610 1613 1614 1615 1616 1616 1619 1621 1624 1626 1629 1631 1633 1635 1637 1637 1639 1640 1641 1642 1643 1644 1645 1646 1647 1648 1648 1649 1650 1651 1651 1651 1651 1652 1653 1654 1655 1655 1655 1656 1657 1657 1658 1658 1658 1658 1659 1661 1663 1663 1664 1669 1669 1669 1669 1669 1669 1669 1689 1689 1689 1687 1686 1641 0 0 0 0 0 0 0 0 0 0 0 0 0 0 0 0 0 0 0 0 0 0 0 0 0 0 0 0 0 0 0 0 0 0 0 0 0 0 0 0 0 0 0 0 0 0 0 0 0 0 0 0 0 0 0 0
2602 2602 2609 2623 2663 2679 2690 2701 2701 2701 2701 2701 2709 2732 2748 2759 2772 2781 2783 2789 2800 2813 2816 2821 2830 2834 2838 2839 2848 2855 2863 2876 2888 2898 2913 2927 2934 2935 2936 2937 2937 2943 2947 2948 2949 2953 2956 2956 2956 2956 2956 2967 2983 2988 2993 2995 2998 3000 3008 3012 3015 3020 3024 3032 3040 3046 3056 3061 3069 3077 3082 3089 3099 3103 3107 3109 3110 3112 3116 3121 3125 3126 3128 3130 3135 3139 3148 3157 3163 3170 3175 3178 3179 3180 3180 3184 3191 3200 3209 3212 3212 3216 3224 3232 3239 3244 3246 3247 3248 3249 3255 3258 3261 3268 3271 3273 3275 3279 3291 3303 3310 3311 3312 3313 3315 3316 3316 3316 3314 3309 3306 3302 3297 3292 3290 3282 3279 3279 3279 3283 3287 3293 3294 3295 3297 3305 3309 3310 3313 3313 3314 3314 3314 3313 3313 3313 3314 3317 3318 3324 3338 3357 3357 3357 3356 3351 3345 3344 3343 3343 3342 3339 3339 3339 3339 3339 3338 3333 3328 3325 3325 3324 3322 3322 3309 3292 3292 3292 3293 3293 3293 3291 3291 3291 3295 3295 3295 3295 3281 3268 3265 3264 3262 3260 3248 3235 3232 3232 3232 3241 3242 3245 3258 3277 3284 3284 3284 3281 3266 3253 3246 3237 3227 3206 3194 3176 3154 3128 3115 3113 3106 3097 3088 3082 3067 3045 3035 3029 3029 3029 3016 2977 2820 2700 2700 2700 2912 3122 3182 3197 3210 3218 3218 3218 3205 3190 3165 3157 3157 3156 3153 3142 3116 3104 3085 3047 2985 2885 2618 0 0 0 1934 1920 1894 1862 1854 1853 1848 1838 1834 1831 1828 1823 1812 1807 1802 1798 1795 1792 1787 1783 1778 1774 1771 1767 1763 1758 1754 1751 1747 1744 1740 1735 1732 1729 1726 1723 1719 1716 1712 1708 1706 1702 1697 1690 1686 1683 1680 1677 1673 1669 1666 1662 1659 1657 1657 1654 1654 1651 1649 1648 1646 1644 1643 1641 1639 1637 1636 1634 1632 1631 1629 1628 1627 1627 1624 1622 1621 1620 1619 1618 1616 1615 1613 1612 1611 1610 1610 1608 1607 1605 1603 1602 1601 1598 1597 1596 1595 1594 1593 1592 1591 1590 1589 1588 1588 1586 1586 1585 1585 1584 1583 1582 1580 1578 1578 1576 1576 1574 1573 1572 1572 1571 1571 1570 1570 1569 1569 1569 1569 1568 1568 1568 1568 1567 1567 1567 1567 1566 1566 1565 1565 1565 1564 1564 1563 1563 1563 1563 1563 1562 1562 1561 1561 1560 1560 1560 1560 1559 1559 1558 1558 1558 1558 1559 1560 1560 1560 1560 1560 1559 1559 1558 1558 1558 1558 1558 1558 1558 1558 1559 1559 1560 1560 1560 1560 1560 1559 1559 1559 1559 1559 1559 1559 1559 1558 1557 1557 1557 1556 1556 1556 1556 1556 1556 1557 1557 1557 1557 1558 1559 1559 1560 1561 1561 1562 1562 1564 1564 1565 1565 1566 1568 1569 1570 1571 1571 1571 1572 1574 1575 1577 1577 1578 1578 1579 1580 1582 1585 1586 1587 1589 1592 1595 1597 1600 1602 1604 1605 1608 1609 1611 1612 1614 1615 1616 1619 1622 1625 1627 1630 1632 1634 1636 1637 1638 1639 1641 1642 1643 1644 1645 1646 1647 1648 1649 1649 1650 1651 1651 1652 1652 1652 1653 1654 1655 1655 1655 1656 1657 1658 1658 1658 1658 1659 1659 1659 1661 1662 1662 1664 1666 1666 1666 1662 1661 1661 1661 1676 1686 1686 1686 1675 1674 0 0 0 0 0 0 0 0 0 0 0 0 0 0 0 0 0 0 0 0 0 0 0 0 0 0 0 0 0 0 0 0 0 0 0 0 0 0 0 0 0 0 0 0 0 0 0 0 0 0 0 0 0 0 0
2618 2618 2627 2642 2669 2673 2679 2693 2709 2712 2712 2715 2719 2734 2751 2761 2773 2783 2789 2799 2809 2817 2825 2827 2831 2842 2846 2851 2854 2855 2863 2876 2888 2898 2913 2930 2935 2936 2938 2939 2939 2948 2954 2954 2954 2956 2957 2957 2958 2958 2958 2973 2983 2988 2993 2995 3001 3008 3011 3017 3022 3025 3029 3036 3043 3051 3059 3062 3070 3080 3083 3091 3101 3106 3109 3114 3115 3124 3129 3129 3130 3130 3131 3134 3139 3148 3152 3161 3166 3171 3181 3181 3181 3185 3185 3186 3192 3202 3210 3212 3212 3216 3224 3232 3241 3245 3253 3253 3255 3255 3259 3265 3269 3274 3277 3280 3282 3286 3296 3307 3315 3315 3316 3316 3316 3317 3317 3317 3315 3310 3307 3305 3297 3288 3284 3282 3282 3284 3288 3300 3308 3308 3308 3308 3306 3306 3306 3310 3312 3313 3314 3316 3318 3318 3318 3318 3318 3319 3323 3329 3343 3361 3361 3361 3358 3354 3349 3349 3348 3346 3342 3339 3339 3339 3339 3339 3338 3333 3330 3328 3328 3328 3325 3322 3307 3298 3298 3298 3303 3303 3303 3299 3299 3299 3307 3310 3310 3310 3300 3288 3273 3266 3262 3260 3248 3233 3233 3233 3238 3255 3261 3263 3268 3278 3285 3288 3288 3288 3276 3266 3251 3237 3227 3206 3194 3176 3154 3129 3117 3113 3106 3095 3082 3074 3060 3040 3028 3024 3021 3017 3006 2958 2782 2757 2757 2757 3017 3159 3206 3224 3231 3231 3231 3219 3205 3182 3162 3158 3158 3156 3156 3151 3122 3104 3085 3037 2976 2842 0 0 0 1947 1934 1919 1892 1861 1853 1852 1847 1837 1833 1830 1826 1820 1812 1805 1800 1795 1790 1788 1785 1778 1775 1771 1767 1764 1760 1755 1751 1748 1744 1741 1737 1733 1729 1726 1723 1720 1717 1713 1709 1706 1702 1697 1693 1688 1683 1680 1677 1674 1671 1667 1663 1660 1658 1656 1655 1652 1651 1648 1647 1644 1643 1642 1640 1638 1636 1634 1632 1631 1630 1629 1627 1626 1626 1624 1622 1619 1618 1617 1616 1616 1615 1613 1611 1610 1609 1608 1607 1605 1604 1603 1602 1600 1598 1597 1595 1595 1594 1593 1592 1591 1590 1589 1587 1587 1586 1585 1585 1584 1582 1581 1581 1580 1578 1577 1575 1575 1573 1573 1572 1571 1570 1569 1569 1569 1568 1568 1568 1567 1567 1567 1565 1565 1565 1565 1565 1565 1564 1564 1563 1563 1563 1563 1562 1562 1562 1561 1561 1561 1561 1561 1559 1559 1559 1558 1557 1557 1556 1556 1556 1556 1556 1556 1556 1556 1558 1559 1559 1559 1558 1557 1557 1557 1556 1556 1555 1555 1555 1555 1556 1556 1557 1558 1558 1558 1558 1558 1558 1558 1557 1556 1556 1556 1556 1556 1556 1556 1556 1555 1554 1554 1554 1554 1554 1555 1555 1555 1556 1556 1556 1557 1558 1558 1559 1559 1561 1561 1562 1562 1562 1563 1564 1566 1568 1568 1569 1570 1571 1571 1572 1573 1574 1575 1575 1575 1576 1579 1580 1581 1583 1584 1586 1589 1590 1592 1595 1597 1598 1601 1603 1606 1607 1609 1611 1613 1615 1617 1620 1621 1625 1628 1632 1633 1634 1635 1637 1637 1639 1640 1642 1643 1645 1646 1647 1648 1649 1650 1651 1651 1652 1652 1653 1653 1653 1655 1655 1655 1655 1657 1658 1658 1658 1658 1658 1659 1659 1659 1660 1661 1661 1662 1662 1662 1662 1659 1659 1658 1658 1659 1662 1676 1679 1679 1679 1676 1673 0 0 0 0 0 0 0 0 0 0 0 0 0 0 0 0 0 0 0 0 0 0 0 0 0 0 0 0 0 0 0 0 0 0 0 0 0 0 0 0 0 0 0 0 0 0 0 0 0 0 0 0 0
2638 2638 2663 2679 2679 2680 2681 2681 2699 2715 2718 2720 2727 2739 2751 2761 2773 2793 2802 2808 2817 2823 2827 2829 2831 2846 2857 2857 2861 2863 2867 2877 2888 2898 2913 2933 2946 2955 2955 2955 2957 2957 2957 2957 2960 2961 2957 2957 2961 2961 2964 2976 2984 2990 2993 2995 3001 3008 3016 3022 3028 3030 3033 3038 3047 3053 3059 3064 3073 3081 3085 3093 3102 3108 3116 3118 3124 3132 3137 3140 3140 3140 3141 3141 3142 3156 3159 3168 3173 3177 3192 3192 3192 3194 3194 3195 3199 3204 3210 3213 3214 3217 3224 3233 3242 3249 3255 3257 3258 3261 3264 3268 3274 3277 3286 3291 3291 3295 3303 3313 3317 3317 3318 3318 3318 3318 3318 3317 3317 3311 3307 3305 3299 3288 3288 3288 3289 3297 3304 3317 3320 3320 3320 3311 3298 3298 3298 3307 3312 3312 3312 3316 3320 3320 3320 3322 3322 3323 3324 3339 3351 3361 3361 3361 3359 3357 3355 3355 3355 3352 3350 3343 3340 3339 3339 3339 3338 3336 3335 3333 3333 3332 3331 3318 3307 3307 3307 3311 3315 3315 3315 3309 3309 3309 3314 3323 3323 3323 3304 3291 3281 3273 3262 3260 3246 3239 3239 3239 3254 3271 3278 3280 3282 3282 3285 3291 3291 3291 3283 3266 3251 3234 3221 3206 3194 3174 3154 3131 3119 3113 3106 3093 3081 3068 3051 3037 3025 3020 3018 3010 2992 2935 2773 2773 2773 2830 3064 3216 3249 3249 3249 3245 3234 3221 3205 3182 3162 3158 3158 3156 3156 3153 3136 3114 3085 3037 2951 2767 0 0 0 1947 1934 1911 1891 1860 1851 1848 1845 1838 1833 1828 1824 1818 1810 1803 1798 1794 1789 1784 1781 1775 1772 1768 1764 1761 1758 1753 1750 1745 1742 1739 1735 1730 1725 1722 1719 1717 1713 1709 1706 1702 1698 1694 1690 1686 1681 1678 1675 1672 1669 1665 1662 1659 1656 1653 1652 1651 1649 1646 1644 1643 1642 1640 1637 1636 1633 1631 1629 1628 1627 1625 1625 1624 1623 1621 1619 1617 1615 1615 1614 1613 1612 1610 1610 1607 1606 1605 1604 1603 1601 1601 1599 1599 1597 1595 1594 1593 1592 1591 1590 1590 1589 1588 1587 1586 1585 1585 1584 1583 1582 1580 1578 1577 1576 1575 1575 1574 1573 1571 1570 1570 1569 1568 1568 1568 1567 1566 1565 1564 1564 1564 1563 1563 1563 1563 1563 1562 1562 1562 1561 1561 1561 1560 1560 1560 1559 1559 1559 1559 1558 1558 1557 1557 1557 1556 1555 1554 1553 1553 1553 1553 1553 1553 1554 1555 1556 1556 1556 1556 1556 1555 1555 1555 1554 1553 1553 1553 1553 1553 1554 1554 1555 1555 1556 1556 1556 1556 1556 1556 1555 1555 1555 1554 1554 1554 1554 1554 1554 1554 1553 1553 1553 1553 1553 1553 1553 1554 1554 1554 1554 1555 1556 1557 1557 1558 1559 1559 1559 1560 1562 1562 1563 1564 1565 1566 1567 1567 1568 1569 1570 1572 1572 1572 1572 1573 1574 1575 1577 1578 1579 1581 1582 1585 1587 1588 1590 1592 1593 1596 1599 1602 1605 1606 1607 1608 1610 1614 1617 1620 1622 1625 1628 1630 1631 1633 1636 1637 1638 1639 1640 1643 1645 1646 1647 1648 1649 1650 1651 1651 1652 1652 1653 1654 1654 1655 1655 1656 1656 1657 1658 1658 1658 1658 1658 1659 1659 1659 1659 1659 1659 1660 1660 1660 1660 1659 1657 1657 1657 1658 1662 1668 1684 1684 1684 1677 1674 0 0 0 0 0 0 0 0 0 0 0 0 0 0 0 0 0 0 0 0 0 0 0 0 0 0 0 0 0 0 0 0 0 0 0 0 0 0 0 0 0 0 0 0 0 0 0 0 0 0 0 0 0
2645 2645 2667 2690 2690 2690 2698 2698 2699 2715 2718 2733 2749 2755 2755 2759 2772 2793 2803 2809 2817 2824 2827 2833 2834 2846 2863 2864 2867 2868 2868 2877 2892 2913 2931 2942 2946 2955 2957 2957 2961 2962 2962 2962 2962 2960 2957 2959 2960 2960 2969 2984 2988 2992 2994 2995 3001 3009 3017 3025 3028 3031 3033 3039 3048 3059 3065 3072 3076 3082 3086 3097 3102 3109 3116 3126 3134 3138 3144 3151 3151 3151 3147 3147 3147 3156 3165 3169 3174 3181 3193 3195 3197 3200 3200 3200 3211 3212 3213 3214 3215 3217 3225 3236 3245 3251 3256 3257 3261 3264 3269 3273 3276 3282 3291 3300 3303 3305 3309 3316 3319 3319 3320 3320 3321 3320 3320 3318 3317 3311 3309 3306 3299 3288 3288 3288 3301 3312 3328 3338 3338 3338 3330 3314 3293 3293 3293 3301 3309 3309 3311 3316 3324 3324 3325 3325 3325 3325 3333 3347 3357 3361 3361 3361 3360 3360 3360 3360 3360 3360 3353 3347 3340 3340 3339 3339 3338 3337 3335 3335 3333 3332 3331 3318 3307 3307 3307 3323 3323 3323 3322 3311 3311 3311 3323 3336 3336 3336 3323 3301 3288 3275 3261 3243 3236 3236 3236 3241 3265 3271 3278 3282 3283 3287 3289 3294 3294 3294 3283 3266 3251 3228 3216 3200 3187 3171 3153 3137 3119 3110 3097 3091 3080 3066 3046 3028 3010 3004 3002 2996 2975 2911 2706 2706 2706 2887 3134 3238 3254 3254 3254 3249 3237 3223 3206 3182 3162 3159 3159 3158 3158 3157 3145 3129 3091 3033 2922 2639 0 0 0 1945 1932 1911 1868 1846 1845 1845 1840 1838 1833 1826 1821 1814 1806 1799 1796 1792 1788 1783 1778 1773 1768 1764 1761 1758 1755 1751 1748 1744 1740 1736 1733 1729 1723 1718 1715 1713 1709 1705 1702 1698 1695 1692 1688 1685 1680 1676 1672 1670 1667 1664 1659 1656 1655 1653 1651 1649 1647 1645 1643 1641 1639 1638 1635 1633 1631 1629 1628 1626 1625 1624 1622 1621 1620 1618 1616 1615 1613 1612 1610 1610 1609 1608 1606 1605 1603 1602 1601 1601 1599 1599 1597 1595 1595 1593 1592 1591 1590 1589 1588 1588 1587 1586 1585 1584 1584 1583 1582 1582 1581 1579 1578 1576 1575 1574 1573 1571 1570 1569 1567 1567 1567 1567 1566 1566 1566 1564 1564 1563 1562 1561 1561 1561 1561 1561 1560 1559 1558 1558 1558 1558 1558 1558 1558 1558 1558 1558 1557 1557 1556 1556 1555 1554 1553 1552 1552 1552 1552 1551 1551 1551 1551 1551 1551 1552 1553 1553 1553 1553 1553 1553 1553 1553 1553 1551 1551 1551 1551 1552 1552 1552 1553 1553 1553 1553 1553 1554 1554 1553 1553 1553 1553 1552 1552 1552 1552 1552 1552 1551 1551 1551 1550 1550 1550 1551 1552 1552 1552 1552 1553 1553 1554 1555 1556 1556 1558 1558 1559 1560 1561 1561 1562 1562 1564 1564 1565 1565 1566 1566 1568 1568 1569 1569 1570 1570 1571 1573 1575 1576 1577 1579 1580 1583 1584 1585 1585 1588 1590 1592 1595 1596 1600 1602 1602 1604 1605 1607 1612 1616 1620 1621 1624 1628 1628 1631 1633 1637 1638 1638 1639 1642 1645 1646 1647 1648 1649 1650 1651 1652 1652 1653 1654 1654 1655 1655 1655 1656 1656 1657 1658 1658 1659 1659 1659 1659 1659 1659 1659 1659 1659 1659 1659 1659 1659 1659 1659 1658 1658 1659 1659 1667 1679 1679 1679 1677 1675 1660 0 0 0 0 0 0 0 0 0 0 0 0 0 0 0 0 0 0 0 0 0 0 0 0 0 0 0 0 0 0 0 0 0 0 0 0 0 0 0 0 0 0 0 0 0 0 0 0 0 0 0 0
2645 2645 2668 2693 2693 2693 2699 2699 2699 2718 2721 2734 2749 2752 2755 2755 2767 2793 2803 2809 2822 2829 2829 2834 2836 2846 2863 2868 2868 2873 2873 2884 2907 2927 2938 2942 2946 2955 2957 2957 2961 2964 2964 2964 2957 2957 2957 2957 2959 2965 2978 2987 2990 2995 2995 2997 3002 3010 3017 3026 3029 3032 3034 3039 3053 3066 3078 3085 3090 3094 3098 3099 3110 3118 3126 3133 3138 3143 3150 3156 3156 3156 3152 3152 3152 3157 3165 3171 3174 3183 3194 3203 3203 3204 3204 3209 3216 3216 3216 3218 3218 3220 3229 3237 3245 3251 3256 3257 3261 3264 3269 3274 3277 3285 3297 3305 3310 3310 3311 3316 3321 3326 3326 3326 3325 3324 3323 3322 3319 3313 3311 3309 3303 3295 3295 3295 3302 3316 3330 3338 3339 3339 3339 3319 3286 3286 3286 3293 3302 3307 3311 3319 3327 3328 3328 3329 3329 3330 3335 3352 3359 3361 3361 3361 3360 3360 3360 3363 3363 3363 3356 3347 3343 3343 3340 3339 3339 3338 3336 3336 3335 3332 3327 3316 3316 3316 3317 3338 3338 3338 3322 3311 3311 3311 3323 3340 3340 3340 3327 3309 3294 3276 3261 3229 3224 3224 3224 3241 3265 3271 3278 3282 3283 3285 3287 3291 3291 3291 3283 3266 3246 3227 3215 3199 3179 3161 3152 3137 3121 3110 3097 3084 3080 3066 3046 3028 3007 2995 2983 2971 2949 2792 2658 2658 2658 3022 3196 3247 3255 3255 3255 3251 3241 3230 3209 3184 3165 3159 3158 3157 3157 3156 3154 3135 3092 3013 2829 0 0 0 1960 1945 1922 1882 1860 1846 1845 1842 1839 1836 1831 1823 1819 1812 1804 1798 1794 1792 1787 1783 1775 1769 1764 1761 1759 1756 1753 1750 1747 1742 1736 1734 1730 1725 1720 1715 1712 1708 1706 1702 1700 1697 1694 1691 1687 1682 1677 1674 1670 1667 1664 1660 1657 1655 1652 1651 1649 1647 1644 1643 1641 1639 1637 1635 1633 1630 1628 1627 1625 1624 1623 1622 1620 1618 1617 1615 1615 1613 1611 1609 1607 1607 1606 1606 1605 1603 1602 1600 1600 1599 1597 1596 1595 1593 1592 1591 1590 1589 1588 1588 1587 1586 1585 1585 1583 1583 1582 1581 1581 1581 1579 1578 1577 1575 1573 1572 1570 1569 1568 1566 1566 1565 1565 1565 1564 1563 1563 1563 1562 1561 1560 1560 1559 1559 1559 1558 1558 1558 1557 1556 1556 1556 1556 1556 1556 1556 1555 1555 1554 1554 1553 1552 1552 1552 1551 1550 1550 1550 1549 1550 1550 1550 1549 1550 1550 1550 1550 1551 1551 1551 1551 1551 1551 1551 1551 1550 1549 1549 1549 1549 1549 1549 1550 1551 1551 1551 1551 1551 1551 1551 1551 1551 1551 1550 1550 1550 1550 1550 1549 1549 1549 1548 1548 1548 1548 1548 1548 1549 1550 1550 1552 1553 1553 1554 1555 1555 1556 1556 1557 1558 1559 1560 1560 1561 1561 1562 1563 1563 1564 1564 1565 1565 1566 1566 1567 1568 1569 1570 1572 1574 1576 1579 1580 1580 1581 1583 1584 1584 1586 1587 1589 1591 1594 1596 1598 1601 1602 1603 1606 1610 1614 1618 1623 1626 1628 1630 1633 1636 1637 1638 1639 1642 1644 1646 1647 1648 1649 1650 1651 1652 1652 1653 1654 1654 1655 1655 1656 1656 1656 1657 1658 1659 1659 1659 1659 1659 1659 1659 1659 1659 1658 1658 1658 1659 1659 1659 1659 1659 1659 1660 1662 1666 1679 1679 1685 1685 1685 1677 1663 0 0 0 0 0 0 0 0 0 0 0 0 0 0 0 0 0 0 0 0 0 0 0 0 0 0 0 0 0 0 0 0 0 0 0 0 0 0 0 0 0 0 0 0 0 0 0 0 0 0 0
