1304 1302 1299 1299 1299 1301 1302 1304 1305 1305 1306 1306 1306 1306 1305 1303 1302 1302 1302 1303 1305 1308 1310 1312 1313 1313 1315 1316 1319 1319 1319 1319 1320 1320 1322 1327 1340 1350 1359 1370 1376 1404 1419 1431 1441 1459 1485 1532 1553 0 0 1704 1727 1768 1796 1808 1812 1812 1813 1815 1821 1825 1826 1826 1827 1827 1830 1832 1833 1834 1838 1841 1845 1849 1858 1864 1870 1874 1882 1891 1900 1905 1908 1911 1915 1919 1924 1924 1924 1924 1912 1907 1907 1907 1922 1947 1958 1975 1977 1977 1981 1982 1982 1982 1982 1960 1947 1941 1941 1941 1959 1982 1986 1986 1986 1965 1965 1965 2006 2048 2090 2100 2102 2102 2107 2112 2114 2118 2120 2121 2122 2124 2130 2130 2131 2133 2134 2138 2143 2148 2154 2159 2165 2170 2171 2172 2172 2173 2177 2184 2189 2191 2194 2199 2201 2205 2209 2212 2212 2215 2220 2231 2237 2239 2242 2243 2247 2252 2258 2264 2269 2270 2271 2272 2272 2277 2282 2289 2296 2301 2305 2306 2308 2310 2317 2324 2335 2347 2352 2357 2360 2365 2369 2371 2375 2381 2386 2390 2393 2396 2399 2401 2402 2404 2406 2407 2407 2407 2408 2408 2422 2439 2452 2461 2469 2479 2484 2485 2487 2490 2497 2504 2507 2510 2512 2513 2514 2523 2532 2533 2536 2543 2558 2567 2574 2581 2592 2603 2606 2610 2611 2612 2617 2621 2624 2631 2637 2643 2645 2645 2647 2651 2659 2665 2670 2673 2677 2682 2683 2688 2692 2697 2707 2711 2718 2725 2728 2730 2738 2745 2751 2758 2764 2783 2789 2789 2790 2804 2812 2818 2820 2828 2831 2831 2832 2833 2833 2835 2852 2875 2894 2896 2896 2896 2868 2823 2777 2726 2632 0 0 2371 2356 2335 2324 2315 2308 2304 2298 2291 2285 2279 2272 2265 2259 2253 2244 2236 2227 2218 2212 2208 2204 2197 2192 2188 2184 2180 2176 2172 2169 2166 2163 2161 2159 2155 2153 2151 2149 2147 2145 2143 2140 2138 2136 2134 2133 2131 2129 2127 2124 2123 2122 2119 2117 2116 2114 2113 2112 2110 2109 2107 2105 2104 2103 2102 2101 2100 2099 2098 2098 2097 2097 2096 2096 2095 2094 2093 2092 2091 2090 2090 2089 2088 2088 2087 2087 2086 2085 2084 2082 2081 2080 2079 2079 2078 2077 2075 2075 2074 2073 2073 2073 2073 2073 2072 2072 2072 2072 2072 2071 2069 2065 2065 2065 2065 2065 2065 2065 2066 2066 2066 2066 2065 2065 2064 2064 2062 2059 2056 2054 2053 2052 2051 2048 2047 2043 2035 2028 2027 2008 1984 1955 1912 0 0 0 0 0 0 1313 1301 1298 1298 1298 1297 1297 1294 1291 1285 1281 1275 1266 1252 1239 1226 1220 1217 1213 1210 1210 1210 1207 1205 1200 1193 1184 1177 1173 1170 1168 1165 1163 1160 1158 1157 1156 1154 1153 1153 1151 1150 1148 1147 1146 1145 1144 1143 1142 1142 1141 1141 1140 1139 1138 1137 1136 1135 1133 1129 1126 1122 1118 1116 1113 1110 1109 1106 1104 1101 1099 1097 1094 1094 1092 1091 1090 1090 1088 1088 1088 1087 1087 1088 1087 1087 1088 1088 1088 1088 1088 1088 1088 1088 1089 1089 1089 1088 1088 1088 1087 1086 1085 1083 1082 1081 1080 1079 1079 1078 1078 1077 1077 1076 1076 1076 1076 1076 1076 1075 1075 1075 1075 1074 1074 1074 1073 1073 1073 1073 1073 1074 1074 1075 1077 1079 1081 1083 1084 1085 1087 1090 1095 1102 1109 1112 1112 1115 1118 1120 1120 1120 1119 1119 1119 1119 1118 1114 1112 1105 1099 1094 1089 1081 1069 1061 1059 1059 1058 1058 1058 1057 1056 1054 1054 1054 1055 1055 1055 1055 1055 1055 1055 1055 1055 1055
1300 1298 1298 1298 1298 1300 1301 1303 1303 1304 1304 1304 1304 1304 1303 1300 1299 1299 1299 1302 1303 1306 1309 1310 1310 1310 1314 1315 1316 1318 1319 1319 1320 1324 1326 1337 1346 1361 1377 1389 1395 1406 1419 1424 1433 1444 1475 1523 1540 0 0 0 1711 1743 1775 1802 1808 1808 1809 1810 1811 1817 1821 1821 1822 1824 1826 1830 1833 1834 1838 1841 1845 1849 1860 1866 1871 1877 1885 1896 1906 1910 1913 1914 1915 1918 1922 1922 1922 1919 1912 1907 1907 1907 1927 1955 1968 1979 1981 1981 1986 1988 2002 2002 2002 1994 1955 1944 1938 1938 1944 1947 1973 1973 1973 1966 1966 1966 2010 2049 2074 2087 2095 2100 2106 2108 2112 2116 2117 2117 2120 2123 2128 2129 2130 2130 2132 2135 2143 2148 2152 2156 2161 2168 2171 2172 2173 2174 2179 2186 2189 2191 2196 2199 2203 2207 2210 2212 2215 2219 2228 2236 2242 2245 2247 2250 2252 2253 2258 2265 2270 2273 2274 2275 2278 2281 2286 2291 2297 2302 2307 2310 2313 2314 2319 2326 2336 2348 2354 2358 2360 2368 2377 2383 2385 2385 2387 2390 2393 2397 2400 2401 2404 2406 2407 2409 2409 2413 2417 2423 2433 2443 2452 2461 2469 2479 2484 2487 2490 2493 2497 2504 2507 2510 2515 2520 2523 2533 2539 2540 2540 2546 2564 2567 2574 2581 2593 2603 2607 2610 2611 2616 2625 2630 2634 2638 2643 2644 2645 2645 2649 2660 2668 2674 2679 2683 2683 2683 2684 2684 2685 2697 2707 2714 2720 2726 2729 2730 2739 2745 2760 2760 2765 2794 2794 2795 2798 2807 2829 2829 2830 2836 2841 2841 2841 2842 2848 2867 2901 2901 2902 2901 2901 2897 2879 2841 2777 2726 2596 0 2378 2368 2353 2335 2324 2314 2305 2303 2298 2291 2284 2278 2269 2264 2255 2247 2240 2232 2224 2217 2212 2208 2204 2195 2190 2188 2184 2180 2176 2172 2169 2166 2163 2161 2159 2155 2152 2150 2148 2146 2145 2143 2140 2138 2136 2134 2133 2131 2129 2126 2124 2123 2122 2119 2117 2116 2114 2113 2112 2111 2109 2107 2105 2104 2103 2102 2101 2100 2099 2098 2098 2097 2097 2096 2095 2095 2094 2093 2092 2091 2090 2090 2089 2088 2088 2088 2087 2087 2086 2085 2083 2082 2081 2081 2080 2079 2077 2076 2075 2075 2075 2074 2074 2074 2073 2073 2073 2073 2073 2073 2073 2073 2071 2069 2069 2069 2069 2070 2070 2070 2068 2066 2066 2066 2066 2066 2065 2062 2061 2057 2056 2054 2054 2051 2049 2049 2046 2035 2025 2019 2004 1977 1939 1890 0 0 0 0 0 1318 1298 1297 1297 1297 1297 1297 1297 1292 1288 1284 1279 1274 1261 1247 1236 1226 1219 1215 1210 1209 1208 1207 1206 1203 1199 1191 1184 1177 1170 1167 1166 1164 1162 1159 1158 1156 1155 1153 1152 1151 1151 1149 1147 1146 1145 1144 1143 1142 1141 1141 1140 1140 1139 1139 1138 1137 1136 1134 1131 1128 1125 1120 1118 1115 1113 1109 1107 1105 1102 1100 1098 1096 1094 1092 1091 1091 1089 1088 1088 1087 1087 1087 1087 1087 1087 1087 1087 1087 1087 1088 1088 1088 1088 1088 1088 1088 1088 1088 1087 1087 1085 1084 1083 1083 1082 1081 1080 1079 1078 1077 1077 1077 1076 1076 1076 1075 1075 1075 1075 1075 1075 1074 1074 1073 1073 1073 1073 1073 1073 1073 1073 1073 1074 1075 1077 1079 1081 1083 1085 1087 1090 1094 1098 1107 1112 1114 1115 1118 1119 1119 1119 1119 1118 1118 1117 1115 1113 1110 1105 1100 1094 1089 1081 1074 1063 1059 1057 1055 1054 1054 1054 1054 1054 1054 1054 1054 1055 1055 1055 1055 1055 1055 1055 1055 1055 1055
1296 1292 1292 1292 1296 1298 1298 1299 1301 1301 1302 1303 1303 1303 1302 1299 1296 1296 1296 1300 1302 1305 1307 1307 1307 1308 1313 1315 1316 1318 1324 1327 1328 1329 1330 1339 1353 1368 1380 1389 1396 1406 1419 1424 1430 1431 1463 1495 1527 0 0 0 0 0 1749 1777 1792 1797 1797 1800 1804 1807 1808 1809 1809 1812 1820 1829 1830 1832 1837 1841 1845 1851 1860 1867 1873 1877 1887 1898 1908 1913 1915 1915 1917 1918 1921 1921 1921 1919 1912 1907 1907 1907 1927 1955 1968 1979 1981 1981 1988 1998 2004 2010 2011 2011 2011 1971 1956 1927 1927 1927 1935 1935 1936 1953 1953 1971 2028 2056 2074 2081 2083 2088 2095 2098 2102 2105 2106 2110 2113 2119 2124 2126 2129 2130 2132 2135 2142 2148 2152 2156 2161 2168 2171 2172 2173 2175 2181 2186 2192 2195 2197 2200 2204 2208 2211 2214 2217 2224 2230 2237 2245 2249 2251 2251 2252 2256 2262 2269 2272 2274 2276 2280 2287 2291 2292 2296 2301 2307 2315 2321 2324 2326 2326 2331 2341 2353 2359 2360 2361 2369 2383 2386 2387 2387 2387 2390 2393 2397 2400 2404 2404 2406 2408 2409 2412 2420 2424 2434 2442 2448 2452 2461 2469 2479 2484 2488 2490 2495 2497 2504 2506 2512 2516 2522 2530 2539 2547 2551 2554 2566 2572 2572 2576 2583 2593 2602 2607 2611 2615 2625 2629 2631 2637 2642 2642 2642 2643 2643 2649 2660 2669 2675 2685 2686 2686 2686 2677 2677 2677 2697 2707 2719 2725 2727 2731 2731 2739 2770 2782 2783 2784 2795 2795 2798 2801 2813 2830 2836 2838 2841 2849 2849 2851 2851 2851 2919 2919 2922 2922 2922 2978 2978 2978 2917 2828 2736 2578 0 2369 2357 2347 2330 2322 2314 2305 2300 2296 2291 2283 2277 2267 2259 2251 2246 2240 2232 2224 2217 2212 2208 2202 2195 2190 2188 2184 2182 2179 2175 2170 2168 2165 2161 2159 2155 2152 2150 2147 2146 2144 2142 2140 2138 2136 2134 2132 2131 2129 2126 2124 2123 2121 2119 2117 2116 2114 2113 2112 2111 2109 2107 2105 2104 2103 2102 2101 2100 2099 2098 2098 2097 2096 2096 2095 2094 2093 2093 2092 2091 2090 2090 2089 2089 2089 2088 2088 2088 2087 2086 2085 2083 2082 2081 2080 2079 2078 2076 2076 2076 2076 2076 2076 2075 2075 2074 2074 2074 2075 2075 2075 2074 2073 2072 2071 2071 2071 2071 2071 2070 2068 2067 2067 2067 2067 2066 2066 2063 2061 2059 2059 2058 2055 2054 2049 2049 2046 2035 2023 2007 1985 1961 0 0 0 0 0 0 0 1302 1294 1294 1294 1294 1295 1295 1295 1290 1286 1282 1276 1270 1253 1239 1232 1222 1216 1212 1207 1206 1206 1205 1204 1200 1195 1188 1183 1175 1170 1166 1164 1163 1160 1159 1158 1155 1154 1152 1152 1151 1149 1149 1147 1146 1144 1144 1142 1141 1141 1139 1139 1139 1139 1138 1138 1136 1135 1133 1130 1127 1123 1119 1117 1114 1111 1109 1107 1104 1102 1099 1097 1095 1094 1091 1090 1089 1089 1088 1087 1086 1086 1085 1085 1086 1086 1086 1086 1086 1086 1086 1087 1087 1087 1087 1087 1087 1087 1087 1086 1085 1085 1084 1082 1082 1081 1080 1080 1079 1078 1077 1077 1076 1076 1075 1075 1074 1074 1074 1074 1074 1074 1074 1073 1073 1073 1073 1072 1072 1072 1072 1072 1073 1074 1075 1077 1080 1081 1084 1087 1089 1093 1097 1104 1110 1113 1115 1118 1119 1119 1119 1119 1118 1115 1113 1111 1107 1104 1101 1098 1094 1086 1078 1073 1066 1062 1059 1057 1054 1054 1052 1052 1052 1052 1052 1052 1054 1055 1055 1055 1055 1055 1055 1055 1056 1057 1057
1291 1288 1288 1288 1291 1293 1293 1295 1296 1296 1297 1300 1300 1300 1299 1297 1296 1296 1296 1299 1301 1302 1303 1305 1307 1308 1313 1315 1316 1318 1324 1332 1336 1338 1340 1350 1362 1369 1380 1389 1401 1412 1419 1424 1430 1431 1453 1490 1513 1537 1566 0 0 0 0 1748 1765 1774 1775 1779 1784 1786 1793 1795 1800 1800 1812 1822 1829 1831 1835 1841 1845 1851 1861 1868 1875 1881 1888 1898 1908 1913 1916 1917 1918 1918 1921 1921 1924 1924 1922 1922 1924 1926 1959 1960 1968 1979 1979 1981 1988 1998 2006 2010 2011 2011 2011 1990 1965 1927 1927 1927 1911 1911 1929 1936 1936 1987 2034 2056 2074 2080 2082 2087 2090 2093 2098 2103 2106 2110 2113 2117 2123 2126 2129 2130 2132 2135 2142 2148 2152 2156 2161 2168 2171 2173 2175 2177 2182 2186 2192 2195 2198 2202 2207 2213 2215 2219 2225 2228 2233 2240 2247 2250 2251 2252 2254 2260 2266 2274 2278 2283 2289 2295 2296 2297 2298 2299 2307 2316 2323 2333 2336 2337 2337 2341 2352 2362 2364 2365 2368 2375 2383 2386 2387 2387 2387 2390 2393 2397 2401 2405 2406 2407 2410 2412 2417 2426 2437 2441 2444 2448 2452 2454 2463 2472 2480 2489 2491 2497 2498 2499 2504 2514 2519 2526 2536 2547 2559 2565 2566 2571 2577 2578 2579 2585 2594 2601 2607 2614 2616 2625 2629 2631 2637 2642 2642 2642 2645 2645 2653 2661 2669 2679 2692 2692 2692 2686 2674 2674 2674 2690 2708 2723 2729 2731 2731 2736 2753 2782 2785 2791 2793 2795 2798 2801 2803 2816 2830 2836 2841 2841 2873 2873 2880 2889 2926 2952 2958 2993 3088 3158 3173 3173 3173 3034 2895 2736 2553 0 2362 2353 2345 2330 2323 2315 2305 2300 2293 2287 2282 2275 2267 2258 2251 2244 2238 2232 2224 2217 2211 2206 2202 2195 2190 2189 2186 2183 2181 2177 2172 2168 2165 2162 2159 2155 2152 2148 2146 2144 2143 2142 2140 2138 2136 2134 2132 2131 2129 2126 2124 2123 2121 2119 2117 2116 2114 2113 2112 2111 2109 2107 2106 2104 2103 2102 2101 2100 2099 2098 2098 2097 2096 2095 2095 2094 2093 2092 2092 2091 2090 2090 2089 2089 2089 2088 2088 2088 2087 2087 2086 2085 2083 2082 2081 2080 2078 2078 2078 2078 2078 2078 2078 2077 2077 2076 2076 2076 2076 2076 2075 2075 2074 2074 2074 2073 2073 2073 2072 2071 2071 2071 2072 2072 2072 2069 2067 2064 2064 2063 2062 2060 2058 2055 2054 2053 2046 2035 2021 1993 1962 0 0 0 0 0 0 0 0 1294 1292 1292 1292 1294 1294 1294 1294 1288 1283 1277 1273 1266 1248 1233 1227 1219 1214 1209 1207 1205 1204 1203 1200 1197 1190 1185 1180 1175 1169 1165 1162 1161 1160 1158 1156 1154 1153 1151 1150 1149 1148 1146 1145 1144 1143 1142 1141 1140 1139 1139 1138 1138 1138 1137 1136 1136 1134 1132 1128 1124 1121 1119 1116 1113 1111 1108 1106 1103 1101 1098 1096 1094 1092 1091 1090 1088 1087 1086 1086 1085 1085 1085 1085 1085 1085 1085 1085 1085 1086 1086 1086 1086 1086 1086 1086 1086 1086 1086 1086 1085 1084 1083 1082 1081 1081 1080 1079 1078 1077 1077 1076 1076 1076 1075 1074 1074 1074 1074 1074 1074 1073 1073 1073 1073 1072 1072 1072 1072 1072 1072 1072 1073 1074 1075 1077 1080 1082 1084 1088 1094 1097 1102 1107 1111 1114 1117 1118 1119 1119 1119 1116 1114 1111 1107 1103 1098 1094 1091 1086 1080 1074 1070 1066 1063 1059 1057 1055 1054 1052 1051 1051 1051 1051 1051 1051 1054 1055 1056 1056 1056 1056 1056 1056 1057 1058 1058
1286 1286 1286 1287 1288 1290 1291 1291 1291 1291 1291 1294 1294 1294 1295 1294 1294 1295 1296 1296 1298 1300 1303 1305 1307 1308 1313 1318 1321 1326 1332 1335 1338 1348 1353 1356 1366 1373 1380 1390 1401 1412 1419 1424 1430 1431 1443 1474 1495 1519 1541 1564 0 0 0 0 1742 1747 1754 1756 1760 1763 1771 1781 1792 1799 1804 1813 1827 1830 1834 1841 1845 1851 1861 1870 1875 1881 1888 1899 1908 1914 1916 1917 1918 1919 1921 1924 1925 1925 1930 1939 1943 1954 1960 1961 1968 1975 1979 1981 1982 1996 2004 2008 2011 2011 2011 1990 1968 1927 1896 1896 1894 1896 1908 1914 1936 1987 2040 2067 2076 2079 2082 2085 2088 2093 2097 2102 2106 2109 2113 2117 2122 2126 2129 2130 2132 2137 2143 2148 2152 2156 2161 2168 2173 2176 2178 2181 2183 2188 2192 2197 2202 2207 2211 2216 2221 2225 2229 2235 2238 2243 2248 2251 2251 2257 2264 2269 2277 2284 2287 2292 2299 2302 2302 2302 2304 2304 2312 2320 2328 2339 2344 2347 2349 2353 2357 2362 2367 2372 2376 2380 2383 2386 2387 2387 2388 2391 2394 2397 2402 2405 2408 2411 2414 2419 2424 2431 2439 2445 2448 2450 2452 2454 2461 2469 2480 2489 2494 2497 2498 2499 2504 2514 2528 2535 2544 2564 2571 2572 2573 2574 2578 2579 2582 2589 2596 2601 2607 2614 2616 2625 2629 2631 2637 2642 2642 2642 2642 2645 2657 2664 2669 2679 2692 2692 2692 2686 2674 2674 2674 2690 2708 2723 2738 2744 2745 2757 2771 2791 2791 2794 2794 2796 2800 2806 2833 2841 2841 2846 2846 2846 2884 2955 3004 3056 3101 3112 3117 3146 3184 3226 3327 3327 3327 3173 3022 2736 2528 0 2355 2341 2337 2335 2327 2315 2309 2300 2292 2287 2281 2273 2263 2258 2251 2244 2238 2231 2225 2217 2212 2207 2202 2196 2192 2190 2188 2186 2181 2177 2172 2168 2165 2162 2159 2155 2152 2148 2145 2144 2143 2142 2140 2138 2137 2134 2132 2130 2129 2127 2124 2123 2121 2119 2117 2116 2115 2113 2112 2111 2109 2108 2106 2104 2103 2102 2101 2100 2100 2098 2097 2097 2096 2095 2095 2094 2093 2092 2092 2091 2090 2090 2089 2089 2089 2089 2089 2088 2087 2087 2086 2086 2084 2083 2082 2080 2080 2080 2079 2079 2079 2080 2080 2080 2079 2079 2079 2079 2078 2078 2076 2076 2076 2076 2077 2077 2077 2076 2075 2075 2075 2075 2080 2080 2080 2078 2075 2070 2070 2069 2066 2066 2063 2063 2054 2053 2046 2035 2015 1975 0 0 0 0 0 0 0 0 0 1292 1291 1291 1291 1294 1294 1294 1292 1286 1279 1271 1266 1260 1245 1230 1224 1217 1212 1208 1206 1204 1203 1201 1198 1194 1189 1183 1179 1173 1168 1164 1162 1159 1157 1156 1154 1153 1152 1150 1150 1148 1147 1146 1144 1144 1143 1141 1141 1140 1139 1138 1137 1137 1136 1136 1136 1134 1133 1130 1126 1122 1120 1117 1116 1113 1110 1107 1105 1102 1100 1097 1096 1093 1091 1090 1088 1087 1086 1085 1084 1084 1084 1084 1084 1084 1084 1084 1084 1084 1085 1085 1085 1085 1085 1085 1085 1085 1085 1085 1084 1084 1083 1082 1081 1081 1079 1079 1078 1078 1076 1076 1075 1075 1075 1075 1074 1074 1074 1074 1073 1073 1073 1073 1072 1072 1072 1072 1072 1072 1072 1072 1072 1072 1074 1075 1077 1080 1082 1085 1089 1095 1100 1105 1109 1113 1116 1117 1118 1118 1118 1117 1113 1109 1105 1100 1094 1089 1087 1082 1078 1074 1070 1066 1064 1061 1057 1055 1052 1052 1051 1051 1050 1050 1050 1050 1050 1054 1055 1056 1056 1056 1056 1056 1056 1058 1059 1059
1285 1285 1285 1287 1287 1287 1287 1287 1287 1287 1287 1287 1288 1289 1289 1290 1290 1290 1292 1296 1298 1300 1302 1305 1310 1314 1315 1318 1321 1326 1335 1336 1338 1348 1356 1361 1370 1376 1380 1391 1401 1412 1419 1424 1430 1430 1437 1448 1472 1501 1505 1546 0 0 0 0 0 1719 1722 1730 1735 1740 1746 1758 1775 1797 1800 1802 1819 1827 1834 1839 1844 1851 1860 1870 1875 1882 1888 1899 1908 1914 1916 1918 1919 1920 1924 1928 1931 1935 1937 1943 1944 1958 1960 1965 1968 1975 1979 1981 1982 1994 2004 2005 2005 2005 1997 1990 1969 1927 1894 1881 1869 1869 1869 0 0 2051 2064 2071 2077 2079 2082 2084 2088 2093 2097 2102 2105 2108 2111 2116 2120 2126 2130 2131 2134 2139 2145 2149 2153 2159 2166 2170 2174 2176 2179 2181 2186 2191 2197 2203 2206 2207 2211 2217 2225 2230 2235 2239 2243 2246 2248 2251 2257 2263 2272 2278 2284 2290 2295 2302 2307 2309 2309 2309 2310 2312 2316 2320 2330 2339 2347 2350 2350 2353 2357 2363 2367 2372 2376 2380 2382 2383 2384 2387 2389 2391 2396 2400 2403 2407 2413 2416 2419 2423 2429 2435 2443 2445 2450 2450 2452 2454 2461 2469 2480 2489 2498 2499 2500 2502 2504 2519 2534 2543 2550 2564 2571 2572 2573 2579 2582 2582 2583 2589 2597 2601 2610 2615 2616 2617 2620 2620 2626 2642 2642 2642 2642 2649 2663 2664 2669 2682 2698 2698 2698 2686 2681 2681 2681 2690 2708 2727 2746 2771 2795 2818 2818 2818 2794 2791 2791 2791 2801 2801 2844 2862 2862 2862 2862 2862 2948 3138 3315 3360 3377 3377 3377 3282 3282 3282 3357 3357 3357 3265 3097 2730 2504 0 2346 2341 2337 2337 2328 2317 2309 2299 2291 2287 2280 2273 2263 2258 2251 2244 2238 2231 2225 2218 2212 2207 2202 2197 2194 2190 2188 2186 2181 2177 2172 2168 2165 2162 2159 2155 2151 2148 2145 2143 2143 2142 2140 2139 2137 2134 2132 2130 2129 2127 2125 2123 2121 2119 2117 2116 2115 2113 2112 2111 2109 2108 2106 2105 2103 2102 2101 2100 2100 2098 2097 2096 2096 2095 2094 2094 2093 2092 2091 2091 2090 2090 2090 2090 2090 2090 2089 2088 2088 2087 2087 2087 2084 2084 2082 2081 2081 2081 2081 2081 2081 2081 2081 2081 2081 2081 2082 2082 2082 2082 2079 2078 2078 2078 2079 2079 2079 2079 2078 2078 2078 2080 2084 2084 2084 2084 2080 2076 2075 2071 2069 2067 2066 2063 2054 2053 2039 2012 1979 0 0 0 0 0 0 0 0 0 1309 1291 1290 1290 1290 1293 1293 1293 1287 1280 1274 1268 1263 1260 1244 1228 1221 1214 1210 1207 1205 1203 1201 1198 1195 1191 1186 1180 1177 1172 1168 1162 1161 1159 1156 1154 1153 1152 1151 1149 1149 1147 1146 1145 1143 1142 1141 1140 1140 1139 1138 1136 1136 1136 1136 1136 1135 1133 1132 1129 1125 1121 1119 1116 1114 1112 1109 1107 1104 1101 1099 1097 1095 1092 1090 1088 1087 1086 1086 1085 1084 1083 1083 1083 1083 1083 1083 1083 1083 1083 1083 1084 1084 1085 1085 1085 1085 1084 1084 1084 1084 1083 1082 1081 1081 1080 1079 1079 1078 1077 1076 1075 1075 1075 1074 1074 1073 1073 1073 1073 1073 1073 1073 1073 1072 1072 1072 1072 1072 1072 1072 1072 1072 1072 1074 1076 1078 1081 1083 1085 1092 1099 1101 1105 1110 1114 1116 1117 1117 1117 1116 1113 1107 1100 1095 1089 1085 1081 1079 1074 1072 1070 1067 1064 1061 1059 1055 1053 1050 1050 1050 1050 1049 1049 1049 1049 1050 1054 1056 1056 1057 1057 1057 1057 1057 1060 1061 1061
1286 1286 1285 1285 1285 1284 1284 1283 1283 1282 1282 1282 1284 1285 1285 1288 1289 1290 1291 1295 1298 1300 1302 1305 1310 1314 1315 1318 1321 1326 1335 1336 1338 1348 1356 1365 1374 1378 1381 1393 1401 1406 1413 1423 1430 1430 1433 1438 1455 1477 1501 1504 1531 0 0 0 0 0 0 0 1701 1710 1727 1738 1755 1779 1796 1799 1805 1821 1825 1831 1840 1850 1860 1870 1876 1882 1889 1899 1909 1915 1916 1918 1920 1923 1927 1933 1940 1941 1947 1952 1953 1960 1965 1967 1971 1975 1982 1982 1983 1993 1993 1993 1993 1992 1991 1988 1972 1942 1933 1881 1858 1858 1858 0 0 2051 2079 2079 2079 2079 2082 2085 2090 2093 2098 2101 2103 2104 2106 2111 2120 2127 2131 2132 2136 2142 2147 2152 2155 2161 2166 2174 2177 2179 2180 2183 2188 2195 2201 2204 2208 2209 2214 2222 2230 2237 2239 2244 2247 2249 2252 2256 2264 2270 2277 2283 2288 2297 2302 2308 2313 2315 2318 2318 2323 2323 2324 2326 2334 2340 2348 2351 2352 2353 2359 2363 2367 2372 2376 2380 2382 2383 2384 2387 2389 2394 2397 2401 2405 2410 2413 2418 2422 2426 2431 2438 2444 2447 2450 2452 2455 2459 2461 2469 2480 2491 2502 2502 2503 2505 2505 2520 2535 2546 2550 2564 2571 2572 2573 2579 2582 2583 2585 2590 2599 2605 2612 2615 2616 2617 2620 2620 2626 2642 2642 2645 2650 2667 2669 2672 2673 2682 2698 2698 2698 2688 2688 2688 2706 2718 2733 2757 2793 2820 2843 2843 2843 2824 2799 2791 2791 2791 2801 2823 2866 2866 2866 2866 2866 2873 3070 3165 3319 3376 3416 3434 3453 3453 3453 3422 3386 3383 3357 3273 3111 2729 2504 0 2346 2341 2337 2337 2332 2320 2309 2299 2291 2286 2280 2270 2263 2256 2252 2244 2235 2230 2225 2218 2212 2207 2202 2197 2194 2190 2188 2186 2181 2176 2172 2168 2165 2162 2159 2155 2151 2148 2145 2143 2142 2142 2140 2139 2138 2134 2132 2130 2129 2127 2125 2123 2121 2119 2118 2116 2115 2114 2112 2111 2109 2108 2107 2105 2103 2103 2102 2101 2100 2098 2097 2096 2096 2095 2094 2093 2092 2092 2092 2091 2091 2090 2090 2090 2090 2090 2090 2089 2088 2088 2087 2087 2085 2084 2083 2081 2081 2081 2081 2081 2081 2081 2081 2081 2081 2082 2082 2084 2084 2084 2082 2082 2081 2081 2081 2081 2080 2080 2080 2081 2082 2084 2086 2088 2088 2088 2086 2079 2078 2072 2070 2070 2068 2063 2049 2026 2010 1987 0 0 0 0 0 0 0 0 0 0 1301 1287 1287 1287 1290 1290 1290 1288 1282 1276 1271 1266 1262 1259 1243 1228 1218 1212 1209 1205 1202 1199 1199 1196 1194 1190 1185 1177 1172 1169 1166 1162 1159 1157 1154 1153 1151 1151 1150 1149 1147 1147 1145 1143 1142 1141 1140 1139 1138 1137 1137 1136 1135 1135 1135 1134 1134 1132 1130 1127 1124 1120 1117 1115 1113 1111 1109 1106 1103 1101 1099 1097 1095 1092 1089 1087 1087 1086 1084 1083 1083 1082 1082 1082 1082 1082 1082 1082 1082 1082 1083 1083 1083 1084 1084 1083 1083 1083 1083 1083 1082 1082 1081 1081 1080 1080 1079 1078 1078 1076 1076 1075 1074 1074 1073 1073 1073 1073 1073 1072 1072 1072 1072 1072 1072 1072 1072 1072 1072 1072 1072 1072 1072 1073 1074 1077 1080 1082 1084 1089 1094 1099 1102 1105 1111 1114 1115 1115 1115 1112 1111 1106 1099 1093 1087 1081 1077 1076 1073 1070 1065 1063 1062 1060 1058 1056 1054 1050 1048 1048 1048 1048 1047 1047 1047 1049 1050 1054 1057 1057 1058 1058 1058 1059 1060 1062 1065 1065
1285 1285 1285 1284 1277 1274 1271 1270 1270 1270 1273 1275 1276 1280 1284 1286 1286 1288 1290 1294 1298 1300 1302 1305 1310 1314 1315 1317 1320 1324 1325 1328 1336 1346 1357 1370 1375 1378 1385 1393 1401 1406 1413 1421 1428 1430 1432 1436 1445 1455 1468 1471 1481 1508 0 0 0 0 0 0 0 0 0 1716 1735 1761 1779 1796 1803 1819 1824 1830 1839 1849 1859 1868 1876 1886 1894 1903 1909 1916 1918 1921 1924 1926 1930 1936 1943 1949 1952 1952 1953 1960 1965 1969 1975 1978 1982 1983 1984 1989 1992 1992 1992 1991 1988 1987 1972 1957 1956 1932 1858 1858 1858 0 0 2051 2079 2079 2079 2079 2081 2085 2090 2094 2099 2101 2103 2104 2106 2111 2118 2127 2132 2134 2138 2143 2149 2153 2156 2161 2168 2174 2178 2184 2185 2192 2199 2203 2205 2209 2211 2214 2218 2226 2235 2244 2250 2255 2257 2257 2260 2263 2270 2278 2284 2289 2295 2301 2308 2314 2317 2318 2320 2325 2330 2333 2336 2339 2345 2350 2355 2356 2357 2357 2359 2363 2367 2372 2375 2379 2381 2382 2384 2387 2391 2396 2401 2405 2408 2410 2414 2419 2423 2427 2431 2439 2446 2456 2461 2467 2470 2478 2482 2484 2489 2498 2506 2506 2506 2508 2510 2523 2536 2546 2551 2554 2559 2566 2571 2579 2582 2583 2585 2590 2599 2605 2612 2616 2617 2617 2620 2620 2626 2643 2653 2655 2656 2668 2669 2683 2683 2689 2710 2710 2710 2714 2714 2720 2740 2762 2782 2803 2838 2860 2860 2860 2854 2834 2804 2796 2796 2796 2806 2836 2836 2836 2829 2829 2829 2873 3079 3214 3321 3388 3422 3449 3460 3460 3460 3422 3386 3377 3357 3273 3117 2729 2504 0 2346 2345 2342 2339 2332 2320 2309 2299 2291 2284 2275 2267 2262 2256 2252 2243 2233 2227 2222 2217 2212 2207 2202 2197 2194 2190 2186 2183 2179 2175 2172 2168 2164 2162 2159 2155 2151 2148 2145 2143 2142 2141 2140 2139 2138 2136 2133 2131 2130 2127 2126 2124 2122 2120 2118 2116 2115 2114 2112 2111 2109 2108 2107 2105 2105 2103 2102 2102 2100 2098 2097 2096 2096 2095 2094 2093 2093 2092 2092 2092 2091 2091 2090 2090 2090 2090 2090 2089 2088 2088 2087 2087 2085 2085 2083 2082 2081 2081 2081 2081 2081 2081 2081 2081 2082 2082 2082 2084 2084 2084 2084 2083 2082 2082 2081 2081 2081 2081 2084 2088 2088 2090 2091 2093 2093 2093 2089 2089 2087 2080 2076 2071 2069 2054 2033 2010 1983 0 0 0 0 0 0 0 0 0 0 0 1292 1284 1284 1284 1290 1290 1290 1283 1278 1272 1268 1263 1260 1257 1243 1227 1216 1209 1206 1202 1200 1198 1197 1194 1191 1189 1183 1175 1170 1167 1163 1160 1157 1155 1154 1152 1151 1150 1149 1148 1146 1145 1144 1143 1141 1140 1139 1138 1138 1137 1137 1135 1134 1134 1134 1132 1132 1130 1129 1126 1122 1119 1116 1114 1111 1110 1109 1106 1103 1100 1098 1095 1094 1091 1088 1087 1086 1085 1084 1082 1082 1081 1081 1081 1081 1081 1081 1081 1082 1082 1082 1083 1083 1083 1083 1083 1083 1083 1082 1082 1081 1081 1081 1080 1080 1079 1078 1078 1077 1076 1075 1075 1074 1074 1073 1073 1072 1072 1072 1072 1072 1072 1072 1072 1072 1072 1072 1072 1072 1072 1072 1074 1075 1075 1077 1079 1081 1084 1087 1092 1097 1099 1102 1106 1111 1113 1113 1113 1110 1109 1104 1099 1091 1085 1079 1075 1073 1071 1069 1062 1059 1057 1055 1055 1054 1053 1049 1047 1047 1047 1046 1046 1046 1046 1046 1049 1051 1054 1057 1058 1058 1060 1060 1061 1064 1067 1068 1068
1285 1285 1285 1282 1275 1263 1263 1263 1264 1265 1268 1270 1274 1279 1284 1285 1286 1287 1290 1294 1298 1300 1302 1304 1307 1310 1311 1313 1314 1316 1318 1322 1332 1346 1360 1372 1375 1380 1386 1399 1402 1406 1413 1421 1424 1427 1431 1433 1438 1446 1452 1465 1469 1473 1496 1526 0 0 0 0 0 0 0 0 0 1755 1771 1794 1803 1819 1824 1830 1839 1849 1858 1868 1877 1890 1899 1905 1913 1918 1922 1925 1927 1930 1933 1938 1945 1950 1952 1952 1953 1960 1966 1972 1975 1978 1982 1983 1985 1988 1991 1991 1991 1991 1988 1987 1978 1965 1959 1938 1870 1870 1870 0 0 2054 2079 2079 2079 2079 2081 2085 2090 2094 2099 2101 2103 2104 2106 2111 2118 2127 2134 2138 2141 2145 2150 2154 2161 2167 2174 2180 2183 2185 2186 2195 2201 2206 2214 2218 2219 2219 2222 2229 2239 2249 2253 2258 2262 2263 2267 2270 2275 2281 2287 2293 2302 2307 2312 2316 2319 2319 2322 2327 2332 2339 2344 2348 2349 2350 2355 2357 2359 2360 2363 2365 2368 2372 2375 2378 2381 2383 2384 2387 2393 2398 2403 2408 2410 2415 2416 2419 2423 2427 2434 2440 2449 2467 2472 2480 2490 2493 2501 2504 2505 2507 2507 2508 2508 2509 2515 2525 2539 2546 2551 2554 2558 2560 2568 2575 2582 2583 2585 2590 2599 2605 2612 2617 2627 2633 2635 2637 2645 2659 2660 2673 2676 2676 2677 2683 2688 2696 2726 2735 2744 2745 2745 2768 2784 2800 2826 2853 2872 2875 2875 2876 2875 2875 2868 2868 2868 2883 2877 2877 2877 2864 2816 2816 2816 2873 3112 3231 3342 3421 3432 3451 3462 3462 3462 3432 3380 3333 3319 3273 3117 2730 2510 0 2356 2351 2345 2339 2332 2320 2299 2289 2285 2277 2269 2263 2257 2255 2252 2242 2228 2224 2221 2216 2212 2207 2201 2196 2192 2188 2185 2181 2178 2175 2172 2167 2164 2161 2159 2155 2151 2148 2145 2143 2142 2141 2140 2139 2138 2136 2134 2132 2130 2129 2128 2126 2124 2122 2120 2119 2117 2114 2112 2111 2109 2109 2107 2106 2105 2104 2103 2102 2100 2098 2098 2097 2096 2095 2094 2093 2093 2092 2092 2092 2092 2091 2090 2090 2090 2090 2090 2089 2088 2088 2087 2087 2086 2085 2084 2083 2082 2081 2081 2081 2082 2082 2082 2082 2082 2082 2083 2084 2085 2085 2085 2085 2085 2084 2084 2084 2084 2084 2087 2091 2094 2098 2100 2102 2103 2103 2102 2098 2096 2096 2095 2084 2069 2054 2033 2001 0 0 0 0 0 0 0 0 0 0 0 1302 1291 1282 1282 1282 1285 1285 1285 1280 1274 1268 1264 1262 1258 1254 1240 1224 1212 1207 1203 1201 1199 1197 1196 1194 1191 1188 1183 1175 1170 1166 1161 1158 1156 1153 1152 1151 1150 1149 1148 1146 1145 1144 1142 1141 1141 1139 1139 1137 1136 1135 1135 1134 1133 1133 1132 1131 1130 1128 1127 1123 1121 1118 1115 1113 1111 1109 1107 1104 1102 1099 1098 1095 1092 1090 1088 1086 1086 1084 1083 1082 1081 1081 1081 1081 1081 1081 1081 1081 1081 1081 1081 1082 1082 1082 1082 1082 1081 1081 1081 1081 1081 1080 1080 1079 1079 1078 1078 1077 1077 1076 1075 1074 1074 1073 1072 1072 1072 1072 1072 1072 1072 1072 1072 1072 1072 1072 1072 1073 1074 1074 1075 1077 1078 1078 1079 1080 1081 1085 1090 1096 1099 1101 1104 1108 1111 1111 1111 1108 1105 1102 1097 1090 1081 1075 1071 1069 1069 1067 1063 1058 1053 1052 1052 1052 1052 1050 1048 1047 1046 1046 1046 1045 1045 1046 1046 1049 1052 1054 1057 1058 1059 1060 1061 1064 1068 1070 1072 1072
1284 1284 1284 1278 1265 1261 1261 1261 1263 1265 1267 1270 1273 1276 1280 1282 1284 1286 1288 1293 1296 1299 1301 1303 1303 1305 1306 1307 1308 1308 1311 1318 1330 1346 1363 1378 1382 1385 1390 1400 1402 1405 1411 1417 1421 1426 1429 1432 1432 1433 1436 1442 1445 1461 1489 1503 1503 1503 1503 1503 0 0 0 0 0 0 1770 1794 1803 1819 1824 1831 1839 1848 1856 1867 1877 1890 1901 1907 1913 1918 1923 1926 1928 1930 1934 1938 1947 1952 1952 1952 1953 1960 1967 1973 1976 1978 1982 1983 1984 1988 1990 1991 1991 1991 1990 1988 1988 1974 1965 1940 1873 1873 1873 0 0 2051 2073 2077 2078 2078 2081 2085 2090 2094 2099 2103 2103 2105 2109 2111 2118 2127 2135 2142 2148 2150 2154 2154 2162 2170 2177 2183 2186 2187 2189 2196 2201 2206 2214 2220 2223 2226 2228 2234 2242 2251 2255 2260 2264 2266 2268 2272 2276 2283 2290 2295 2302 2307 2312 2316 2319 2320 2322 2327 2332 2339 2344 2348 2349 2350 2355 2357 2359 2361 2364 2366 2368 2373 2375 2378 2382 2384 2384 2390 2397 2404 2408 2412 2415 2418 2420 2422 2426 2430 2434 2440 2449 2468 2481 2488 2496 2501 2502 2504 2507 2509 2509 2510 2511 2513 2521 2528 2540 2549 2551 2554 2558 2560 2565 2571 2578 2582 2585 2588 2593 2602 2612 2620 2631 2641 2647 2655 2665 2681 2689 2689 2693 2693 2693 2693 2703 2726 2761 2777 2788 2789 2793 2808 2820 2831 2869 2923 2923 2929 2937 2952 2965 2965 2965 2954 2954 2911 2872 2872 2872 2748 2742 0 0 0 3112 3214 3422 3450 3460 3479 3479 3467 3467 3432 3380 3333 3284 3270 3119 2791 2559 0 2373 2355 2346 2339 2325 2312 2295 2281 2279 2275 2267 2261 2255 2250 2246 2236 2226 2220 2216 2213 2209 2204 2200 2195 2190 2187 2184 2181 2178 2175 2172 2167 2163 2160 2157 2154 2151 2148 2146 2144 2143 2141 2140 2139 2138 2136 2134 2132 2130 2129 2128 2126 2125 2123 2121 2119 2117 2115 2113 2111 2109 2109 2108 2107 2105 2104 2104 2102 2101 2098 2098 2097 2096 2096 2095 2094 2093 2093 2093 2093 2093 2093 2092 2092 2091 2090 2090 2089 2088 2088 2087 2087 2086 2086 2084 2083 2082 2081 2081 2081 2082 2083 2083 2083 2083 2083 2083 2084 2085 2086 2086 2086 2085 2085 2085 2087 2089 2090 2090 2093 2099 2111 2116 2124 2124 2124 2122 2119 2114 2110 2106 2093 2070 2054 2022 1995 0 0 0 0 0 0 0 0 0 0 0 1291 1282 1280 1280 1280 1282 1282 1282 1277 1272 1265 1261 1257 1255 1249 1237 1224 1212 1205 1202 1200 1198 1197 1196 1193 1190 1187 1181 1175 1170 1164 1160 1157 1155 1153 1151 1150 1149 1148 1147 1145 1144 1143 1142 1140 1140 1138 1137 1136 1135 1135 1133 1133 1132 1131 1130 1129 1128 1127 1124 1122 1119 1117 1114 1112 1110 1108 1106 1103 1101 1099 1096 1093 1091 1089 1087 1086 1085 1084 1082 1081 1080 1080 1080 1080 1080 1080 1080 1080 1080 1080 1080 1080 1080 1080 1080 1080 1080 1080 1080 1080 1080 1080 1080 1079 1078 1078 1077 1076 1076 1076 1074 1074 1073 1072 1072 1072 1072 1071 1071 1071 1071 1072 1072 1072 1072 1072 1072 1073 1074 1076 1076 1078 1079 1080 1081 1081 1083 1087 1093 1098 1101 1104 1105 1108 1108 1108 1105 1102 1099 1094 1087 1079 1071 1066 1062 1062 1061 1061 1059 1055 1048 1048 1048 1047 1047 1047 1047 1046 1046 1045 1045 1045 1045 1045 1046 1049 1052 1055 1057 1059 1060 1061 1064 1067 1071 1073 1076 1076
1274 1274 1274 1265 1260 1260 1260 1261 1262 1264 1266 1267 1270 1274 1277 1279 1281 1282 1287 1290 1293 1296 1298 1300 1300 1301 1301 1301 1301 1301 1304 1314 1327 1345 1363 1378 1387 1392 1395 1400 1402 1405 1411 1415 1417 1419 1424 1425 1425 1430 1430 1432 1443 1446 1466 1478 1478 1478 1469 1469 1469 0 0 0 0 0 1762 1796 1819 1822 1832 1834 1840 1847 1856 1864 1877 1890 1903 1911 1914 1919 1924 1928 1930 1930 1934 1938 1947 1953 1953 1953 1953 1960 1967 1974 1976 1978 1980 1983 1983 1988 1990 1991 1991 1991 1991 1991 1991 1991 1979 1940 1879 1879 1879 0 2013 2051 2062 2074 2078 2080 2082 2086 2090 2095 2100 2103 2108 2112 2120 2124 2127 2130 2137 2146 2156 2160 2161 2163 2170 2181 2187 2188 2188 2189 2191 2196 2201 2206 2214 2220 2227 2231 2235 2239 2244 2253 2260 2265 2269 2271 2272 2273 2277 2284 2291 2295 2302 2307 2312 2316 2319 2320 2322 2327 2332 2339 2344 2348 2349 2350 2355 2357 2360 2366 2366 2367 2368 2373 2375 2378 2382 2385 2388 2392 2400 2407 2412 2417 2422 2426 2427 2429 2432 2439 2443 2449 2456 2468 2481 2488 2496 2501 2502 2504 2507 2511 2512 2514 2514 2520 2525 2532 2541 2550 2553 2556 2558 2560 2565 2571 2572 2578 2578 2582 2589 2599 2612 2623 2636 2644 2649 2660 2675 2694 2699 2701 2702 2708 2719 2744 2751 2764 2794 2812 2815 2819 2828 2857 2897 2923 2938 2991 3022 3025 3068 3118 3118 3118 3057 2977 2955 0 2911 2879 0 0 0 0 0 0 0 3165 3484 3484 3484 3482 3474 3465 3463 3432 3380 3333 3272 3214 3117 2892 2599 0 2373 2355 2346 2339 2323 2307 2295 2281 2274 2273 2266 2260 2253 2249 2244 2233 2225 2220 2214 2210 2207 2203 2198 2194 2190 2187 2184 2181 2178 2176 2172 2167 2163 2160 2155 2153 2151 2148 2146 2144 2143 2141 2140 2139 2137 2136 2134 2132 2130 2129 2128 2127 2125 2123 2121 2119 2118 2117 2115 2112 2110 2109 2108 2107 2105 2105 2104 2103 2101 2101 2099 2099 2098 2097 2096 2095 2095 2095 2095 2094 2093 2093 2092 2092 2091 2090 2090 2089 2088 2088 2088 2087 2086 2086 2085 2084 2082 2082 2082 2082 2083 2084 2085 2085 2085 2085 2085 2085 2085 2086 2086 2086 2086 2087 2088 2091 2091 2093 2093 2095 2103 2111 2120 2126 2131 2140 2140 2140 2131 2122 2119 2104 2080 2053 2020 0 0 0 0 0 0 0 0 0 0 0 1306 1285 1279 1279 1279 1279 1279 1279 1277 1273 1268 1262 1257 1253 1250 1244 1234 1222 1212 1205 1200 1198 1195 1194 1194 1192 1188 1185 1179 1173 1168 1163 1159 1157 1154 1152 1149 1149 1147 1147 1146 1145 1143 1143 1141 1140 1138 1138 1136 1135 1134 1133 1132 1131 1131 1130 1129 1128 1127 1126 1123 1121 1117 1115 1113 1111 1109 1107 1105 1102 1100 1098 1096 1093 1090 1088 1086 1085 1084 1082 1082 1080 1080 1079 1079 1079 1079 1079 1079 1079 1079 1079 1079 1080 1080 1080 1079 1079 1079 1079 1079 1079 1079 1079 1079 1079 1078 1077 1077 1076 1076 1075 1074 1074 1073 1072 1072 1072 1071 1071 1071 1071 1071 1071 1072 1072 1072 1072 1073 1074 1075 1077 1079 1079 1081 1082 1084 1085 1087 1091 1096 1100 1103 1104 1105 1105 1105 1101 1099 1094 1090 1084 1077 1069 1064 1059 1058 1058 1057 1057 1055 1051 1046 1045 1045 1045 1045 1045 1045 1045 1045 1045 1045 1045 1045 1046 1047 1049 1052 1056 1057 1059 1060 1062 1065 1067 1072 1076 1078 1078
1268 1268 1261 1260 1260 1260 1260 1261 1262 1264 1265 1265 1268 1271 1274 1276 1278 1281 1286 1288 1290 1293 1293 1295 1297 1297 1297 1297 1297 1297 1302 1311 1326 1345 1363 1378 1387 1392 1395 1399 1402 1405 1405 1411 1412 1412 1418 1424 1424 1424 1425 1430 1442 1446 1446 1451 1452 1454 1456 1457 1469 1484 0 0 0 0 1762 1796 1826 1829 1838 1840 1842 1846 1851 1862 1875 1889 1904 1916 1920 1920 1924 1929 1930 1931 1935 1940 1948 1953 1954 1954 1955 1965 1968 1974 1976 1979 1980 1983 1985 1988 1990 1991 1991 1991 1991 1991 1991 1991 1979 1938 1879 1879 1879 0 2013 2033 2057 2069 2076 2080 2092 2092 2094 2095 2100 2103 2111 2117 2125 2129 2132 2136 2142 2153 2161 2166 2168 2171 2179 2189 2189 2189 2193 2193 2193 2196 2200 2201 2209 2220 2227 2234 2239 2242 2246 2253 2264 2274 2275 2276 2276 2280 2285 2288 2291 2294 2299 2305 2310 2314 2319 2320 2323 2325 2329 2333 2337 2341 2342 2350 2355 2357 2364 2366 2367 2368 2368 2373 2375 2381 2387 2390 2392 2396 2401 2407 2413 2419 2429 2435 2437 2437 2438 2439 2443 2449 2456 2468 2481 2488 2497 2500 2502 2504 2511 2513 2515 2518 2524 2528 2532 2538 2547 2553 2555 2559 2563 2563 2565 2571 2572 2578 2578 2582 2589 2598 2613 2630 2637 2647 2655 2665 2679 2694 2705 2715 2722 2734 2747 2773 2788 2804 2829 2866 2918 2936 2966 2980 3003 3088 3108 3186 3223 3226 3226 3226 3213 3197 3121 3103 0 0 2955 0 0 0 0 0 0 0 0 0 3484 3484 3484 3482 3474 3456 3454 3432 3380 3333 3272 3204 3117 2892 2605 0 2373 2355 2345 2337 2322 2307 2295 2281 2274 2273 2266 2259 2251 2246 2240 2231 2224 2219 2214 2210 2207 2203 2198 2194 2190 2187 2184 2182 2179 2176 2173 2167 2163 2160 2155 2153 2151 2149 2147 2145 2143 2142 2141 2139 2137 2136 2134 2132 2131 2130 2129 2127 2125 2123 2121 2119 2118 2117 2117 2114 2112 2109 2108 2107 2107 2105 2104 2104 2102 2102 2101 2100 2099 2099 2098 2097 2096 2096 2095 2094 2094 2093 2093 2092 2092 2091 2090 2089 2088 2088 2088 2088 2087 2086 2085 2085 2084 2083 2083 2083 2084 2085 2086 2087 2087 2087 2085 2085 2085 2086 2086 2086 2086 2087 2092 2094 2094 2095 2097 2098 2106 2114 2122 2127 2138 2150 2150 2150 2148 2138 2119 2104 2080 2045 0 0 0 0 0 0 0 0 0 0 0 1328 1295 1275 1275 1275 1275 1275 1275 1275 1272 1268 1264 1258 1254 1251 1246 1241 1230 1218 1210 1204 1199 1196 1195 1194 1193 1189 1186 1183 1177 1171 1166 1161 1159 1156 1152 1151 1149 1148 1146 1145 1145 1143 1142 1141 1140 1138 1137 1136 1136 1134 1133 1131 1131 1130 1129 1129 1128 1127 1127 1125 1122 1119 1116 1114 1112 1110 1108 1106 1103 1101 1099 1097 1094 1093 1090 1087 1086 1084 1083 1082 1081 1080 1079 1079 1079 1079 1078 1078 1078 1078 1078 1078 1078 1078 1078 1078 1078 1078 1078 1078 1078 1078 1078 1078 1078 1078 1077 1077 1077 1075 1075 1074 1074 1073 1072 1072 1071 1071 1071 1071 1071 1071 1071 1072 1072 1072 1073 1073 1074 1075 1076 1078 1079 1080 1082 1084 1086 1088 1092 1096 1099 1103 1103 1103 1103 1102 1100 1097 1093 1091 1083 1075 1068 1063 1057 1055 1054 1054 1053 1052 1050 1045 1043 1043 1043 1043 1043 1044 1044 1045 1045 1045 1045 1045 1045 1046 1047 1049 1053 1056 1058 1060 1061 1063 1066 1070 1073 1077 1078 1078
1259 1259 1259 1258 1258 1258 1259 1260 1262 1262 1263 1263 1267 1270 1273 1275 1275 1280 1283 1285 1286 1287 1291 1294 1296 1296 1296 1297 1297 1297 1300 1308 1320 1341 1358 1374 1387 1392 1395 1398 1398 1399 1402 1407 1408 1410 1414 1414 1417 1418 1419 1424 1430 1430 1430 1430 1434 1435 1447 1456 1469 1482 0 0 0 0 1762 1804 1837 1838 1838 1840 1842 1843 1851 1862 1875 1889 1904 1916 1920 1923 1927 1930 1934 1936 1940 1948 1951 1957 1959 1961 1963 1965 1968 1974 1976 1978 1980 1982 1986 1988 1988 1988 1988 1988 1988 1991 1991 1991 1979 1938 1879 1879 1879 0 2005 2030 2057 2065 2076 2080 2093 2103 2103 2103 2104 2106 2113 2120 2125 2130 2134 2136 2144 2157 2163 2169 2172 2177 2186 2193 2193 2193 2194 2194 2195 2198 2200 2201 2209 2220 2227 2234 2239 2248 2250 2258 2272 2274 2275 2276 2276 2280 2285 2289 2291 2294 2299 2303 2308 2313 2317 2321 2323 2325 2329 2333 2337 2341 2342 2350 2355 2365 2367 2367 2368 2368 2368 2370 2375 2382 2388 2392 2396 2398 2402 2407 2413 2420 2429 2435 2437 2437 2438 2439 2443 2450 2457 2468 2481 2489 2497 2500 2502 2504 2510 2513 2517 2519 2526 2530 2537 2546 2554 2565 2567 2570 2570 2571 2571 2571 2572 2578 2578 2582 2589 2598 2618 2631 2642 2663 2677 2679 2692 2715 2722 2728 2747 2758 2773 2802 2816 2856 2912 2976 2993 3039 3135 3183 3185 3197 3206 3281 3327 3352 3352 3352 3302 3260 3228 3227 3209 3186 0 0 0 0 0 0 0 0 0 0 3484 3484 3484 3474 3443 3432 3416 3409 3380 3333 3259 3197 3085 2892 2612 0 2373 2355 2343 2333 2318 2304 2296 2283 2274 2273 2266 2256 2249 2244 2240 2231 2224 2218 2214 2210 2207 2203 2198 2194 2191 2188 2184 2182 2179 2176 2173 2169 2167 2160 2155 2153 2152 2150 2148 2146 2144 2142 2141 2139 2137 2136 2134 2132 2131 2130 2129 2127 2125 2123 2121 2120 2118 2118 2117 2114 2112 2110 2109 2108 2107 2106 2106 2104 2104 2103 2102 2102 2102 2102 2101 2098 2097 2096 2095 2094 2094 2093 2093 2092 2092 2091 2090 2090 2089 2089 2089 2088 2088 2087 2087 2086 2085 2083 2083 2083 2084 2086 2087 2089 2089 2089 2086 2086 2086 2086 2086 2086 2088 2090 2093 2095 2099 2100 2100 2104 2109 2114 2123 2132 2148 2157 2157 2157 2148 2138 2119 2104 2080 0 0 0 0 0 0 0 0 0 0 0 1357 1318 1289 1271 1271 1271 1271 1271 1271 1270 1267 1265 1259 1257 1251 1247 1243 1236 1228 1218 1210 1204 1199 1196 1193 1193 1190 1188 1185 1181 1175 1169 1165 1160 1157 1154 1151 1150 1148 1146 1145 1144 1142 1142 1142 1139 1139 1138 1136 1135 1134 1133 1132 1131 1130 1129 1129 1128 1127 1127 1126 1123 1121 1118 1114 1112 1110 1108 1107 1104 1102 1100 1098 1095 1093 1091 1089 1087 1085 1084 1082 1081 1080 1079 1079 1079 1078 1078 1078 1078 1077 1077 1077 1077 1077 1077 1077 1077 1077 1077 1077 1077 1077 1077 1077 1078 1077 1077 1077 1076 1075 1075 1075 1074 1072 1072 1071 1070 1070 1069 1069 1069 1069 1070 1071 1072 1072 1073 1074 1074 1075 1076 1077 1078 1080 1081 1083 1085 1089 1092 1097 1098 1099 1103 1103 1103 1100 1098 1094 1091 1085 1082 1075 1067 1062 1057 1053 1052 1050 1049 1049 1049 1046 1042 1042 1042 1042 1042 1042 1043 1044 1045 1046 1046 1046 1046 1047 1047 1048 1050 1054 1057 1060 1062 1063 1067 1069 1073 1076 1078 1080 1080
1257 1258 1258 1259 1259 1259 1259 1260 1260 1261 1262 1263 1264 1269 1272 1274 1275 1277 1279 1281 1282 1285 1288 1294 1295 1295 1296 1297 1297 1297 1300 1308 1317 1340 1350 1364 1381 1389 1390 1392 1392 1393 1396 1401 1403 1405 1411 1414 1415 1416 1418 1424 1424 1424 1424 1422 1422 1422 1423 1430 1449 1467 0 0 0 0 1765 1808 1838 1839 1840 1842 1842 1843 1851 1862 1875 1889 1903 1916 1920 1923 1931 1939 1944 1946 1951 1955 1956 1960 1963 1963 1964 1965 1968 1972 1976 1978 1980 1982 1983 1987 1987 1987 1987 1987 1987 1989 1989 1989 1965 1919 1879 1879 1879 0 0 2022 2057 2063 2070 2085 2095 2104 2110 2110 2111 2112 2116 2120 2125 2130 2134 2144 2148 2157 2166 2170 2174 2180 2190 2195 2195 2196 2196 2196 2198 2200 2201 2201 2209 2220 2228 2236 2244 2248 2251 2263 2272 2274 2275 2276 2276 2280 2285 2289 2291 2294 2296 2302 2307 2311 2316 2320 2323 2325 2329 2333 2337 2341 2342 2353 2356 2365 2368 2368 2368 2368 2368 2370 2376 2383 2390 2393 2397 2398 2402 2407 2413 2420 2429 2435 2437 2437 2438 2439 2443 2451 2457 2468 2479 2489 2498 2499 2502 2503 2507 2514 2518 2524 2526 2530 2537 2546 2558 2568 2576 2576 2576 2576 2576 2577 2581 2586 2587 2589 2594 2598 2618 2637 2663 2691 2703 2705 2707 2718 2732 2758 2804 2826 2870 2949 2974 2990 3033 3118 3154 3163 3246 3307 3310 3327 3357 3380 3395 3395 3395 3368 3314 3290 3290 3285 3281 3225 0 0 0 0 0 0 0 0 0 0 0 3418 3418 3418 3395 3395 3387 3383 3363 3333 3272 3197 3085 2880 2612 0 2354 2352 2340 2325 2311 2301 2297 2292 2283 2277 2266 2256 2249 2244 2238 2231 2224 2219 2214 2210 2208 2203 2198 2194 2192 2188 2185 2182 2179 2175 2173 2170 2168 2163 2158 2156 2154 2153 2151 2149 2146 2145 2143 2141 2140 2138 2136 2134 2134 2132 2130 2127 2125 2123 2121 2120 2119 2118 2117 2115 2113 2111 2110 2110 2108 2107 2107 2105 2105 2104 2104 2103 2103 2102 2101 2098 2097 2096 2095 2094 2093 2093 2093 2092 2092 2091 2090 2090 2090 2090 2090 2090 2090 2090 2090 2089 2086 2083 2083 2083 2084 2086 2088 2090 2091 2091 2091 2090 2087 2087 2087 2087 2088 2091 2093 2098 2102 2106 2108 2108 2112 2122 2128 2139 2157 2157 2157 2157 2148 2138 2118 2080 0 0 0 0 0 0 0 0 0 0 0 0 1338 1309 1282 1270 1270 1270 1271 1271 1271 1269 1266 1261 1258 1254 1249 1245 1239 1234 1226 1215 1208 1203 1199 1195 1192 1190 1188 1186 1183 1179 1173 1167 1163 1159 1156 1153 1150 1149 1147 1145 1144 1142 1142 1141 1140 1138 1137 1136 1135 1134 1133 1133 1131 1131 1130 1129 1129 1128 1126 1126 1124 1122 1119 1116 1113 1110 1108 1106 1105 1103 1101 1100 1096 1094 1092 1090 1087 1086 1084 1083 1082 1080 1079 1079 1078 1078 1078 1078 1077 1077 1077 1077 1077 1077 1077 1077 1076 1076 1076 1076 1077 1077 1077 1077 1077 1076 1076 1076 1076 1076 1075 1074 1073 1073 1072 1071 1070 1069 1069 1069 1069 1069 1069 1070 1071 1072 1072 1073 1074 1075 1076 1076 1079 1080 1081 1082 1084 1087 1091 1095 1097 1098 1099 1100 1100 1100 1096 1092 1088 1082 1079 1076 1068 1062 1056 1052 1050 1048 1045 1045 1044 1044 1042 1040 1040 1040 1041 1042 1042 1043 1044 1045 1046 1046 1047 1047 1048 1050 1051 1054 1057 1061 1064 1064 1067 1071 1073 1077 1078 1078 1080 1080
1255 1256 1256 1257 1258 1258 1259 1259 1259 1260 1261 1263 1264 1268 1271 1272 1274 1276 1278 1278 1280 1283 1286 1289 1290 1293 1293 1294 1296 1298 1300 1308 1317 1340 1350 1359 1375 1382 1382 1384 1385 1386 1390 1393 1397 1402 1411 1411 1413 1413 1414 1419 1421 1422 1422 1421 1422 1422 1423 1430 1446 1467 0 0 0 0 1794 1832 1839 1842 1842 1842 1843 1843 1852 1868 1880 1889 1898 1907 1919 1923 1931 1940 1947 1952 1957 1961 1962 1963 1963 1964 1964 1965 1967 1969 1970 1974 1975 1981 1982 1985 1986 1986 1986 1986 1986 1983 1980 1943 1942 1907 1879 1879 1879 1933 0 0 2060 2062 2070 2085 2097 2107 2111 2112 2113 2115 2120 2123 2128 2133 2139 2147 2152 2160 2166 2171 2176 2187 2193 2195 2195 2196 2197 2197 2201 2203 2204 2208 2214 2222 2231 2240 2247 2251 2255 2263 2270 2270 2271 2271 2272 2279 2285 2289 2291 2293 2295 2298 2303 2310 2316 2320 2324 2329 2333 2335 2337 2341 2349 2353 2356 2365 2370 2370 2370 2370 2370 2370 2376 2383 2390 2394 2399 2401 2404 2408 2413 2422 2429 2434 2435 2435 2436 2436 2443 2451 2463 2471 2478 2488 2495 2497 2498 2501 2509 2514 2519 2524 2527 2530 2537 2546 2559 2573 2577 2578 2582 2591 2596 2606 2610 2610 2613 2618 2619 2634 2658 2685 2706 2726 2732 2736 2749 2762 2787 2840 2926 2964 3018 3180 3225 3231 3316 3395 3407 3413 3414 3417 3423 3431 3433 3435 3435 3435 3434 3379 3354 3354 3354 3354 3354 3321 0 0 0 0 0 0 0 0 0 0 0 0 3367 3386 3386 3383 3376 3376 3306 3295 3272 3197 3085 2830 2612 0 2354 2352 2335 2321 2309 2300 2297 2294 2287 2279 2267 2255 2247 2243 2238 2233 2227 2219 2215 2212 2209 2204 2199 2195 2192 2189 2186 2182 2179 2175 2173 2171 2168 2166 2163 2160 2155 2154 2153 2151 2148 2145 2144 2143 2142 2140 2137 2137 2136 2134 2131 2128 2125 2123 2122 2121 2120 2119 2117 2115 2114 2112 2111 2111 2111 2110 2107 2106 2106 2106 2105 2105 2104 2102 2101 2098 2097 2096 2095 2094 2093 2093 2093 2093 2092 2091 2090 2090 2090 2091 2091 2091 2091 2091 2090 2089 2086 2084 2084 2084 2084 2086 2089 2091 2093 2093 2093 2091 2091 2091 2090 2090 2090 2093 2098 2100 2107 2112 2113 2113 2126 2135 2138 2148 2156 2156 2156 2139 2114 2088 2078 0 0 0 0 0 0 0 0 0 0 0 0 0 1320 1293 1277 1269 1269 1269 1270 1270 1270 1267 1264 1259 1255 1251 1246 1242 1238 1231 1223 1214 1205 1201 1197 1193 1190 1187 1185 1184 1180 1177 1172 1166 1162 1159 1155 1151 1149 1147 1145 1144 1143 1141 1141 1139 1138 1137 1136 1135 1133 1133 1132 1131 1131 1129 1129 1128 1127 1127 1125 1124 1122 1120 1116 1113 1111 1109 1107 1105 1104 1102 1101 1098 1096 1093 1090 1089 1087 1085 1083 1082 1080 1080 1079 1078 1077 1077 1077 1076 1076 1076 1076 1076 1076 1076 1076 1076 1075 1075 1075 1075 1075 1076 1076 1076 1076 1076 1076 1075 1075 1075 1074 1074 1073 1072 1071 1070 1070 1069 1069 1069 1069 1069 1069 1069 1071 1072 1072 1074 1076 1076 1078 1079 1080 1081 1081 1084 1086 1090 1093 1095 1097 1098 1099 1099 1099 1096 1092 1086 1081 1076 1072 1069 1063 1058 1053 1048 1047 1044 1042 1040 1039 1039 1038 1038 1038 1039 1040 1041 1042 1042 1043 1045 1046 1048 1048 1049 1050 1054 1055 1057 1061 1064 1066 1067 1071 1073 1074 1077 1078 1078 1080 1080
1250 1254 1256 1257 1258 1258 1259 1259 1259 1259 1261 1263 1264 1268 1270 1271 1273 1275 1277 1278 1279 1282 1284 1287 1287 1289 1290 1294 1296 1300 1302 1308 1317 1340 1348 1358 1371 1374 1374 1375 1377 1379 1382 1387 1395 1401 1406 1407 1408 1410 1412 1414 1421 1422 1422 1421 1422 1422 1423 1430 1446 0 0 0 0 0 1814 1840 1842 1842 1842 1845 1856 1869 1873 1879 1888 1893 1898 1903 1914 1923 1931 1940 1947 1952 1958 1964 1964 1965 1965 1965 1965 1965 1967 1968 1969 1970 1971 1975 1981 1985 1985 1985 1985 1985 1983 1980 1979 1937 1936 1907 1887 1887 1887 1910 0 0 2060 2062 2070 2085 2097 2108 2112 2112 2114 2118 2123 2129 2132 2139 2146 2154 2163 2167 2171 2175 2183 2189 2194 2196 2197 2197 2198 2201 2203 2208 2211 2213 2216 2222 2231 2240 2247 2251 2255 2263 2268 2268 2269 2270 2272 2278 2285 2289 2291 2292 2295 2297 2299 2306 2313 2320 2324 2329 2333 2335 2338 2341 2349 2353 2356 2363 2369 2372 2373 2373 2373 2373 2376 2383 2391 2396 2400 2403 2407 2409 2414 2422 2429 2430 2430 2431 2431 2431 2443 2461 2472 2472 2478 2487 2493 2497 2498 2499 2509 2515 2523 2526 2527 2530 2531 2544 2560 2574 2582 2583 2594 2609 2630 2645 2662 2662 2662 2666 2666 2676 2701 2717 2746 2781 2818 2823 2823 2905 3013 3018 3044 3179 3284 3308 3335 3383 3427 3441 3441 3449 3441 3439 3436 3435 3435 3435 3444 3444 3444 3415 3415 3415 3414 3414 3414 3377 3350 0 0 0 0 0 0 0 0 0 0 0 0 0 3360 3366 3366 3366 3306 3270 3268 3197 3052 2822 2584 0 2354 2352 2335 2320 2306 2299 2296 2294 2288 2279 2268 2255 2247 2242 2238 2233 2228 2220 2216 2215 2211 2205 2200 2196 2193 2189 2186 2182 2179 2175 2174 2172 2169 2166 2165 2162 2158 2155 2153 2151 2148 2146 2145 2144 2142 2140 2139 2137 2137 2135 2133 2130 2128 2126 2125 2123 2120 2119 2117 2115 2114 2112 2111 2111 2111 2111 2111 2109 2109 2108 2106 2105 2104 2102 2101 2099 2097 2096 2096 2094 2094 2093 2093 2092 2091 2091 2091 2092 2092 2092 2092 2092 2091 2091 2091 2089 2086 2084 2084 2084 2084 2088 2089 2092 2094 2094 2094 2093 2093 2092 2091 2091 2091 2096 2103 2107 2112 2117 2121 2127 2135 2138 2138 2149 2151 2151 2151 2129 2104 2072 2032 0 0 0 0 0 0 0 1481 1474 1463 0 0 0 1306 1280 1270 1268 1268 1268 1268 1268 1268 1265 1261 1257 1252 1247 1243 1238 1235 1230 1221 1213 1204 1199 1195 1192 1188 1185 1184 1182 1178 1175 1170 1165 1161 1158 1154 1150 1148 1145 1144 1143 1141 1141 1139 1138 1137 1136 1135 1133 1132 1132 1131 1131 1130 1129 1128 1127 1126 1125 1124 1123 1121 1118 1114 1112 1110 1107 1105 1104 1103 1101 1100 1097 1095 1092 1090 1087 1086 1084 1082 1082 1080 1079 1078 1077 1077 1077 1077 1076 1076 1076 1075 1075 1075 1075 1075 1075 1075 1074 1074 1074 1075 1075 1075 1075 1075 1075 1075 1075 1074 1074 1074 1072 1072 1071 1070 1069 1068 1068 1068 1068 1069 1069 1069 1069 1071 1072 1073 1075 1076 1078 1080 1080 1082 1082 1084 1086 1089 1092 1094 1096 1096 1096 1096 1095 1093 1090 1085 1079 1073 1070 1067 1065 1060 1054 1049 1046 1044 1043 1040 1039 1038 1037 1037 1037 1037 1039 1039 1040 1040 1041 1042 1045 1047 1049 1051 1051 1054 1056 1057 1059 1062 1065 1066 1067 1071 1073 1074 1077 1078 1078 1079 1079
1250 1253 1256 1257 1258 1258 1259 1259 1259 1259 1261 1263 1265 1267 1268 1270 1271 1274 1276 1277 1279 1281 1283 1285 1285 1286 1288 1291 1296 1300 1304 1311 1321 1340 1346 1357 1368 1370 1372 1373 1373 1375 1378 1383 1391 1395 1396 1399 1401 1401 1406 1412 1420 1422 1424 1426 1428 1432 1434 1435 0 0 0 0 0 0 1832 1849 1849 1850 1854 1870 1872 1884 1893 1897 1897 1898 1898 1903 1913 1923 1932 1939 1947 1952 1959 1964 1964 1965 1965 1965 1965 1965 1966 1968 1969 1970 1971 1975 1981 1985 1985 1985 1984 1974 1964 1963 1937 1925 1923 1923 1923 1913 1919 1919 0 0 2060 2062 2077 2089 2099 2109 2112 2113 2115 2122 2129 2134 2138 2143 2153 2159 2167 2172 2176 2180 2183 2189 2194 2196 2197 2200 2201 2207 2214 2215 2215 2216 2217 2223 2231 2240 2247 2251 2255 2259 2262 2268 2268 2269 2272 2278 2285 2289 2290 2292 2295 2297 2299 2306 2312 2318 2324 2329 2333 2335 2338 2341 2349 2350 2353 2359 2366 2373 2376 2376 2378 2378 2379 2394 2398 2402 2404 2407 2410 2412 2415 2422 2429 2429 2429 2427 2427 2427 2441 2463 2473 2477 2478 2480 2481 2483 2487 2499 2506 2515 2523 2526 2530 2530 2531 2544 2562 2580 2583 2584 2594 2618 2652 2691 2720 2720 2720 2720 2720 2750 2760 2771 2819 2949 3020 3061 3084 3199 3238 3254 3294 3310 3365 3393 3418 3447 3449 3449 3449 3449 3441 3439 3436 3435 3435 3435 3444 3444 3444 3436 3436 3436 3443 3445 3454 3453 3445 3445 3360 0 0 0 0 0 0 0 0 0 0 0 0 3366 3366 3366 3306 3270 3259 3197 3023 2780 2576 0 2382 2355 2335 2320 2306 2299 2296 2294 2289 2279 2268 2255 2247 2242 2239 2233 2228 2220 2216 2215 2212 2207 2202 2196 2193 2190 2186 2183 2180 2179 2176 2172 2170 2166 2165 2162 2159 2156 2153 2151 2149 2147 2145 2144 2142 2140 2139 2137 2137 2135 2133 2131 2129 2127 2126 2123 2121 2120 2119 2116 2114 2112 2112 2112 2111 2111 2111 2110 2109 2108 2107 2106 2106 2103 2101 2099 2097 2097 2096 2095 2094 2093 2093 2092 2091 2091 2091 2092 2092 2092 2092 2092 2091 2091 2091 2089 2087 2087 2087 2087 2087 2088 2089 2093 2095 2097 2097 2097 2097 2097 2099 2102 2107 2107 2108 2111 2118 2121 2122 2128 2139 2144 2146 2162 2162 2162 2150 2126 2095 2058 0 0 0 0 0 0 0 1480 1477 1469 1453 1437 0 0 1295 1270 1264 1264 1264 1266 1266 1266 1265 1262 1258 1254 1249 1245 1240 1236 1232 1228 1217 1210 1204 1196 1192 1188 1185 1184 1184 1181 1178 1175 1168 1163 1159 1157 1153 1150 1148 1145 1143 1142 1141 1139 1138 1137 1136 1135 1134 1132 1132 1131 1131 1130 1129 1127 1127 1126 1125 1123 1122 1121 1120 1116 1113 1111 1109 1106 1105 1103 1101 1100 1098 1096 1094 1092 1089 1087 1085 1083 1081 1080 1079 1078 1078 1077 1076 1076 1076 1076 1075 1075 1075 1075 1075 1074 1074 1074 1074 1074 1074 1074 1074 1074 1074 1074 1074 1074 1074 1074 1074 1073 1073 1072 1072 1070 1070 1068 1068 1068 1068 1068 1069 1069 1069 1069 1071 1072 1074 1076 1078 1079 1081 1082 1084 1084 1086 1089 1091 1092 1095 1095 1095 1095 1093 1089 1087 1083 1078 1073 1067 1064 1063 1061 1057 1051 1047 1044 1042 1041 1039 1038 1036 1036 1036 1036 1036 1037 1037 1038 1039 1039 1042 1045 1048 1051 1053 1055 1055 1057 1058 1060 1062 1065 1066 1067 1071 1073 1074 1075 1075 1076 1077 1077
1247 1251 1254 1254 1256 1258 1259 1259 1259 1260 1262 1263 1265 1267 1268 1268 1271 1274 1276 1277 1279 1280 1283 1284 1285 1286 1288 1291 1296 1300 1305 1312 1323 1340 1346 1357 1367 1369 1369 1370 1370 1372 1376 1381 1389 1391 1391 1393 1394 1396 1401 1406 1417 1417 1424 1429 1440 1441 1446 1446 0 0 0 0 0 0 1842 1852 1858 1862 1878 1879 1881 1885 1893 1898 1898 1902 1903 1903 1913 1923 1932 1939 1947 1952 1961 1966 1966 1966 1965 1965 1965 1966 1966 1968 1969 1970 1971 1975 1981 1985 1985 1985 1973 1956 1946 1911 1911 1911 1936 1937 1937 1936 1931 1931 1931 1989 2043 2063 2080 2094 2102 2111 2112 2117 2124 2132 2137 2140 2144 2150 2159 2167 2173 2177 2181 2185 2187 2191 2195 2196 2198 2202 2212 2217 2217 2217 2218 2218 2218 2224 2231 2238 2246 2251 2252 2258 2262 2268 2268 2269 2272 2278 2283 2287 2290 2292 2295 2297 2299 2306 2312 2318 2321 2325 2329 2334 2338 2341 2344 2344 2350 2357 2364 2371 2376 2377 2378 2378 2381 2395 2400 2402 2404 2409 2412 2414 2416 2424 2431 2431 2431 2427 2427 2427 2444 2464 2475 2478 2478 2480 2480 2480 2487 2499 2506 2516 2524 2529 2530 2531 2533 2544 2566 2589 2594 2594 2603 2620 2653 2693 2747 2762 2774 2784 2823 2841 2862 2876 2959 3072 3128 3168 3218 3332 3355 3365 3377 3389 3390 3434 3447 3449 3449 3449 3449 3449 3441 3439 3436 3429 3429 3429 3441 3441 3441 3436 3436 3436 3443 3445 3454 3456 3445 3445 3436 3316 0 0 0 0 0 0 0 0 0 0 0 3366 3366 3366 3322 3270 3227 3131 2969 2737 2555 0 2393 2362 2338 2320 2306 2299 2296 2293 2289 2280 2268 2255 2247 2242 2239 2233 2228 2220 2216 2215 2212 2208 2202 2197 2193 2190 2187 2184 2182 2179 2176 2172 2170 2167 2165 2163 2159 2157 2154 2152 2149 2147 2146 2144 2142 2140 2139 2138 2137 2135 2133 2131 2129 2127 2126 2124 2122 2120 2119 2117 2115 2113 2112 2112 2111 2111 2111 2110 2109 2108 2107 2106 2106 2104 2102 2101 2100 2099 2098 2096 2095 2094 2093 2093 2091 2091 2091 2092 2093 2093 2093 2093 2092 2092 2091 2091 2090 2088 2088 2088 2089 2089 2091 2094 2097 2099 2104 2104 2104 2105 2107 2112 2119 2119 2119 2120 2120 2122 2127 2138 2149 2152 2160 2163 2163 2163 2147 2117 2082 0 0 0 0 0 0 0 0 1471 1470 1459 1440 1416 0 0 1290 1269 1263 1263 1263 1263 1263 1263 1260 1257 1256 1252 1247 1242 1237 1233 1231 1227 1215 1206 1199 1194 1189 1185 1184 1183 1182 1178 1176 1173 1167 1161 1157 1154 1152 1148 1145 1144 1142 1140 1139 1138 1137 1135 1135 1133 1133 1132 1131 1130 1130 1129 1128 1127 1126 1124 1122 1122 1122 1121 1119 1116 1112 1109 1107 1105 1103 1102 1100 1098 1097 1094 1092 1089 1088 1086 1084 1082 1081 1080 1078 1078 1077 1077 1076 1076 1075 1075 1075 1075 1074 1074 1074 1074 1074 1073 1073 1073 1073 1074 1074 1074 1074 1074 1074 1074 1074 1073 1073 1073 1072 1072 1071 1070 1069 1068 1068 1068 1068 1068 1069 1069 1069 1070 1071 1073 1074 1077 1078 1080 1081 1083 1084 1086 1088 1090 1092 1094 1095 1095 1095 1094 1090 1086 1080 1077 1071 1066 1063 1060 1059 1057 1053 1048 1044 1043 1041 1040 1038 1037 1035 1034 1034 1034 1035 1035 1036 1036 1037 1039 1042 1045 1048 1052 1054 1055 1055 1057 1058 1060 1062 1065 1066 1067 1069 1071 1072 1073 1074 1074 1074 1074
1245 1250 1251 1252 1255 1257 1259 1259 1259 1260 1262 1263 1265 1267 1268 1268 1271 1274 1276 1277 1279 1280 1283 1284 1285 1286 1288 1291 1296 1300 1306 1312 1323 1337 1345 1353 1362 1366 1367 1367 1368 1371 1374 1379 1384 1390 1390 1391 1391 1392 1397 1406 1415 1417 1425 1435 1441 1447 1454 1468 0 0 0 0 0 1803 1842 1852 1861 1880 1880 1882 1883 1886 1893 1900 1901 1903 1904 1904 1913 1924 1935 1940 1947 1952 1961 1965 1965 1965 1965 1965 1965 1966 1967 1969 1975 1977 1983 1987 1991 1991 1991 1979 1958 1948 1909 1909 1909 1911 1981 1981 1981 1962 1931 1931 1931 1981 2026 2063 2083 2096 2103 2116 2121 2128 2135 2141 2150 2154 2155 2155 2163 2167 2175 2182 2188 2191 2194 2195 2196 2197 2200 2206 2212 2217 2217 2217 2218 2219 2219 2224 2231 2238 2246 2251 2252 2258 2262 2268 2271 2273 2274 2279 2283 2286 2290 2294 2297 2301 2304 2308 2312 2318 2321 2324 2327 2330 2336 2337 2337 2340 2346 2351 2361 2367 2376 2378 2378 2385 2387 2396 2402 2403 2404 2410 2413 2415 2420 2425 2431 2431 2431 2427 2427 2427 2444 2468 2476 2479 2479 2480 2480 2480 2487 2500 2509 2519 2529 2531 2533 2533 2541 2555 2587 2612 2612 2613 2614 2638 2671 2730 2755 2769 2777 2918 2996 3002 3032 3134 3148 3181 3222 3259 3324 3401 3419 3419 3419 3419 3427 3434 3447 3449 3449 3447 3412 3412 3412 3414 3415 3416 3425 3427 3435 3436 3436 3436 3436 3436 3439 3442 3443 3445 3445 3445 3436 3316 3165 0 0 0 0 0 0 0 0 0 0 0 3322 3322 3322 3282 3200 3106 2947 2718 2549 0 2393 2362 2338 2320 2302 2299 2293 2292 2288 2280 2268 2260 2248 2243 2239 2234 2228 2220 2218 2215 2212 2209 2203 2198 2193 2190 2187 2185 2183 2180 2176 2172 2170 2167 2165 2163 2161 2159 2156 2153 2150 2148 2146 2144 2142 2140 2139 2138 2137 2135 2133 2131 2129 2127 2126 2124 2122 2120 2120 2118 2115 2113 2112 2112 2112 2112 2112 2111 2110 2108 2107 2106 2106 2106 2105 2104 2101 2100 2099 2097 2095 2095 2093 2093 2092 2092 2092 2093 2093 2093 2093 2093 2093 2093 2093 2093 2096 2097 2097 2097 2097 2097 2098 2100 2100 2100 2105 2105 2105 2106 2108 2114 2120 2120 2122 2122 2125 2131 2135 2146 2154 2167 2167 2167 2166 2150 2133 2099 0 0 0 0 0 0 0 0 1457 1456 1454 1445 1425 1407 0 0 1283 1269 1263 1263 1262 1262 1262 1261 1258 1255 1252 1249 1244 1241 1236 1232 1229 1226 1214 1205 1197 1192 1188 1184 1182 1181 1179 1177 1174 1171 1165 1157 1155 1153 1151 1147 1145 1143 1141 1140 1138 1137 1136 1135 1134 1133 1132 1131 1131 1129 1129 1128 1127 1126 1125 1124 1122 1122 1122 1120 1119 1114 1110 1108 1105 1103 1101 1100 1098 1097 1095 1093 1090 1088 1087 1085 1083 1082 1080 1079 1078 1077 1076 1076 1075 1075 1075 1075 1074 1074 1074 1074 1074 1073 1073 1073 1073 1073 1073 1073 1073 1073 1073 1073 1073 1073 1073 1073 1073 1073 1072 1071 1071 1069 1069 1068 1068 1068 1068 1069 1069 1069 1070 1071 1072 1074 1075 1077 1078 1080 1082 1083 1085 1088 1090 1092 1094 1094 1094 1094 1093 1091 1087 1081 1075 1070 1063 1062 1060 1054 1053 1051 1048 1044 1043 1041 1041 1039 1036 1034 1033 1033 1033 1033 1033 1033 1034 1034 1036 1037 1040 1045 1049 1052 1054 1055 1056 1057 1058 1060 1062 1063 1065 1066 1067 1067 1070 1071 1071 1071 1068 1068
1243 1248 1251 1252 1253 1255 1257 1258 1259 1260 1262 1263 1265 1267 1268 1268 1272 1274 1277 1278 1279 1280 1283 1284 1285 1287 1289 1291 1297 1303 1306 1311 1323 1327 1339 1348 1358 1361 1362 1362 1363 1364 1367 1373 1380 1386 1389 1389 1389 1390 1396 1406 1415 1417 1426 1437 1443 1449 1457 1481 0 0 0 0 1772 1826 1843 1852 1864 1880 1881 1882 1885 1886 1894 1905 1906 1906 1907 1910 1919 1928 1939 1941 1947 1955 1963 1965 1965 1965 1965 1965 1965 1967 1968 1972 1976 1980 1991 1998 1998 1998 1991 1979 1945 1917 1909 1909 1909 1971 1985 1985 1985 1962 1934 1934 1934 1956 2010 2063 2091 2101 2110 2118 2121 2133 2140 2144 2150 2155 2159 2162 2166 2171 2175 2186 2191 2191 2194 2195 2196 2197 2201 2206 2212 2217 2218 2219 2221 2224 2226 2227 2231 2238 2246 2251 2252 2258 2265 2270 2274 2275 2277 2279 2283 2286 2290 2296 2298 2301 2305 2311 2313 2318 2321 2323 2327 2329 2332 2336 2336 2339 2343 2348 2353 2359 2366 2374 2378 2385 2393 2398 2402 2403 2406 2411 2416 2421 2423 2427 2431 2431 2431 2431 2431 2435 2450 2468 2485 2485 2485 2484 2484 2484 2512 2513 2519 2524 2539 2541 2548 2562 2563 2584 2605 2616 2617 2623 2633 2658 2705 2762 2816 2833 2847 2924 2998 3004 3034 3267 3292 3297 3300 3313 3422 3426 3427 3426 3425 3426 3431 3434 3434 3434 3431 3425 3410 3405 3405 3405 3409 3413 3414 3420 3422 3422 3422 3412 3412 3412 3427 3427 3427 3442 3436 3420 3419 3316 3188 3112 0 0 0 0 0 0 0 0 0 0 3322 3322 3322 3270 3200 3106 2947 2708 2523 0 2393 2362 2338 2320 2303 2299 2293 2291 2288 2280 2269 2260 2255 2250 2242 2235 2228 2220 2218 2216 2213 2209 2203 2198 2193 2190 2187 2185 2183 2180 2176 2172 2170 2167 2166 2164 2162 2160 2156 2153 2150 2148 2146 2144 2142 2140 2139 2137 2137 2134 2133 2131 2130 2127 2126 2125 2123 2122 2120 2118 2116 2113 2113 2112 2112 2112 2112 2111 2109 2109 2107 2106 2106 2106 2106 2104 2103 2101 2099 2097 2096 2095 2094 2093 2093 2093 2093 2093 2093 2094 2094 2094 2094 2094 2095 2098 2100 2100 2100 2102 2102 2102 2102 2102 2103 2103 2105 2105 2105 2107 2108 2117 2126 2132 2138 2138 2139 2141 2146 2155 2165 2167 2167 2167 2147 2123 2097 0 0 0 0 0 0 0 0 1454 1448 1446 1446 1431 1418 0 0 0 1276 1265 1263 1262 1261 1260 1259 1255 1254 1253 1249 1246 1242 1239 1235 1230 1227 1223 1214 1205 1197 1191 1188 1183 1181 1179 1177 1176 1174 1171 1164 1157 1154 1151 1148 1146 1144 1141 1140 1138 1136 1136 1135 1134 1133 1132 1131 1131 1130 1129 1128 1127 1126 1126 1125 1124 1122 1121 1120 1119 1116 1114 1110 1106 1105 1102 1100 1098 1097 1096 1094 1092 1089 1087 1085 1085 1083 1081 1080 1078 1077 1076 1075 1075 1075 1075 1074 1074 1074 1074 1074 1073 1073 1073 1072 1072 1072 1072 1072 1072 1072 1072 1072 1072 1072 1072 1072 1072 1072 1072 1071 1070 1070 1069 1069 1069 1068 1068 1068 1069 1070 1071 1072 1072 1073 1075 1076 1078 1080 1082 1083 1085 1087 1089 1091 1093 1093 1093 1093 1091 1090 1088 1083 1078 1070 1066 1060 1055 1052 1048 1047 1047 1044 1043 1042 1041 1039 1036 1032 1031 1031 1031 1031 1032 1032 1033 1033 1033 1035 1036 1040 1045 1049 1053 1054 1055 1055 1057 1058 1060 1061 1062 1062 1062 1064 1065 1065 1066 1066 1066 1063 1063
1243 1248 1251 1252 1253 1255 1256 1258 1259 1260 1262 1263 1265 1267 1268 1269 1273 1277 1278 1279 1279 1281 1283 1285 1286 1287 1290 1296 1300 1303 1306 1309 1321 1324 1332 1343 1352 1356 1356 1356 1358 1359 1365 1368 1375 1381 1382 1382 1383 1389 1394 1405 1415 1425 1434 1441 1444 0 0 0 0 0 0 1798 1825 1839 1849 1864 1875 1884 1884 1886 1886 1888 1894 1905 1907 1911 1911 1915 1922 1931 1942 1951 1953 1960 1967 1967 1967 1967 1966 1966 1967 1968 1971 1975 1978 1984 1991 1998 1998 1998 1989 1963 1914 1914 1914 1919 1973 1977 1999 1999 1999 1962 1931 1931 1931 1939 0 2077 2099 2111 2120 2126 2130 2135 2140 2144 2150 2156 2160 2166 2170 2173 2179 2187 2191 2191 2194 2195 2196 2199 2201 2206 2211 2215 2217 2219 2221 2225 2229 2233 2236 2242 2248 2251 2253 2260 2265 2270 2274 2275 2277 2279 2282 2285 2289 2296 2298 2301 2305 2311 2313 2318 2318 2322 2327 2329 2332 2335 2336 2339 2343 2348 2353 2359 2360 2367 2376 2385 2394 2399 2402 2403 2406 2414 2419 2421 2423 2427 2431 2431 2431 2431 2435 2447 2462 2480 2494 2502 2503 2510 2514 2526 2544 2544 2553 2560 2583 2583 2583 2585 2585 2585 2610 2627 2648 2676 2691 2736 2800 2878 2968 2969 3021 3103 3107 3107 3213 3272 3296 3301 3305 3324 3422 3426 3427 3426 3425 3425 3419 3408 3402 3394 3391 3389 3389 3391 3391 3391 3404 3410 3411 3411 3411 3400 3397 3397 3400 3403 3420 3420 3420 3416 3401 3385 3347 3316 3246 3197 3165 0 0 0 0 0 0 0 0 0 3285 3285 3285 3257 3200 3106 2924 2642 2503 0 2375 2350 2329 2318 2306 2301 2296 2292 2288 2281 2269 2260 2255 2251 2245 2238 2230 2224 2218 2216 2213 2209 2202 2198 2193 2190 2186 2185 2183 2180 2176 2173 2170 2168 2166 2165 2162 2160 2158 2154 2151 2148 2146 2143 2141 2139 2138 2137 2136 2134 2133 2131 2130 2129 2127 2126 2124 2122 2120 2119 2118 2115 2114 2114 2113 2113 2112 2111 2110 2110 2109 2106 2106 2106 2106 2104 2103 2101 2099 2098 2097 2096 2095 2093 2093 2093 2094 2094 2094 2094 2094 2094 2094 2094 2100 2102 2103 2103 2103 2103 2104 2104 2104 2104 2105 2105 2105 2105 2105 2107 2108 2118 2127 2137 2144 2149 2152 2153 2159 2165 2171 2171 2171 2152 2129 2098 2068 0 0 0 0 0 0 0 0 1444 1441 1437 1437 1427 1410 0 0 0 1275 1264 1261 1261 1260 1260 1258 1254 1252 1250 1247 1244 1240 1237 1233 1227 1222 1218 1211 1203 1194 1190 1186 1183 1180 1177 1175 1175 1173 1170 1164 1156 1152 1149 1146 1144 1142 1139 1138 1137 1135 1134 1134 1133 1132 1130 1130 1130 1129 1128 1127 1127 1125 1125 1124 1123 1122 1120 1119 1117 1115 1112 1109 1105 1102 1101 1099 1098 1096 1094 1093 1091 1088 1086 1085 1083 1082 1080 1080 1078 1077 1076 1075 1075 1074 1074 1074 1074 1074 1073 1073 1073 1073 1072 1072 1072 1071 1071 1071 1071 1071 1071 1071 1072 1072 1072 1071 1071 1071 1071 1071 1070 1069 1069 1069 1069 1068 1068 1068 1069 1071 1072 1074 1075 1076 1076 1078 1080 1082 1084 1085 1087 1090 1091 1094 1094 1094 1093 1090 1089 1087 1084 1079 1075 1067 1060 1054 1052 1049 1047 1046 1044 1043 1042 1041 1039 1038 1034 1032 1031 1031 1031 1031 1031 1031 1032 1033 1033 1034 1036 1040 1045 1049 1053 1054 1055 1055 1056 1058 1058 1058 1058 1060 1060 1060 1059 1059 1059 1059 1061 1062 1062
1243 1248 1251 1252 1253 1255 1256 1257 1258 1260 1262 1263 1265 1268 1269 1271 1275 1278 1280 1280 1280 1281 1283 1286 1288 1290 1294 1298 1300 1303 1305 1308 1320 1324 1328 1338 1346 1346 1348 1351 1351 1357 1364 1366 1373 1380 1381 1382 1382 1383 1394 1406 1418 1431 1442 0 0 0 0 0 0 0 1813 1845 1860 1864 1867 1876 1880 1889 1891 1892 1892 1896 1904 1907 1910 1914 1918 1918 1924 1935 1943 1953 1957 1963 1967 1967 1967 1967 1967 1968 1969 1973 1974 1976 1980 1986 1991 1998 1998 1998 1973 1901 1897 1897 1897 1977 1979 1986 2000 2000 2000 1982 1931 1926 1926 1926 0 0 2115 2125 2133 2134 2135 2136 2140 2145 2150 2157 2163 2170 2174 2176 2182 2187 2191 2192 2192 2195 2197 2200 2203 2206 2211 2214 2217 2219 2222 2225 2229 2235 2239 2242 2248 2252 2256 2260 2265 2270 2274 2275 2277 2279 2280 2284 2289 2294 2297 2299 2305 2311 2313 2315 2316 2319 2324 2327 2331 2332 2334 2339 2343 2348 2353 2359 2360 2366 2375 2385 2394 2403 2406 2408 2409 2418 2421 2425 2427 2429 2440 2440 2442 2442 2442 2452 2467 2485 2501 2511 2515 2521 2531 2551 2583 2595 2600 2607 2622 2660 2660 2669 2689 2689 2689 2733 2794 2918 2967 2979 2995 3068 3130 3176 3181 3199 3203 3217 3252 3309 3310 3324 3337 3337 3418 3419 3427 3425 3419 3419 3399 3369 3356 3356 3356 3384 3384 3384 3384 3384 3385 3394 3397 3397 3397 3384 3382 3382 3382 3400 3411 3412 3412 3412 3397 3375 3347 3316 3246 3246 3222 3214 0 0 0 0 0 0 0 0 3221 3254 3254 3221 3200 3106 2924 2603 0 2381 2364 2347 2329 2318 2306 2301 2297 2292 2287 2281 2269 2260 2255 2252 2247 2238 2231 2225 2218 2216 2213 2209 2202 2197 2192 2189 2185 2181 2180 2178 2175 2173 2171 2169 2166 2165 2162 2161 2158 2154 2151 2148 2145 2143 2140 2139 2138 2137 2136 2134 2133 2131 2131 2129 2128 2127 2125 2124 2121 2120 2119 2118 2116 2115 2114 2113 2112 2111 2110 2110 2109 2107 2106 2106 2105 2104 2103 2103 2103 2101 2100 2098 2096 2095 2095 2095 2095 2095 2095 2095 2095 2095 2096 2099 2101 2103 2103 2104 2104 2104 2105 2105 2105 2106 2106 2106 2108 2108 2109 2109 2116 2124 2134 2144 2148 2160 2163 2165 2175 2177 2177 2177 2168 2139 2106 2070 2040 0 0 0 0 0 0 0 1437 1437 1434 1434 1434 1421 1403 1369 1320 1286 1272 1262 1260 1260 1259 1258 1257 1253 1251 1248 1245 1240 1236 1233 1229 1224 1220 1215 1209 1201 1192 1188 1184 1182 1179 1176 1173 1173 1172 1168 1161 1155 1151 1148 1145 1143 1140 1138 1136 1136 1134 1133 1132 1131 1131 1130 1129 1128 1128 1127 1127 1125 1124 1124 1123 1122 1121 1120 1119 1117 1113 1111 1108 1104 1102 1100 1098 1097 1096 1094 1092 1090 1087 1085 1084 1082 1081 1080 1079 1077 1077 1076 1075 1075 1074 1074 1074 1074 1073 1073 1073 1072 1072 1072 1072 1071 1071 1070 1070 1070 1070 1071 1071 1071 1071 1071 1071 1070 1070 1070 1070 1070 1069 1069 1069 1069 1068 1068 1068 1069 1071 1073 1074 1076 1077 1078 1079 1082 1084 1085 1087 1089 1090 1093 1094 1094 1094 1091 1089 1086 1083 1080 1077 1071 1063 1058 1054 1052 1049 1047 1046 1043 1041 1040 1039 1038 1037 1034 1032 1031 1031 1031 1031 1031 1031 1032 1033 1033 1034 1036 1040 1046 1049 1053 1054 1054 1055 1055 1056 1056 1055 1055 1054 1054 1053 1046 1046 1046 1051 1057 1060 1060
1248 1251 1252 1255 1255 1256 1256 1257 1258 1260 1262 1263 1266 1268 1270 1273 1275 1280 1280 1280 1281 1283 1285 1289 1291 1294 1296 1298 1300 1303 1304 1308 1320 1323 1325 1332 1338 1342 1344 1345 1350 1357 1360 1366 1371 1374 1380 1382 1382 1383 1395 1406 1423 1453 0 0 0 0 0 0 1762 1795 1813 1867 1879 1888 1890 1890 1892 1892 1895 1898 1903 1905 1910 1913 1918 1920 1924 1928 1935 1935 1943 1953 1957 1963 1967 1967 1968 1970 1971 1971 1972 1974 1975 1978 1983 1986 1991 1991 1991 1991 0 0 0 1859 1897 1989 1992 2000 2001 2001 2000 1968 1895 1895 1895 0 0 0 2115 2125 2133 2136 2136 2136 2140 2145 2150 2157 2163 2172 2177 2181 2186 2189 2191 2192 2192 2193 2197 2200 2203 2206 2211 2214 2216 2219 2222 2225 2229 2235 2239 2243 2248 2252 2256 2260 2264 2268 2270 2273 2274 2275 2276 2281 2289 2294 2295 2296 2303 2307 2312 2313 2314 2318 2319 2321 2325 2329 2334 2339 2343 2349 2354 2359 2360 2366 2374 2384 2394 2403 2413 2418 2419 2421 2421 2425 2427 2434 2440 2442 2449 2449 2453 2453 2470 2491 2517 2526 2526 2532 2543 2586 2610 2621 2636 2663 2675 2730 2759 2806 2842 2893 2894 2946 3077 3140 3149 3179 3256 3287 3287 3287 3278 3277 3277 3277 3283 3309 3310 3324 3337 3337 3383 3409 3418 3418 3418 3417 3391 3348 3348 3348 3356 3379 3379 3379 3367 3367 3367 3376 3397 3397 3397 3382 3364 3364 3364 3366 3397 3400 3400 3400 3394 3368 3344 3324 3301 3301 3297 3301 3301 3292 0 0 3082 3082 3106 3106 3180 3189 3200 3200 3200 3106 2918 2548 0 2377 2364 2347 2329 2318 2306 2304 2298 2291 2286 2281 2269 2260 2255 2252 2247 2240 2233 2226 2220 2216 2213 2209 2202 2195 2190 2185 2181 2178 2177 2177 2175 2173 2171 2169 2166 2165 2163 2161 2158 2154 2151 2148 2145 2142 2140 2139 2138 2137 2135 2134 2133 2132 2131 2129 2128 2127 2125 2125 2123 2121 2120 2118 2116 2116 2115 2114 2113 2111 2110 2110 2109 2107 2106 2105 2105 2104 2104 2103 2103 2102 2101 2101 2098 2096 2096 2096 2096 2096 2096 2095 2095 2096 2097 2100 2104 2104 2104 2104 2105 2105 2106 2106 2107 2110 2112 2112 2112 2112 2112 2118 2129 2148 2149 2152 2153 2169 2178 2179 2179 2179 2177 2176 2167 2135 2086 2046 0 0 0 0 0 0 0 0 1431 1431 1428 1428 1428 1415 1390 1358 1311 1273 1261 1260 1260 1260 1258 1255 1254 1251 1249 1246 1242 1237 1233 1229 1227 1223 1220 1215 1206 1198 1191 1186 1183 1180 1178 1175 1172 1171 1171 1167 1160 1155 1151 1148 1145 1142 1139 1136 1136 1134 1133 1132 1131 1131 1130 1129 1128 1127 1127 1127 1126 1125 1124 1123 1123 1122 1121 1120 1118 1116 1113 1110 1107 1104 1102 1099 1098 1097 1095 1093 1091 1089 1087 1085 1083 1082 1080 1079 1078 1077 1077 1075 1075 1075 1074 1073 1073 1073 1073 1073 1073 1072 1072 1072 1071 1071 1071 1070 1070 1070 1070 1070 1070 1070 1070 1070 1070 1070 1070 1070 1069 1069 1069 1068 1068 1068 1068 1068 1068 1070 1071 1074 1075 1077 1078 1080 1081 1084 1087 1088 1089 1090 1093 1093 1093 1093 1093 1090 1086 1084 1081 1077 1072 1067 1060 1056 1054 1051 1049 1046 1045 1042 1040 1040 1039 1037 1037 1034 1032 1031 1031 1031 1031 1031 1031 1032 1033 1033 1034 1037 1041 1046 1049 1052 1053 1054 1054 1053 1053 1052 1051 1050 1050 1049 1049 1044 1044 1044 1046 1052 1056 1056
1254 1256 1257 1257 1257 1257 1258 1258 1258 1260 1262 1264 1266 1270 1271 1275 1278 1282 1282 1282 1283 1283 1285 1289 1292 1294 1297 1298 1300 1303 1304 1308 1320 1324 1324 1324 1327 1328 1333 1340 1348 1355 1358 1363 1369 1372 1380 1382 1383 1384 1395 1407 0 0 0 0 0 0 0 0 1801 1822 1843 1867 1879 1889 1890 1893 1894 1896 1900 1900 1904 1908 1913 1919 1921 1928 1931 1933 1935 1937 1943 1950 1957 1963 1967 1967 1970 1973 1975 1976 1977 1978 1979 1980 1983 1984 1984 1984 1984 1966 0 0 0 0 0 2011 2013 2018 2015 2015 2015 0 0 0 0 0 0 0 2115 2125 2133 2136 2136 2137 2140 2146 2151 2157 2166 2173 2180 2183 2190 2191 2192 2193 2193 2193 2197 2200 2203 2206 2210 2214 2216 2220 2222 2224 2229 2235 2239 2243 2248 2252 2256 2260 2263 2264 2265 2266 2266 2269 2273 2278 2286 2292 2293 2295 2299 2303 2306 2307 2309 2315 2317 2318 2319 2323 2333 2339 2344 2349 2354 2359 2364 2366 2373 2383 2393 2403 2413 2418 2419 2428 2429 2432 2433 2438 2445 2455 2455 2457 2457 2457 2473 2500 2528 2546 2547 2554 2591 2631 2647 2672 2707 2737 2776 2821 2908 2956 2973 3128 3192 3192 3217 3223 3236 3293 3342 3342 3342 3320 3296 3292 3292 3292 3293 3309 3324 3324 3324 3324 3324 3370 3381 3383 3383 3381 3367 3348 3348 3348 3356 3372 3372 3372 3356 3356 3356 3373 3397 3397 3397 3380 3358 3345 3345 3345 3367 3386 3386 3386 3370 3357 3357 3346 3344 3343 3342 3312 3311 3310 3280 3221 3201 3143 3102 3102 3102 3159 3166 3166 3166 3089 2813 2526 0 2376 2364 2347 2336 2323 2314 2304 2298 2292 2288 2281 2269 2261 2255 2254 2251 2246 2235 2227 2220 2216 2213 2209 2202 2195 2190 2185 2178 2176 2176 2175 2174 2172 2171 2169 2166 2165 2162 2160 2157 2154 2151 2148 2144 2142 2140 2138 2137 2136 2135 2134 2133 2132 2130 2129 2128 2127 2125 2125 2123 2122 2120 2118 2116 2116 2115 2114 2113 2112 2111 2110 2109 2108 2106 2105 2104 2104 2104 2104 2104 2103 2102 2102 2100 2099 2097 2097 2097 2097 2096 2096 2096 2096 2097 2100 2104 2104 2105 2105 2105 2106 2106 2107 2109 2113 2113 2113 2114 2114 2118 2123 2144 2155 2159 2160 2170 2180 2182 2183 2183 2183 2178 2175 2159 2130 0 0 0 0 0 0 0 0 0 1423 1423 1423 1423 1423 1419 1404 1380 1346 1299 1264 1258 1258 1257 1257 1256 1253 1252 1249 1247 1244 1240 1236 1232 1228 1225 1222 1218 1213 1204 1197 1190 1185 1181 1178 1175 1173 1171 1171 1170 1166 1160 1155 1151 1146 1143 1140 1138 1136 1135 1133 1132 1131 1131 1129 1129 1128 1127 1126 1126 1126 1125 1124 1123 1122 1122 1121 1119 1119 1116 1114 1112 1109 1107 1103 1101 1098 1096 1095 1093 1092 1090 1088 1086 1084 1083 1081 1080 1078 1078 1077 1076 1075 1075 1074 1073 1073 1073 1073 1072 1072 1072 1072 1071 1071 1071 1071 1071 1070 1070 1070 1070 1070 1070 1070 1070 1070 1070 1070 1070 1069 1069 1069 1069 1068 1068 1068 1068 1068 1069 1070 1072 1074 1076 1077 1079 1081 1083 1087 1088 1089 1091 1092 1093 1093 1093 1092 1091 1086 1084 1081 1077 1072 1066 1063 1059 1055 1053 1050 1048 1046 1044 1042 1040 1039 1038 1037 1036 1035 1033 1033 1033 1032 1032 1032 1032 1033 1035 1035 1036 1038 1043 1046 1050 1053 1053 1053 1053 1053 1051 1050 1049 1048 1048 1047 1047 1042 1042 1042 1043 1047 1049 1049
1260 1261 1261 1261 1261 1260 1258 1258 1258 1261 1262 1264 1268 1273 1275 1279 1283 1283 1283 1283 1283 1283 1287 1290 1293 1295 1298 1301 1301 1303 1304 1312 1321 1324 1324 1324 1325 1327 1333 1340 1348 1354 1356 1362 1369 1372 1380 1389 1390 1391 1395 0 0 0 0 0 0 0 0 1827 1831 1845 1859 1867 1879 1889 1890 1893 1895 1901 1901 1903 1908 1912 1918 1924 1925 1931 1934 1936 1937 1937 1941 1946 1951 1958 1966 1967 1970 1974 1976 1979 1983 1983 1983 1984 1983 1981 1972 1969 1967 1937 1878 0 0 0 0 2045 2045 2045 2040 2030 2010 0 0 0 0 0 0 0 2108 2120 2131 2136 2136 2137 2139 2148 2154 2160 2166 2173 2180 2185 2191 2192 2192 2193 2193 2193 2197 2200 2204 2207 2210 2213 2216 2222 2223 2224 2227 2233 2239 2242 2247 2250 2252 2256 2259 2261 2264 2264 2265 2265 2268 2276 2285 2291 2293 2295 2299 2303 2306 2307 2309 2311 2312 2312 2315 2321 2333 2342 2344 2349 2354 2359 2364 2366 2371 2375 2382 2398 2413 2421 2425 2435 2436 2438 2443 2443 2448 2456 2456 2457 2458 2496 2503 2508 2539 2549 2564 2593 2645 2691 2753 2852 2909 2973 3020 3056 3085 3098 3103 3209 3243 3247 3253 3267 3284 3315 3342 3342 3342 3320 3303 3303 3300 3303 3303 3309 3326 3326 3326 3324 3324 3324 3324 3342 3350 3350 3350 3348 3348 3348 3349 3363 3363 3363 3356 3356 3356 3360 3397 3397 3397 3380 3355 3345 3345 3345 3360 3383 3383 3383 3363 3359 3359 3359 3359 3359 3351 3331 3326 3324 3286 3268 3216 3203 3137 3136 3136 3136 3136 3136 3127 3058 2781 2512 0 2375 2364 2354 2342 2325 2315 2306 2300 2294 2288 2281 2269 2262 2257 2255 2253 2251 2241 2229 2221 2219 2216 2213 2208 2195 2190 2185 2178 2176 2176 2175 2173 2171 2169 2168 2166 2165 2162 2160 2156 2152 2150 2148 2144 2142 2139 2138 2136 2135 2135 2133 2133 2132 2130 2128 2126 2126 2125 2125 2123 2122 2120 2119 2117 2116 2116 2115 2115 2113 2111 2111 2109 2108 2106 2105 2104 2104 2104 2104 2104 2104 2103 2103 2101 2100 2100 2099 2099 2098 2097 2096 2096 2096 2097 2100 2104 2104 2105 2105 2106 2107 2107 2108 2110 2116 2116 2117 2117 2119 2124 2133 2148 2155 2162 2172 2184 2185 2187 2187 2187 2187 2178 2165 2141 2111 0 0 0 0 0 0 0 0 1412 1412 1412 1423 1423 1423 1413 1395 1370 1335 1288 1260 1254 1254 1254 1254 1252 1252 1251 1248 1246 1243 1239 1234 1231 1227 1224 1222 1217 1211 1203 1194 1188 1183 1179 1176 1174 1172 1170 1170 1167 1164 1158 1154 1147 1143 1141 1139 1137 1135 1134 1132 1131 1130 1130 1128 1127 1127 1126 1126 1125 1125 1125 1123 1122 1121 1120 1119 1118 1118 1116 1114 1111 1108 1105 1103 1100 1098 1096 1094 1093 1091 1088 1087 1085 1084 1082 1081 1079 1078 1077 1076 1075 1074 1073 1073 1073 1073 1072 1072 1071 1071 1071 1071 1071 1071 1071 1071 1070 1070 1070 1070 1069 1070 1070 1070 1070 1070 1070 1070 1070 1069 1069 1069 1068 1068 1068 1068 1068 1069 1070 1071 1074 1075 1076 1078 1080 1083 1086 1089 1090 1091 1091 1092 1092 1092 1092 1089 1089 1083 1078 1075 1071 1068 1064 1059 1055 1053 1050 1047 1045 1043 1041 1040 1039 1039 1037 1037 1037 1036 1035 1035 1034 1033 1033 1033 1034 1035 1036 1037 1039 1042 1044 1047 1050 1053 1053 1053 1053 1052 1051 1049 1048 1046 1045 1045 1044 1040 1040 1040 1041 1043 1045 1045
1260 1261 1261 1262 1262 1262 1260 1260 1260 1263 1265 1267 1273 1279 1282 1285 1285 1285 1285 1285 1285 1285 1286 1290 1293 1300 1302 1305 1305 1305 1309 1315 1321 1324 1324 1325 1325 1327 1333 1340 1348 1354 1356 1362 1369 1372 1384 1397 1403 1407 1414 0 0 0 0 0 0 1833 1841 1853 1856 1858 1861 1867 1881 1889 1891 1893 1900 1901 1901 1908 1910 1916 1923 1926 1932 1934 1937 1937 1937 1939 1941 1946 1951 1958 1966 1968 1973 1978 1978 1980 1983 1983 1983 1983 1981 1979 1971 1968 1919 1876 1876 0 0 0 2030 2045 2045 2045 2040 2028 2001 0 0 0 0 0 0 2073 2105 2120 2128 2133 2134 2137 2139 2148 2154 2161 2168 2173 2180 2185 2191 2192 2192 2194 2194 2194 2198 2202 2204 2208 2210 2213 2216 2224 2224 2224 2227 2229 2233 2239 2241 2242 2247 2253 2256 2260 2264 2264 2265 2265 2266 2272 2283 2290 2293 2295 2299 2303 2306 2307 2309 2311 2312 2312 2315 2321 2332 2342 2344 2349 2354 2361 2361 2361 2364 2366 2382 2398 2413 2421 2425 2435 2436 2438 2443 2443 2445 2455 2457 2458 2471 2499 2537 2568 2619 2666 2679 2708 2784 2842 2903 2974 3036 3092 3133 3164 3191 3192 3215 3243 3247 3253 3253 3267 3284 3315 3342 3342 3342 3320 3304 3304 3302 3304 3306 3309 3332 3332 3332 3327 3319 3316 3316 3319 3320 3332 3343 3346 3346 3346 3347 3347 3345 3343 3330 3330 3330 3354 3397 3397 3397 3372 3355 3346 3346 3346 3357 3377 3377 3377 3357 3357 3357 3371 3371 3371 3351 3332 3320 3311 3286 3268 3203 3201 3137 3136 3136 3136 3136 3136 3093 3014 2748 0 0 2374 2365 2357 2344 2327 2316 2307 2300 2295 2290 2284 2274 2264 2260 2258 2254 2251 2247 2238 2227 2220 2216 2213 2208 2203 2193 2185 2178 2176 2176 2175 2173 2171 2168 2167 2165 2163 2161 2157 2154 2151 2149 2147 2144 2142 2139 2137 2136 2135 2133 2132 2131 2131 2130 2128 2126 2126 2124 2123 2123 2122 2120 2119 2117 2116 2116 2116 2115 2114 2113 2111 2110 2108 2107 2105 2105 2105 2105 2105 2105 2105 2104 2104 2103 2101 2101 2101 2101 2100 2099 2098 2098 2098 2101 2102 2104 2106 2108 2108 2109 2109 2110 2111 2115 2116 2117 2117 2117 2126 2132 2138 2148 2156 2163 2172 2192 2195 2199 2199 2199 2189 2177 2164 2136 0 0 0 0 0 0 0 0 1412 1411 1411 1411 1416 1416 1416 1404 1378 1358 1327 1285 1260 1251 1250 1250 1250 1251 1249 1249 1247 1244 1241 1238 1233 1229 1227 1224 1219 1214 1208 1202 1193 1187 1182 1177 1174 1172 1170 1169 1169 1164 1162 1158 1153 1147 1141 1139 1137 1136 1133 1132 1131 1130 1129 1128 1127 1126 1126 1126 1125 1124 1124 1123 1122 1121 1120 1119 1119 1118 1117 1115 1113 1111 1108 1105 1103 1100 1097 1095 1093 1091 1090 1088 1085 1084 1083 1081 1080 1078 1077 1077 1076 1074 1074 1072 1072 1072 1072 1072 1072 1071 1071 1071 1071 1071 1071 1071 1071 1070 1070 1069 1069 1069 1069 1069 1070 1070 1070 1070 1070 1070 1069 1069 1069 1068 1068 1068 1068 1069 1070 1071 1072 1074 1076 1078 1079 1082 1084 1087 1089 1090 1091 1091 1091 1091 1091 1090 1087 1083 1078 1073 1070 1066 1063 1059 1055 1051 1048 1045 1042 1041 1039 1038 1038 1038 1037 1037 1037 1037 1037 1037 1036 1035 1035 1035 1035 1036 1037 1038 1039 1041 1045 1047 1047 1050 1053 1053 1053 1053 1051 1050 1048 1046 1044 1042 1042 1040 1037 1036 1036 1036 1038 1039 1039
1260 1261 1261 1262 1262 1262 1262 1262 1263 1267 1269 1271 1277 1281 1282 1285 1286 1286 1287 1287 1287 1288 1290 1290 1296 1304 1305 1305 1306 1307 1310 1316 1322 1324 1325 1325 1326 1327 1334 1343 1350 1354 1356 1362 1369 1372 1386 1397 1407 1408 1419 0 0 0 0 0 1839 1862 1868 1881 1881 1881 1881 1881 1881 1889 1891 1893 1901 1916 1922 1922 1923 1923 1926 1930 1934 1937 1939 1940 1940 1941 1941 1946 1951 1958 1966 1973 1978 1978 1978 1980 1983 1983 1983 1981 1981 1976 1962 1945 1918 1918 1918 0 0 2015 2036 2045 2045 2045 2040 2028 0 0 0 0 0 0 0 2073 2103 2118 2127 2130 2131 2134 2139 2148 2154 2161 2168 2172 2178 2183 2191 2192 2192 2195 2196 2196 2203 2206 2207 2210 2210 2213 2217 2224 2227 2228 2228 2227 2227 2228 2228 2235 2241 2248 2254 2260 2262 2263 2264 2264 2266 2272 2283 2290 2296 2298 2302 2305 2307 2308 2311 2311 2312 2312 2315 2321 2332 2342 2344 2351 2354 2357 2357 2357 2357 2357 2382 2398 2413 2421 2422 2435 2436 2443 2445 2445 2445 2448 2458 2461 2471 2499 2541 2632 2715 2793 2838 2940 3004 3039 3068 3098 3153 3199 3231 3254 3268 3268 3268 3264 3253 3253 3253 3267 3284 3309 3309 3309 3283 3283 3283 3310 3321 3321 3327 3335 3335 3335 3335 3327 3319 3313 3311 3311 3311 3319 3334 3346 3346 3346 3343 3319 3318 3315 3303 3303 3303 3347 3387 3387 3387 3366 3354 3353 3353 3353 3356 3375 3375 3375 3357 3357 3357 3371 3371 3371 3351 3324 3315 3311 3280 3226 3198 3194 3190 3147 3135 3133 3126 3111 3055 2957 2673 0 2382 2374 2368 2360 2345 2327 2321 2320 2309 2307 2300 2287 2274 2264 2260 2258 2255 2251 2247 2240 2229 2221 2216 2213 2208 2203 2194 2186 2181 2177 2177 2175 2173 2171 2168 2166 2164 2162 2159 2155 2152 2150 2148 2147 2144 2142 2139 2137 2136 2135 2133 2132 2131 2130 2130 2128 2126 2126 2124 2123 2123 2122 2121 2120 2119 2116 2116 2116 2116 2115 2114 2113 2110 2109 2107 2106 2106 2106 2105 2105 2105 2105 2104 2104 2104 2104 2103 2103 2103 2102 2102 2100 2100 2100 2102 2103 2105 2106 2109 2109 2110 2110 2112 2114 2117 2118 2118 2121 2128 2136 2139 2144 2149 2156 2166 2186 2197 2204 2204 2204 2202 2190 2170 2163 0 0 0 0 0 0 0 0 0 1400 1400 1400 1414 1414 1414 1407 1387 1365 1349 1321 1284 1258 1249 1247 1247 1247 1247 1247 1247 1246 1243 1240 1236 1232 1228 1225 1222 1218 1212 1207 1200 1193 1186 1182 1177 1174 1171 1169 1168 1166 1163 1161 1157 1152 1146 1141 1139 1137 1135 1133 1131 1130 1129 1128 1127 1127 1125 1125 1125 1124 1123 1122 1122 1121 1121 1120 1119 1118 1118 1116 1114 1113 1110 1107 1104 1102 1099 1097 1094 1093 1090 1089 1087 1085 1084 1082 1079 1078 1077 1076 1076 1074 1073 1073 1072 1072 1072 1071 1071 1071 1071 1071 1071 1071 1071 1071 1071 1071 1070 1070 1069 1069 1069 1069 1069 1069 1069 1069 1069 1069 1069 1069 1069 1069 1069 1069 1069 1069 1070 1071 1072 1072 1075 1077 1079 1082 1083 1086 1089 1089 1090 1091 1091 1091 1090 1090 1087 1084 1079 1074 1069 1065 1062 1059 1056 1051 1048 1045 1043 1042 1041 1039 1038 1038 1038 1037 1037 1037 1037 1037 1037 1037 1036 1036 1036 1036 1038 1039 1040 1041 1044 1046 1047 1048 1050 1052 1053 1053 1053 1051 1050 1047 1044 1040 1038 1038 1035 1032 1032 1032 1032 1032 1033 1033
1261 1261 1262 1263 1263 1264 1264 1264 1267 1270 1272 1275 1279 1282 1282 1286 1287 1287 1290 1290 1290 1291 1291 1295 1300 1304 1305 1306 1308 1311 1313 1317 1323 1324 1326 1326 1326 1331 1334 1343 1351 1356 1363 1369 1376 1379 1386 1397 1407 1413 0 0 0 0 0 0 1844 1862 1873 1887 1892 1892 1894 1894 1901 1902 1905 1907 1911 1916 1923 1931 1932 1933 1933 1936 1938 1939 1942 1943 1943 1943 1943 1947 1954 1960 1967 1974 1978 1978 1978 1978 1976 1974 1974 1974 1974 1971 1949 1914 1891 1891 1891 0 2010 2032 2041 2045 2045 2045 2032 2017 0 0 0 0 0 0 0 2074 2102 2114 2120 2125 2125 2128 2137 2146 2155 2161 2168 2171 2176 2181 2189 2190 2190 2193 2193 2198 2203 2208 2211 2211 2212 2214 2218 2225 2229 2229 2229 2229 2228 2228 2228 2235 2241 2245 2253 2259 2262 2264 2264 2266 2266 2272 2283 2290 2297 2298 2302 2305 2307 2308 2311 2312 2313 2313 2317 2322 2332 2340 2344 2353 2355 2355 2355 2348 2348 2348 2380 2400 2404 2419 2419 2419 2420 2423 2434 2434 2442 2445 2445 2451 2470 2496 2557 2691 2795 2948 3039 3068 3073 3092 3138 3179 3221 3269 3300 3300 3300 3300 3295 3274 3263 3254 3254 3254 3277 3277 3277 3262 3256 3256 3256 3289 3327 3343 3351 3351 3351 3347 3343 3327 3319 3313 3310 3306 3306 3306 3329 3342 3342 3342 3324 3319 3318 3315 3296 3296 3296 3340 3345 3345 3353 3353 3350 3350 3353 3353 3356 3373 3373 3373 3362 3362 3362 3371 3371 3371 3351 3324 3315 3311 3279 3226 3209 3194 3190 3186 3126 3125 3117 3094 3030 2907 2664 0 2382 2374 2373 2360 2346 2328 2326 2326 2325 2315 2301 2288 2274 2266 2263 2259 2255 2252 2248 2241 2230 2221 2216 2206 2203 2202 2194 2186 2181 2177 2177 2175 2173 2171 2167 2164 2163 2161 2158 2155 2152 2150 2148 2147 2144 2142 2139 2137 2136 2135 2133 2132 2131 2130 2130 2128 2127 2126 2124 2123 2123 2122 2121 2121 2119 2119 2117 2117 2116 2115 2114 2113 2111 2109 2107 2106 2106 2106 2105 2105 2105 2105 2105 2105 2106 2106 2106 2106 2106 2105 2104 2104 2104 2104 2104 2104 2105 2107 2109 2110 2111 2111 2112 2116 2117 2117 2118 2121 2134 2143 2148 2148 2155 2167 2185 2195 2200 2204 2204 2204 2202 2190 2170 2145 0 0 0 0 0 0 0 0 1407 1400 1400 1400 1413 1413 1413 1395 1378 1361 1341 1312 1281 1258 1249 1247 1245 1245 1245 1245 1245 1244 1241 1238 1234 1230 1226 1223 1220 1217 1211 1206 1199 1192 1186 1181 1177 1174 1171 1168 1165 1164 1162 1160 1156 1152 1146 1141 1138 1136 1135 1133 1131 1129 1128 1127 1126 1126 1125 1124 1124 1123 1122 1121 1120 1120 1120 1118 1118 1117 1115 1114 1112 1111 1109 1107 1104 1102 1099 1096 1094 1092 1090 1088 1087 1084 1082 1081 1079 1078 1077 1075 1074 1073 1073 1072 1072 1071 1071 1070 1070 1070 1070 1070 1070 1070 1070 1070 1070 1070 1070 1069 1069 1069 1069 1069 1069 1069 1069 1069 1069 1069 1070 1070 1070 1069 1069 1069 1069 1070 1071 1072 1073 1073 1075 1078 1082 1084 1086 1088 1089 1089 1090 1090 1090 1090 1089 1087 1085 1080 1074 1069 1065 1061 1059 1055 1051 1047 1046 1045 1043 1042 1040 1039 1038 1038 1038 1037 1038 1037 1037 1037 1037 1037 1037 1037 1038 1039 1041 1042 1043 1043 1045 1047 1048 1049 1050 1051 1053 1053 1053 1049 1047 1044 1041 1038 1035 1034 1032 1030 1030 1028 1028 1028 1028 1028
1261 1261 1262 1264 1264 1265 1265 1267 1269 1272 1276 1278 1280 1282 1284 1286 1288 1289 1290 1290 1291 1292 1292 1296 1304 1305 1306 1308 1310 1311 1317 1318 1325 1325 1329 1331 1338 1338 1340 1345 1351 1357 1367 1374 1380 1384 1386 1393 1401 1413 0 0 0 0 0 1815 1844 1862 1873 1889 1897 1898 1899 1899 1904 1912 1916 1918 1921 1927 1929 1933 1933 1934 1934 1936 1938 1939 1942 1944 1948 1950 1953 1956 1956 1961 1968 1975 1976 1976 1975 1956 1950 1944 1943 1941 1933 1933 1924 1894 1894 1894 1941 1993 2012 2041 2044 2045 2045 2045 2032 2017 0 0 0 0 0 0 2017 2084 2103 2109 2112 2120 2125 2128 2137 2146 2155 2161 2167 2171 2174 2180 2185 2186 2188 2190 2193 2198 2203 2208 2211 2211 2212 2214 2219 2226 2229 2229 2229 2229 2228 2228 2228 2235 2241 2245 2252 2259 2261 2261 2264 2267 2274 2283 2289 2297 2298 2298 2302 2305 2307 2308 2311 2312 2315 2319 2323 2325 2332 2338 2341 2354 2363 2363 2363 2348 2348 2348 2380 2400 2404 2419 2419 2419 2393 2393 2393 2409 2409 2409 0 0 0 0 2557 2691 2795 3020 3112 3118 3167 3167 3167 3221 3276 3314 3334 3334 3334 3327 3295 3276 3263 3254 3254 3254 3277 3277 3277 3262 3250 3250 3250 3277 3327 3343 3351 3351 3351 3347 3338 3319 3319 3310 3309 3306 3306 3306 3327 3340 3340 3340 3324 3319 3318 3315 3294 3294 3294 3336 3336 3336 3336 3336 3349 3349 3350 3351 3352 3356 3362 3362 3362 3362 3362 3367 3367 3367 3343 3324 3315 3274 3254 3226 3209 3202 3192 3192 3137 3099 3091 3077 3004 2896 2660 0 2382 2376 2373 2360 2345 2333 2331 2329 2326 2315 2301 2288 2274 2267 2264 2263 2261 2255 2248 2242 2232 2222 2216 2206 2202 2194 2194 2186 2181 2177 2177 2175 2173 2171 2167 2164 2163 2161 2158 2155 2152 2150 2148 2147 2146 2143 2140 2138 2137 2136 2134 2132 2131 2130 2130 2129 2127 2126 2125 2123 2123 2123 2122 2122 2121 2119 2117 2117 2116 2116 2115 2113 2111 2109 2107 2107 2106 2106 2106 2105 2105 2105 2105 2106 2107 2108 2108 2108 2108 2106 2106 2106 2104 2104 2104 2106 2107 2108 2109 2110 2111 2113 2115 2116 2117 2117 2117 2121 2137 2145 2149 2149 2157 2178 2197 2201 2204 2208 2204 2204 2202 2190 2157 2114 0 0 0 0 0 0 0 0 1397 1397 1397 1407 1410 1410 1410 1392 1367 1350 1330 1300 1275 1257 1248 1246 1245 1245 1245 1245 1245 1242 1239 1234 1231 1229 1224 1222 1219 1215 1210 1205 1198 1191 1186 1181 1176 1174 1170 1166 1164 1162 1160 1158 1156 1151 1146 1141 1138 1136 1133 1132 1130 1128 1127 1125 1125 1124 1124 1124 1123 1122 1121 1120 1120 1119 1118 1118 1116 1116 1114 1112 1112 1110 1108 1106 1104 1102 1099 1096 1094 1092 1090 1088 1085 1083 1081 1080 1078 1077 1075 1074 1074 1073 1072 1071 1071 1071 1071 1070 1070 1070 1070 1070 1069 1070 1070 1070 1070 1070 1069 1069 1069 1069 1069 1069 1069 1069 1069 1069 1069 1069 1070 1070 1070 1069 1069 1069 1070 1070 1072 1074 1074 1075 1078 1081 1085 1086 1089 1089 1090 1090 1090 1090 1090 1089 1086 1085 1081 1077 1070 1065 1061 1057 1055 1052 1049 1046 1045 1044 1043 1042 1040 1038 1038 1038 1038 1038 1038 1038 1038 1038 1038 1039 1039 1040 1041 1043 1043 1044 1045 1045 1047 1048 1048 1048 1048 1048 1048 1048 1046 1044 1042 1041 1039 1036 1033 1031 1030 1029 1027 1025 1024 1024 1024 1024
1263 1264 1265 1265 1265 1265 1265 1267 1270 1273 1276 1279 1281 1283 1284 1286 1289 1293 1293 1293 1293 1293 1293 1296 1305 1309 1310 1311 1311 1318 1321 1323 1327 1327 1329 1332 1338 1342 1343 1345 1352 1357 1367 1376 1380 1387 1389 1392 1396 0 0 0 0 0 0 1832 1841 1857 1873 1889 1898 1899 1899 1901 1904 1912 1917 1921 1927 1929 1931 1933 1933 1934 1934 1936 1938 1939 1942 1945 1949 1955 1958 1959 1960 1961 1968 1973 1973 1973 1963 1952 1944 1941 1937 1920 1920 1919 1904 1919 1924 1935 1985 2016 2043 2044 2045 2052 2052 2052 2032 2017 0 0 0 0 0 0 2078 2086 2103 2109 2112 2120 2125 2128 2137 2146 2155 2161 2166 2170 2174 2180 2184 2184 2187 2189 2193 2198 2203 2208 2211 2211 2212 2214 2219 2227 2234 2234 2234 2232 2232 2232 2238 2240 2241 2245 2252 2260 2261 2261 2264 2269 2281 2296 2297 2297 2297 2297 2297 2298 2307 2307 2308 2312 2315 2319 2323 2325 2331 2332 2336 2354 2363 2363 2363 2348 2348 2348 2363 2365 2380 2377 2365 2365 2356 2356 0 0 0 0 0 0 0 0 0 2691 2795 3020 3185 3185 3185 3185 3185 3221 3276 3350 3368 3368 3368 3351 3337 3301 3263 3254 3254 3254 3277 3277 3277 3262 3242 3242 3242 3273 3319 3343 3351 3351 3351 3347 3332 3316 3310 3300 3299 3300 3300 3300 3324 3327 3327 3339 3339 3327 3325 3325 3290 3290 3290 3300 3300 3309 3309 3309 3335 3336 3338 3338 3338 3338 3338 3349 3357 3359 3357 3354 3354 3333 3300 3285 3285 3274 3254 3226 3213 3202 3193 3193 3138 3099 3091 3035 2970 2877 2660 0 2411 2376 2373 2360 2346 2337 2336 2333 2326 2315 2301 2288 2275 2268 2266 2264 2261 2256 2251 2243 2238 2230 2217 2206 2201 2192 2189 2185 2180 2177 2175 2175 2173 2171 2167 2164 2163 2161 2158 2156 2154 2152 2150 2148 2146 2144 2141 2140 2137 2136 2134 2132 2131 2130 2130 2129 2127 2126 2125 2123 2123 2123 2122 2122 2121 2119 2118 2117 2116 2116 2116 2114 2111 2109 2107 2107 2107 2106 2106 2106 2106 2106 2106 2107 2109 2109 2109 2109 2108 2107 2106 2106 2106 2107 2108 2108 2109 2109 2109 2111 2112 2114 2116 2116 2117 2117 2119 2128 2139 2150 2151 2157 2164 2182 2202 2204 2204 2204 2203 2203 2188 2177 2149 0 0 0 0 0 0 0 0 1412 1397 1397 1397 1411 1411 1411 1404 1388 1363 1341 1323 1292 1267 1253 1248 1245 1244 1244 1244 1243 1242 1239 1235 1233 1229 1226 1222 1220 1217 1214 1209 1203 1196 1190 1185 1179 1175 1172 1169 1166 1163 1161 1158 1157 1154 1150 1144 1140 1137 1135 1132 1130 1129 1127 1125 1124 1123 1123 1123 1122 1122 1121 1120 1120 1119 1119 1118 1117 1116 1114 1113 1112 1110 1109 1107 1105 1104 1101 1098 1096 1094 1091 1089 1087 1085 1083 1081 1080 1077 1075 1075 1074 1072 1072 1071 1070 1070 1070 1070 1070 1070 1070 1069 1069 1069 1069 1069 1070 1070 1070 1069 1069 1069 1069 1069 1069 1068 1068 1069 1069 1069 1069 1069 1069 1070 1070 1070 1070 1071 1072 1074 1076 1076 1077 1079 1083 1087 1089 1090 1090 1090 1090 1090 1089 1089 1086 1083 1081 1078 1073 1066 1060 1056 1052 1049 1048 1047 1045 1044 1043 1043 1042 1040 1038 1038 1038 1038 1038 1039 1039 1039 1039 1040 1042 1042 1042 1044 1044 1045 1046 1046 1047 1048 1048 1048 1047 1045 1045 1043 1043 1041 1039 1039 1038 1036 1033 1030 1028 1027 1026 1025 1024 1022 1022 1022 1022
