1548 1541 1541 1538 1538 1538 1538 1538 1539 1540 1541 1544 1547 1554 1560 1568 1570 1573 1573 1579 1579 1579 1576 1574 1573 1571 1571 1571 1573 1575 1576 1576 1577 1578 1578 1579 1579 1579 1579 1579 1580 1581 1581 1581 1581 1581 1581 1583 1585 1587 1605 1614 1622 1628 1628 1636 1650 1672 1704 1739 1766 1775 1800 1814 0 0 0 0 0 0 0 0 0 0 0 0 0 0 0 0 0 0 0 0 0 0 0 0 1523 1523 1523 1510 1510 1510 1534 1555 1562 1567 1576 1578 1581 1603 0 0 0 0 0 2006 2023 2026 2027 2033 2046 2056 2056 2064 2065 2070 2072 2072 2081 2083 2085 2087 2090 2097 2105 2108 2112 2118 2120 2123 2124 2125 2126 2127 2130 2137 2140 2161 2194 0 2272 2302 2316 2330 2346 2362 2378 2390 2390 2390 2386 2386 2386 2396 2403 2407 2411 2415 2415 2415 2409 2409 2409 2410 2410 2410 2404 2398 2395 2393 2393 2393 2399 2405 2411 2417 2421 2424 2426 2429 2430 2430 2430 2429 2428 2428 2428 2430 2435 2437 2438 2438 2439 2440 2449 2449 2449 2440 2429 2416 2367 2328 2309 2293 0 0 0 0 0 0 2282 2316 2378 2378 2378 2358 2353 2344 0 2232 2217 2200 2195 2195 2191 2185 2178 2178 2178 2185 2186 2190 2191 2193 2193 2205 2214 2225 2232 2238 2238 2238 2237 2237 2237 2241 2251 2262 2282 2286 2286 2286 2276 2267 2264 2260 2264 2267 2264 0 0 0 0 0 0 0 0 0 0 0 0 0 0 0 0 0 0 0 0 0 0 0 0 0 0 0 0 0 0 0 0 0 0 0 0 0 2363 2367 2374 2388 2402 2412 2427 2427 2427 2410 2383 2362 2355 2354 2349 2343 2332 2332 2332 2339 2353 2385 2438 2448 2452 2453 2457 2457 2457 2457 2455 2449 2425 2393 2346 2318 2296 2285 2273 2265 2256 2248 2237 2225 2215 2209 2203 2199 2194 2188 2175 2170 2165 2161 2157 2154 2149 2144 2137 2131 2127 2120 2114 2110 2106 2101 2094 2087 2084 2078 2073 2068 2064 2060 2058 2056 2052 2048 2043 2039 2035 2032 2029 2029 2027 2026 2024 2022 2022 2020 2016 2013 2011 2010 2008 2008 2007 2006 2003 2001 1999 1997 1995 1994 1993 1992 1991 1990 1988 1986 1986 1985 1984 1983 1983 1982 1980 1980 1980 1978 1978 1978 1977 1977 1976 1975 1973 1972 1971 1970 1970 1969 1967 1966 1966 1966 1965 1964 1963 1963 1963 1962 1962 1962 1961 1961 1960 1960 1959 1958 1957 1955 1954 1953 1952 1951 1950 1949 1948 1947 1947 1946 1945 1945 1944 1944 1942 1941 1941 1940 1939 1939 1938 1937 1936 1935 1934 1934 1932 1932 1930 1929 1927 1926 1925 1924 1923 1922 1922 1920 1918 1917 1915 1914 1913 1912 1911 1910 1908 1906 1905 1904 1903 1903 1902 1902 1901 1901 1901 1906 1909 1909 1909 1901 1888 1876 0 0 0 0 0 0 0 1388 1377 1377 1376 1375 1368 1348 1304 1275 1262 1241 1230 1229 1227 1227 1229 1229 1226 1225 1215 1208 1200 1195 1192 1189 1184 1181 1180 1178 1178 1176 1173 1171 1168 1166 1165 1161 1158 1154 1150 1148 1145 1143 1141 1139 1138 1138 1138 1138 1138 1138 1139 1140 1141 1141 1141 1141 1138 1135 1130 1123 1117 1112 1109 1107 1107 1106 1105 1105 1105 1105 1105 1106 1105 1105 1105 1105 1104 1103 1102 1102 1101 1101 1101 1102 1102 1103 1105 1105 1106 1107 1107 1108 1109 1110 1111 1113 1116 1119 1121 1123 1125 1129 1132 1134 1136 1138 1140 1142 1143 1145 1146 1148 1149 1149
1548 1541 1541 1534 1534 1534 1534 1535 1535 1536 1538 1541 1544 1550 1560 1564 1564 1564 1565 1567 1567 1568 1568 1568 1567 1567 1567 1569 1570 1570 1571 1571 1571 1574 1575 1575 1576 1576 1576 1576 1576 1576 1577 1577 1577 1577 1579 1583 1583 1585 1598 1609 1617 1628 1628 1636 1650 1671 1704 1739 1766 1775 1800 1814 1840 1840 1840 1820 0 0 0 0 0 0 0 0 0 0 0 0 0 0 0 0 0 0 0 0 1530 1530 1530 1510 1510 1510 1534 1555 1562 1576 1607 1631 1635 1643 1675 0 0 0 0 2005 2020 2023 2023 2031 2039 2052 2053 2061 2061 2062 2065 2065 2071 2076 2077 2078 2081 2094 2097 2102 2110 2112 2118 2120 2120 2120 2120 2122 2122 2122 2127 2130 2152 2183 0 2255 2270 2288 2306 2331 2355 2372 2378 2378 2378 2378 2378 2386 2392 2396 2400 2403 2403 2403 2400 2396 2396 2396 2398 2398 2398 2393 2388 2388 2388 2390 2396 2401 2404 2407 2412 2418 2424 2424 2424 2423 2419 2419 2419 2419 2423 2430 2434 2434 2434 2434 2434 2434 2441 2441 2441 2440 2429 2416 2415 2396 2374 2328 2294 0 0 0 0 0 2366 2372 2386 2386 2386 2358 2356 2353 0 0 2217 2200 2191 2183 2183 2177 2177 2177 2180 2186 2190 2191 2193 2193 2193 2200 2211 2220 2231 2231 2231 2228 2228 2228 2236 2243 2251 2262 2282 2284 2284 2284 2270 2267 2267 2267 2270 2281 2281 0 0 0 0 0 0 0 0 0 0 0 0 0 0 0 0 0 0 0 0 0 0 0 0 0 0 0 0 0 0 0 0 0 0 0 2354 2354 2358 2362 2362 2388 2404 2412 2427 2432 2432 2432 2391 2354 2354 2351 2348 2343 2332 2332 2332 2339 2353 2385 2438 2452 2453 2456 2457 2457 2457 2455 2446 2446 2405 2378 2337 2317 2295 2283 2273 2262 2253 2246 2237 2225 2212 2209 2201 2198 2194 2189 2180 2170 2165 2161 2157 2154 2149 2144 2137 2131 2127 2120 2115 2111 2106 2101 2094 2087 2084 2078 2072 2068 2064 2061 2059 2056 2052 2049 2044 2039 2036 2034 2031 2030 2029 2026 2025 2023 2022 2021 2018 2014 2012 2010 2009 2008 2007 2007 2004 2002 2000 1998 1997 1995 1994 1992 1991 1991 1988 1987 1986 1985 1984 1984 1983 1982 1981 1981 1980 1979 1979 1978 1978 1977 1977 1975 1974 1972 1971 1971 1970 1970 1969 1967 1966 1966 1965 1964 1963 1963 1963 1962 1962 1962 1961 1961 1960 1960 1959 1958 1957 1955 1954 1953 1952 1951 1950 1949 1948 1948 1947 1946 1946 1945 1945 1944 1942 1941 1941 1940 1939 1939 1938 1937 1936 1935 1934 1933 1932 1931 1929 1928 1927 1925 1924 1923 1923 1922 1921 1920 1917 1915 1915 1914 1913 1912 1911 1910 1908 1907 1906 1904 1903 1902 1902 1902 1902 1902 1902 1906 1906 1906 1905 1893 1874 0 0 0 0 0 0 0 0 1370 1361 1361 1359 1359 1353 1332 1292 1265 1251 1235 1226 1224 1222 1222 1224 1224 1222 1221 1212 1203 1196 1191 1187 1184 1181 1178 1177 1175 1175 1173 1171 1169 1166 1164 1162 1158 1154 1151 1148 1145 1143 1141 1139 1138 1137 1136 1136 1136 1137 1137 1138 1140 1141 1141 1141 1139 1135 1131 1126 1121 1116 1112 1108 1106 1105 1105 1104 1104 1104 1105 1105 1105 1105 1105 1104 1104 1104 1102 1101 1100 1100 1100 1100 1101 1102 1102 1103 1105 1105 1106 1107 1108 1109 1110 1111 1113 1116 1119 1121 1122 1125 1129 1132 1134 1136 1138 1140 1140 1142 1144 1144 1147 1148 1148
1545 1538 1538 1530 1526 1526 1526 1527 1529 1531 1532 1535 1539 1545 1552 1552 1552 1552 1552 1553 1554 1555 1556 1557 1557 1557 1561 1564 1567 1567 1567 1567 1568 1569 1572 1572 1573 1573 1573 1574 1574 1574 1574 1574 1575 1576 1576 1579 1581 1583 1590 1601 1604 1609 1610 1618 1628 1643 1675 1716 1744 1775 1800 1814 1840 1860 1861 1864 1864 0 0 0 0 0 0 0 0 0 0 0 0 0 0 0 0 0 0 0 1546 1546 1546 1546 1547 1547 1555 1559 1560 1576 1607 1635 1636 1649 1675 0 0 0 0 2003 2019 2020 2023 2024 2030 2038 2052 2052 2052 2052 2052 2052 2052 2056 2061 2065 2071 2078 2086 2094 2094 2096 2102 2110 2116 2116 2116 2116 2116 2116 2123 2129 2132 2153 2187 0 0 2243 2263 2294 2328 2355 2368 2369 2370 2370 2372 2372 2372 2375 2382 2389 2390 2390 2390 2386 2383 2381 2381 2380 2380 2380 2378 2378 2378 2383 2391 2393 2394 2395 2403 2413 2421 2421 2421 2415 2409 2406 2406 2406 2414 2423 2427 2427 2428 2428 2429 2430 2436 2438 2438 2438 2429 2418 2416 2415 2395 2361 2324 2282 0 0 0 2388 2391 2397 2397 2397 2398 2396 2387 2382 2369 0 0 2200 2191 2183 2182 2177 2177 2177 2182 2186 2190 2193 2193 2194 2195 2200 2206 2209 2220 2223 2223 2223 2224 2225 2236 2243 2251 2257 2266 2268 2268 2268 2250 2250 2250 2267 2270 2281 2281 0 0 0 0 0 0 0 0 0 0 0 0 0 0 0 0 0 0 0 0 0 0 0 0 0 0 0 0 0 2336 2336 2340 2340 2339 2339 2339 2321 2321 2321 2351 2387 2404 2412 2427 2432 2432 2432 2391 2354 2354 2350 2348 2343 2332 2332 2332 2337 2356 2385 2438 2453 2454 2458 2458 2454 2448 2446 2446 2432 2405 2353 2337 2312 2295 2283 2269 2257 2249 2243 2235 2224 2212 2208 2201 2197 2194 2189 2180 2171 2165 2161 2157 2152 2147 2142 2136 2132 2127 2122 2116 2111 2106 2101 2094 2087 2084 2078 2072 2068 2064 2061 2059 2056 2052 2049 2045 2040 2037 2035 2033 2031 2030 2028 2027 2025 2023 2021 2018 2015 2014 2013 2011 2010 2008 2007 2005 2003 2000 1999 1998 1996 1995 1993 1992 1991 1988 1987 1986 1985 1985 1984 1983 1982 1981 1981 1980 1980 1980 1979 1979 1978 1977 1975 1974 1973 1973 1972 1971 1970 1969 1968 1967 1966 1965 1965 1964 1963 1963 1963 1962 1962 1961 1961 1960 1960 1959 1958 1957 1955 1954 1953 1952 1951 1950 1950 1948 1948 1947 1947 1946 1946 1945 1944 1943 1941 1941 1940 1939 1939 1938 1936 1935 1935 1934 1933 1932 1931 1929 1927 1925 1923 1923 1923 1921 1920 1920 1918 1916 1915 1915 1914 1913 1912 1911 1910 1908 1906 1906 1904 1903 1902 1902 1902 1902 1902 1902 1906 1906 1906 1898 0 0 0 0 0 0 0 0 0 0 1353 1353 1351 1346 1346 1344 1314 1276 1254 1239 1226 1220 1218 1218 1218 1219 1219 1219 1216 1207 1196 1191 1187 1184 1181 1178 1175 1174 1173 1173 1171 1168 1167 1165 1162 1159 1155 1152 1148 1145 1143 1141 1139 1137 1137 1136 1135 1135 1135 1135 1136 1136 1139 1139 1139 1139 1135 1131 1128 1123 1117 1113 1110 1105 1104 1103 1103 1103 1103 1104 1104 1104 1105 1105 1105 1104 1103 1102 1101 1100 1099 1099 1099 1099 1100 1100 1101 1102 1103 1105 1106 1106 1108 1108 1110 1111 1113 1116 1119 1121 1122 1125 1129 1132 1134 1136 1138 1138 1139 1141 1142 1144 1146 1147 1148
1540 1533 1533 1521 1516 1516 1516 1519 1522 1524 1525 1529 1534 1540 1540 1540 1539 1539 1539 1539 1542 1545 1545 1545 1546 1547 1551 1557 1562 1563 1564 1564 1565 1565 1567 1569 1571 1571 1571 1571 1570 1570 1571 1571 1573 1574 1574 1575 1577 1580 1586 1588 1592 1594 1602 1608 1618 1628 1659 1696 1727 1752 1781 1810 1833 1860 1865 1875 1875 1875 1868 1850 0 0 0 0 0 0 0 0 0 0 0 0 0 0 0 0 0 1547 1553 1553 1554 1581 1581 1581 1581 1581 1607 1635 1636 1649 1675 0 0 0 0 1996 2015 2019 2023 2023 2025 2030 2040 2040 2041 2046 2046 2049 2051 2051 2052 2055 2055 2068 2080 2081 2083 2084 2084 2098 2111 2111 2111 2111 2109 2109 2109 2116 2119 2128 2136 2141 0 0 2226 2256 2295 2339 2355 2356 2360 2360 2360 2361 2361 2361 2368 2376 2380 2380 2380 2378 2375 2367 2367 2365 2365 2367 2367 2369 2374 2378 2382 2383 2384 2387 2396 2408 2418 2418 2418 2411 2402 2397 2397 2397 2398 2401 2412 2417 2419 2422 2426 2428 2429 2429 2428 2423 2416 2416 2416 2415 2415 2383 2377 2373 2373 2377 2386 2389 2392 2412 2413 2413 2412 2411 2398 2396 2369 2345 0 2219 2200 2183 2179 2179 2179 2179 2182 2186 2190 2193 2193 2194 2195 2198 2199 2204 2210 2211 2219 2219 2224 2225 2236 2236 2238 2243 2242 2238 2238 2229 2229 2229 2236 2265 2270 2281 2281 0 0 0 0 0 0 0 0 0 0 0 0 0 0 0 0 0 0 0 0 0 0 0 0 0 0 0 0 2359 2359 2359 2342 2342 2341 2341 2339 2321 2321 2321 2351 2384 2404 2405 2416 2428 2428 2428 2391 2353 2353 2353 2353 2353 2347 2338 2338 2338 2356 2385 2438 2455 2459 2462 2462 2462 2448 2446 2446 2432 2405 2352 2332 2310 2295 2279 2267 2253 2246 2238 2231 2221 2212 2208 2201 2197 2194 2189 2180 2172 2165 2159 2155 2150 2146 2141 2136 2131 2127 2122 2118 2112 2106 2101 2092 2086 2080 2076 2072 2067 2064 2060 2058 2056 2052 2049 2045 2041 2037 2035 2033 2031 2030 2029 2027 2025 2023 2021 2018 2016 2015 2013 2012 2011 2009 2008 2005 2004 2002 2000 1998 1997 1996 1994 1992 1991 1988 1987 1987 1986 1985 1984 1983 1983 1982 1981 1981 1980 1980 1980 1980 1978 1977 1977 1975 1974 1974 1973 1971 1971 1969 1968 1967 1967 1966 1965 1965 1964 1963 1963 1962 1962 1961 1961 1960 1960 1959 1958 1957 1955 1954 1953 1952 1952 1951 1950 1948 1948 1947 1947 1946 1946 1945 1944 1943 1942 1941 1940 1939 1939 1938 1936 1935 1935 1933 1932 1931 1930 1929 1927 1925 1923 1923 1922 1921 1920 1919 1918 1916 1915 1914 1913 1912 1911 1911 1909 1908 1906 1906 1904 1903 1902 1902 1902 1900 1900 1900 1905 1905 1905 1895 0 0 0 0 0 0 0 0 0 1342 1341 1341 1341 1341 1341 1334 1300 1269 1247 1230 1225 1219 1215 1215 1215 1218 1218 1218 1211 1200 1191 1187 1183 1181 1178 1174 1173 1171 1171 1171 1169 1166 1165 1163 1158 1155 1152 1149 1145 1142 1141 1139 1137 1135 1135 1134 1133 1133 1133 1133 1134 1135 1137 1137 1137 1135 1131 1127 1123 1119 1114 1109 1105 1103 1103 1103 1102 1102 1102 1102 1103 1103 1104 1104 1104 1103 1102 1102 1101 1099 1099 1098 1098 1098 1099 1099 1101 1101 1103 1104 1105 1106 1108 1108 1110 1111 1113 1116 1119 1121 1122 1125 1129 1131 1134 1135 1137 1137 1137 1140 1141 1143 1145 1146 1147
1527 1526 1526 1518 1511 1511 1511 1511 1517 1519 1521 1523 1526 1532 1534 1534 1534 1528 1528 1528 1534 1537 1538 1539 1541 1541 1545 1551 1555 1558 1558 1559 1560 1560 1562 1565 1568 1569 1569 1569 1568 1568 1568 1569 1571 1572 1572 1572 1572 1573 1577 1584 1587 1589 1595 1599 1606 1617 1630 1668 1701 1727 1751 1789 1820 1847 1865 1875 1880 1880 1880 1880 1875 1873 0 0 0 0 0 0 0 0 0 0 0 0 0 0 0 1556 1559 1564 1589 1593 1593 1593 1593 1593 1596 1631 1655 1657 1669 0 0 0 0 1979 2013 2020 2023 2023 2025 2027 2027 2033 2041 2042 2044 2046 2046 2046 2046 2046 2046 2058 2068 2070 2071 2072 2072 2082 2097 2100 2100 2100 2100 2100 2100 2106 2113 2115 2116 2118 2127 2153 0 0 2269 2313 2339 2344 2348 2349 2349 2350 2351 2351 2358 2367 2371 2371 2371 2371 2366 2358 2351 2351 2351 2358 2366 2369 2369 2373 2377 2380 2380 2383 2392 2401 2410 2410 2410 2402 2392 2386 2386 2386 2389 2394 2401 2407 2412 2417 2422 2423 2423 2423 2415 2404 2404 2404 2408 2418 2418 2418 2386 2384 2384 2384 2390 2400 2409 2415 2415 2415 2415 2411 2399 2396 2369 2351 0 0 2200 2187 2179 2179 2179 2180 2183 2184 2186 2188 2192 2193 2195 2195 2196 2200 2206 2211 2219 2219 2219 2219 2219 2219 2219 2218 2210 2209 2204 2204 2204 2208 2232 2259 2259 2263 2263 0 0 0 0 0 0 0 0 0 0 0 0 0 0 0 0 0 0 0 0 0 0 0 0 0 2320 2351 2365 2385 2385 2385 2355 2353 2342 2341 2339 2321 2321 2321 2350 2376 2397 2402 2415 2419 2419 2419 2377 2348 2348 2348 2351 2351 2351 2343 2343 2343 2356 2393 2438 2458 2467 2467 2467 2466 2464 2459 2448 2432 2416 2352 2325 2307 2291 2276 2262 2252 2243 2236 2226 2218 2212 2207 2201 2197 2194 2189 2180 2172 2165 2159 2154 2149 2144 2141 2136 2131 2127 2122 2118 2111 2104 2098 2091 2086 2080 2076 2072 2067 2063 2060 2057 2053 2049 2047 2044 2041 2038 2035 2033 2032 2031 2029 2028 2026 2024 2021 2019 2018 2015 2015 2013 2012 2010 2008 2006 2005 2003 2001 1999 1998 1996 1994 1992 1991 1988 1987 1987 1986 1985 1985 1984 1983 1983 1982 1982 1981 1981 1981 1981 1980 1979 1977 1976 1975 1974 1973 1972 1971 1969 1968 1968 1967 1966 1965 1965 1964 1964 1964 1963 1962 1962 1961 1960 1960 1959 1958 1957 1955 1954 1953 1953 1952 1951 1950 1948 1948 1947 1947 1946 1946 1945 1944 1943 1942 1941 1940 1939 1939 1938 1937 1936 1935 1933 1932 1931 1930 1929 1927 1925 1923 1922 1921 1920 1919 1918 1917 1916 1914 1913 1913 1912 1911 1910 1909 1908 1906 1906 1904 1903 1902 1902 1901 1900 1900 1899 1898 1898 1893 1882 0 0 0 0 0 0 0 0 1337 1329 1329 1329 1337 1337 1337 1315 1275 1261 1244 1227 1221 1217 1214 1214 1214 1216 1216 1216 1207 1197 1188 1183 1180 1176 1174 1173 1172 1170 1169 1168 1166 1164 1162 1159 1156 1152 1149 1146 1144 1141 1139 1137 1135 1133 1132 1132 1131 1131 1132 1132 1133 1133 1135 1135 1135 1132 1127 1122 1119 1114 1110 1105 1102 1102 1102 1102 1102 1102 1102 1102 1102 1102 1103 1103 1103 1103 1102 1101 1100 1099 1098 1098 1098 1098 1098 1099 1100 1101 1102 1104 1104 1106 1108 1108 1110 1111 1114 1116 1119 1121 1122 1125 1128 1131 1133 1134 1135 1135 1137 1138 1140 1142 1145 1146 1146
1525 1525 1525 1516 1509 1504 1504 1504 1511 1516 1516 1518 1521 1524 1524 1524 1523 1522 1522 1522 1526 1529 1531 1532 1533 1535 1539 1546 1549 1552 1552 1556 1556 1556 1557 1561 1564 1565 1565 1565 1565 1565 1565 1567 1569 1569 1569 1570 1569 1569 1570 1573 1585 1586 1591 1594 1600 1608 1617 1630 1656 1687 1723 1750 1794 1840 1859 1867 1880 1884 1885 1887 1888 1888 1888 0 0 0 0 0 0 0 0 0 0 0 0 0 0 0 1559 1564 1626 1626 1626 1602 1596 1596 1596 1631 1655 1657 1669 0 0 0 0 1979 2013 2021 2023 2024 2025 2025 2026 2031 2036 2038 2039 2040 2040 2040 2040 2040 2041 2044 2052 2062 2062 2065 2065 2065 2069 2071 2075 2080 2082 2086 2093 2093 2093 2093 2097 2101 2113 2125 2141 0 2262 2292 2320 2328 2334 2340 2343 2345 2346 2350 2356 2362 2365 2365 2365 2365 2360 2351 2348 2348 2348 2353 2361 2363 2367 2372 2377 2378 2379 2383 2385 2391 2399 2399 2399 2391 2380 2379 2379 2379 2380 2385 2388 2395 2403 2409 2415 2415 2415 2414 2408 2400 2398 2398 2398 2410 2417 2417 2417 2388 2388 2388 2398 2410 2421 2421 2421 2417 2416 2411 2399 2370 2366 2354 0 0 2202 2189 2184 2184 2183 2183 2184 2184 2185 2185 2187 2189 2190 2190 2191 2195 2201 2209 2217 2217 2217 2206 2206 2202 2200 2200 2199 2199 2199 2200 2200 2208 2226 2242 2256 2256 2256 0 0 0 0 0 0 0 0 0 0 0 0 0 0 0 0 0 0 0 0 0 0 0 0 2323 2324 2351 2365 2385 2385 2385 2358 2357 2356 2353 2349 2333 2333 2333 2351 2371 2392 2402 2415 2419 2419 2419 2377 2342 2342 2342 2348 2348 2348 2344 2344 2344 2359 2400 2438 2475 2478 2489 2497 2498 2512 2512 2512 2495 2417 2353 2325 2299 2287 2271 2261 2252 2242 2233 2225 2218 2214 2207 2201 2197 2193 2185 2178 2172 2165 2159 2152 2148 2143 2140 2136 2131 2127 2122 2118 2112 2104 2098 2091 2085 2079 2076 2072 2066 2061 2058 2054 2049 2047 2046 2044 2041 2038 2036 2034 2032 2031 2030 2028 2026 2024 2021 2019 2018 2017 2016 2013 2012 2011 2009 2008 2007 2005 2003 2001 1998 1996 1995 1992 1991 1988 1988 1987 1986 1986 1985 1985 1985 1984 1983 1982 1982 1982 1982 1981 1980 1979 1978 1976 1975 1974 1973 1972 1971 1969 1968 1968 1967 1966 1965 1965 1965 1964 1964 1963 1963 1962 1961 1960 1960 1959 1958 1957 1956 1954 1953 1953 1952 1951 1950 1948 1948 1947 1947 1947 1946 1945 1945 1944 1943 1941 1940 1939 1939 1938 1938 1936 1935 1933 1932 1931 1930 1929 1927 1926 1924 1922 1921 1920 1919 1918 1916 1915 1914 1913 1912 1912 1910 1910 1908 1907 1906 1905 1904 1902 1902 1902 1901 1899 1898 1897 1894 1889 1882 1866 0 0 0 0 0 0 0 1334 1323 1323 1323 1329 1329 1329 1327 1302 1269 1251 1239 1222 1214 1212 1211 1211 1211 1211 1211 1211 1203 1194 1186 1182 1177 1174 1172 1170 1169 1167 1167 1165 1163 1162 1158 1155 1152 1149 1147 1144 1141 1139 1137 1134 1133 1132 1131 1131 1131 1131 1131 1131 1131 1132 1134 1134 1134 1130 1125 1119 1115 1110 1107 1103 1101 1100 1100 1100 1100 1101 1101 1101 1101 1101 1102 1102 1102 1102 1101 1100 1099 1098 1098 1098 1098 1098 1098 1099 1100 1101 1102 1103 1104 1106 1107 1109 1110 1112 1114 1116 1119 1121 1122 1126 1128 1130 1132 1132 1134 1135 1136 1137 1139 1141 1144 1144 1144
1524 1522 1522 1516 1507 1499 1499 1499 1506 1508 1509 1509 1509 1511 1514 1515 1515 1515 1515 1515 1517 1520 1521 1523 1525 1527 1533 1540 1544 1546 1548 1552 1554 1555 1557 1558 1558 1559 1559 1559 1560 1561 1561 1563 1564 1565 1565 1565 1565 1566 1567 1568 1579 1585 1588 1591 1598 1606 1609 1615 1626 1655 1704 1734 1766 1814 1847 1860 1876 1878 1884 1887 1888 1888 1888 1874 0 0 0 0 0 0 0 0 0 0 0 0 0 0 0 0 0 1635 1635 1612 1596 1596 1596 1631 1655 1663 0 0 0 0 0 1979 2013 2021 2023 2023 2024 2024 2025 2030 2033 2034 2035 2037 2037 2037 2037 2037 2037 2041 2041 2042 2051 2059 2059 2059 2054 2054 2054 2057 2065 2073 2074 2079 2083 2084 2084 2089 2105 2120 2138 2161 2243 2271 2296 2310 2321 2330 2342 2343 2345 2349 2355 2357 2358 2358 2358 2357 2351 2344 2344 2344 2347 2352 2356 2360 2363 2368 2372 2374 2375 2376 2377 2380 2387 2387 2387 2379 2368 2368 2368 2368 2370 2372 2378 2385 2394 2400 2401 2401 2401 2401 2401 2398 2394 2394 2394 2398 2411 2411 2411 2404 2404 2404 2408 2417 2421 2421 2421 2415 2413 2410 2398 2370 2366 2354 0 0 2204 2190 2186 2185 2183 2183 2183 2183 2183 2183 2183 2183 2181 2181 2181 2181 2190 2203 2216 2216 2216 2202 2192 2192 2192 2195 2196 2197 2198 2200 2200 2208 2221 2241 2246 2249 2246 0 0 0 0 0 0 0 0 0 0 0 0 0 0 0 0 0 0 0 0 0 2335 2335 2334 2334 2334 2351 2365 2385 2385 2385 2379 2375 2375 2372 2372 2363 2350 2350 2350 2366 2390 2401 2414 2414 2414 2414 2377 2342 2342 2342 2345 2352 2352 2352 2352 2352 2359 2400 2490 2519 2520 2528 2538 2565 2570 2570 2570 2499 0 2353 2325 2299 2286 2265 2255 2250 2240 2232 2224 2218 2214 2207 2201 2197 2192 2183 2178 2172 2165 2158 2152 2146 2143 2139 2135 2131 2127 2122 2118 2112 2104 2098 2091 2085 2079 2074 2072 2066 2060 2056 2051 2048 2047 2046 2044 2041 2038 2036 2034 2032 2031 2030 2028 2026 2024 2022 2020 2019 2018 2016 2015 2013 2012 2010 2009 2007 2006 2003 2002 1999 1997 1995 1992 1991 1988 1988 1987 1987 1987 1986 1986 1985 1984 1983 1983 1983 1982 1982 1981 1981 1980 1979 1976 1975 1974 1973 1972 1971 1969 1968 1968 1967 1966 1965 1965 1964 1964 1964 1963 1963 1963 1962 1961 1960 1959 1958 1957 1955 1954 1953 1952 1951 1951 1950 1949 1948 1947 1947 1947 1947 1947 1945 1945 1944 1943 1941 1940 1939 1939 1938 1937 1936 1933 1932 1931 1930 1929 1927 1926 1924 1922 1921 1920 1919 1917 1916 1914 1914 1913 1912 1911 1910 1909 1908 1907 1905 1904 1902 1902 1902 1901 1899 1897 1896 1893 1887 1878 1870 1811 0 0 0 0 0 0 1328 1315 1315 1315 1322 1323 1323 1322 1312 1295 1266 1243 1226 1215 1210 1209 1209 1209 1209 1209 1209 1208 1198 1192 1186 1179 1176 1172 1170 1168 1166 1164 1163 1161 1160 1158 1155 1152 1150 1147 1145 1142 1139 1136 1134 1132 1131 1130 1130 1130 1130 1130 1130 1130 1131 1132 1133 1133 1133 1130 1125 1119 1114 1109 1104 1101 1100 1099 1099 1099 1100 1100 1100 1100 1100 1101 1101 1101 1101 1101 1100 1099 1098 1097 1097 1097 1097 1098 1098 1099 1100 1101 1101 1102 1104 1106 1107 1109 1111 1112 1114 1116 1119 1121 1123 1126 1128 1129 1131 1131 1133 1135 1136 1136 1138 1140 1142 1143 1143
1522 1520 1520 1515 1500 1490 1490 1490 1493 1496 1497 1499 1500 1503 1506 1509 1510 1510 1511 1511 1513 1514 1516 1517 1520 1523 1529 1534 1536 1536 1539 1544 1547 1550 1553 1553 1554 1555 1555 1556 1556 1556 1556 1557 1559 1561 1561 1561 1561 1561 1561 1563 1570 1580 1583 1590 1596 1602 1606 1607 1615 1643 1683 1714 1750 1779 1824 1850 1867 1877 1884 1887 1888 1888 1888 1886 1884 0 0 0 0 0 0 0 0 0 0 0 0 0 0 0 0 0 0 0 0 0 0 0 0 0 0 0 0 0 1960 1992 2013 2021 2022 2023 2023 2023 2024 2026 2028 2031 2031 2032 2032 2033 2033 2033 2036 2036 2036 2037 2038 2046 2053 2053 2053 2053 2053 2054 2060 2062 2064 2069 2071 2075 2081 2086 2102 2112 2128 2151 2196 2240 2275 2299 2310 2322 2332 2339 2345 2348 2349 2349 2351 2351 2351 2351 2346 2344 2344 2344 2346 2351 2351 2354 2356 2361 2364 2364 2365 2365 2367 2372 2375 2375 2375 2370 2361 2358 2358 2358 2362 2368 2369 2374 2378 2385 2385 2385 2386 2386 2387 2390 2390 2390 2390 2390 2393 2403 2403 2404 2404 2404 2413 2417 2421 2421 2421 2415 2413 2410 2372 2370 2366 2356 2326 0 2204 2190 2186 2185 2184 2182 2182 2181 2181 2181 2180 2179 2176 2174 2174 2174 2182 2196 2206 2206 2206 2190 2189 2189 2189 2192 2195 2196 2197 2201 2204 2208 2216 2221 2239 2239 2239 0 0 0 0 0 0 0 0 0 0 0 0 0 0 0 0 0 0 0 2305 2335 2345 2345 2345 2344 2344 2344 2350 2385 2385 2391 2391 2390 2388 2388 2388 2376 2360 2360 2360 2366 2387 2401 2414 2414 2414 2414 2408 2360 2345 2345 2345 2353 2373 0 0 0 0 2516 2557 2573 2575 2580 2606 2620 2620 2620 2580 2513 0 0 2327 2299 2286 2265 2252 2245 2237 2229 2223 2217 2214 2209 2203 2197 2191 2183 2178 2172 2165 2158 2151 2144 2140 2137 2134 2131 2127 2122 2118 2112 2105 2098 2091 2085 2080 2075 2072 2066 2059 2053 2050 2048 2047 2046 2044 2041 2038 2036 2034 2032 2031 2030 2028 2026 2024 2022 2020 2019 2018 2017 2015 2014 2013 2010 2009 2007 2006 2004 2002 2000 1998 1995 1993 1992 1990 1988 1988 1988 1987 1987 1987 1985 1985 1984 1983 1983 1983 1982 1982 1981 1980 1979 1976 1975 1974 1973 1972 1971 1969 1969 1968 1967 1966 1965 1965 1965 1964 1964 1964 1963 1963 1963 1961 1960 1959 1958 1957 1955 1954 1953 1952 1951 1951 1950 1949 1949 1948 1948 1948 1948 1948 1947 1945 1944 1943 1942 1940 1940 1939 1938 1937 1936 1933 1932 1931 1930 1929 1928 1926 1924 1923 1921 1919 1917 1916 1915 1914 1913 1913 1912 1911 1909 1909 1907 1907 1905 1904 1902 1901 1899 1899 1898 1895 1893 1889 1881 1867 1867 1809 0 0 0 0 0 0 1312 1311 1311 1311 1315 1315 1315 1309 1299 1283 1260 1238 1220 1209 1204 1204 1204 1204 1207 1207 1207 1203 1195 1189 1184 1179 1174 1171 1168 1165 1164 1162 1160 1160 1157 1155 1152 1149 1146 1144 1142 1139 1137 1134 1132 1130 1130 1129 1129 1129 1129 1129 1130 1130 1131 1132 1132 1132 1132 1128 1123 1119 1113 1108 1104 1101 1100 1098 1098 1098 1098 1098 1099 1099 1099 1100 1100 1100 1100 1100 1099 1098 1097 1097 1097 1097 1097 1097 1097 1098 1099 1100 1101 1102 1104 1106 1107 1109 1111 1113 1114 1117 1119 1121 1123 1125 1128 1128 1129 1130 1133 1135 1136 1136 1137 1139 1141 1142 1142
1517 1510 1510 1505 1492 1481 1481 1481 1483 1485 1488 1491 1492 1496 1500 1504 1506 1507 1508 1508 1510 1511 1511 1514 1518 1522 1525 1525 1525 1526 1528 1533 1536 1540 1546 1547 1550 1550 1551 1552 1552 1552 1552 1552 1552 1554 1557 1557 1558 1558 1558 1560 1563 1567 1577 1579 1590 1598 1598 1602 1607 1623 1641 0 0 0 1789 1820 1850 1863 1878 1882 1888 1891 1891 1891 1890 0 0 0 0 0 0 0 0 0 0 0 0 0 0 0 0 0 0 0 0 0 0 0 0 0 0 0 0 0 1983 1993 2013 2018 2019 2021 2022 2022 2023 2024 2024 2025 2027 2030 2030 2030 2030 2031 2031 2031 2032 2034 2034 2039 2046 2047 2047 2048 2048 2048 2052 2053 2055 2055 2058 2066 2079 2083 2086 2089 2103 2131 2170 2222 2265 2289 2303 2319 2328 2336 2342 2344 2345 2345 2345 2349 2349 2349 2343 2340 2339 2337 2337 2337 2342 2345 2348 2349 2351 2352 2353 2354 2357 2358 2360 2362 2362 2362 2359 2355 2355 2355 2358 2363 2365 2370 2375 2375 2375 2372 2371 2371 2371 2378 2378 2378 2378 2378 2378 2379 2400 2400 2404 2404 2413 2414 2415 2415 2415 2414 2413 2393 2372 2371 2370 2357 2326 0 2238 2196 2186 2185 2184 2182 2176 2170 2167 2167 2167 2171 2171 2171 2171 2171 2173 2190 2190 2190 2180 2168 2168 2168 2170 2185 2193 2196 2197 2201 2204 2205 2206 2206 2206 2205 2191 0 0 0 0 0 0 0 0 0 0 0 0 0 0 0 0 0 2260 2288 2305 2335 2345 2345 2345 2337 2334 2334 2334 2379 2395 2395 2395 2395 2394 2393 2393 2380 2364 2353 2353 2353 2375 2394 2397 2409 2446 2446 2446 2416 2374 2374 2374 2379 0 0 2501 2518 2559 2603 2626 2634 2636 2645 2645 2645 2643 2630 2601 2561 0 0 2329 2302 2286 2265 2252 2238 2231 2226 2220 2217 2214 2209 2203 2197 2190 2183 2178 2172 2165 2157 2151 2144 2140 2137 2132 2131 2127 2122 2117 2112 2106 2099 2093 2085 2080 2076 2072 2066 2059 2053 2050 2048 2048 2046 2044 2041 2038 2036 2034 2033 2031 2030 2028 2026 2025 2022 2020 2019 2018 2017 2015 2014 2013 2011 2009 2008 2006 2004 2003 2001 1999 1997 1994 1992 1991 1991 1990 1989 1988 1987 1987 1986 1985 1985 1985 1984 1983 1982 1982 1981 1980 1979 1977 1975 1974 1973 1972 1971 1970 1969 1968 1967 1966 1965 1965 1965 1964 1964 1964 1964 1963 1963 1962 1960 1959 1958 1957 1956 1954 1953 1952 1951 1951 1950 1949 1949 1949 1949 1948 1948 1948 1948 1946 1945 1944 1942 1941 1940 1939 1938 1937 1936 1934 1933 1931 1930 1929 1928 1927 1925 1923 1921 1919 1917 1916 1915 1914 1913 1913 1912 1911 1909 1908 1907 1906 1905 1904 1902 1900 1899 1898 1896 1894 1892 1885 1868 1865 1843 1762 0 0 0 0 0 1315 1297 1297 1297 1301 1302 1302 1302 1297 1289 1273 1253 1234 1216 1207 1202 1200 1200 1200 1202 1202 1202 1200 1190 1184 1180 1176 1172 1169 1164 1162 1160 1159 1158 1157 1156 1153 1150 1147 1145 1142 1139 1138 1134 1132 1130 1129 1128 1128 1128 1128 1128 1128 1129 1130 1131 1132 1132 1132 1130 1126 1122 1117 1112 1107 1104 1101 1099 1098 1097 1097 1097 1097 1097 1097 1097 1098 1099 1099 1099 1099 1098 1098 1097 1097 1097 1097 1097 1097 1097 1098 1099 1100 1101 1102 1105 1106 1108 1109 1111 1113 1115 1117 1119 1121 1123 1125 1126 1127 1128 1130 1133 1135 1135 1136 1136 1138 1139 1141 1141
1511 1503 1503 1495 1482 1473 1473 1473 1481 1485 1485 1485 1489 1491 1495 1499 1502 1504 1504 1505 1505 1506 1509 1510 1514 1516 1516 1516 1516 1516 1517 1521 1524 1529 1535 1539 1542 1545 1546 1548 1549 1549 1549 1549 1549 1551 1553 1553 1554 1556 1556 1559 1562 1563 1572 1575 1584 1591 1594 1596 1598 1605 1623 0 0 0 0 1794 1825 1847 1871 1881 1883 1890 1892 1897 1897 1897 0 0 0 0 0 0 0 0 0 0 0 1804 1804 1800 1806 1806 1803 1808 0 0 0 0 0 0 0 0 0 1972 1983 1993 2002 2005 2011 2013 2015 2017 2018 2018 2019 2019 2022 2025 2027 2028 2028 2028 2027 2026 2026 2026 2030 2035 2040 2040 2040 2041 2041 2042 2044 2050 2053 2055 2058 2062 2074 2074 2081 2081 2084 2115 2167 2217 2257 2284 2303 2315 2326 2333 2334 2335 2335 2335 2336 2339 2339 2339 2336 2328 2323 2321 2321 2321 2328 2333 2335 2335 2338 2341 2343 2344 2345 2347 2349 2351 2353 2354 2354 2354 2355 2355 2356 2360 2365 2367 2367 2367 2367 2362 2358 2358 2358 2363 2363 2363 2361 2361 2361 2367 2375 2385 2396 2404 2410 2410 2410 2407 2405 2405 2404 2391 2377 2376 2372 2372 2343 0 0 2196 2187 2183 2179 2175 2170 2156 2153 2153 2153 2160 2164 2164 2165 2165 2170 2183 2183 2183 2165 2148 2148 2148 2148 2162 2171 2184 2193 2201 2203 2204 2204 2203 2200 2191 2189 0 0 0 0 0 0 0 0 0 0 0 0 0 0 2272 2268 2268 2268 2289 2300 2322 2335 2337 2337 2337 2318 2318 2318 2366 2392 2392 2393 2395 2394 2393 2393 2382 2369 2358 2358 2358 2364 2375 2376 2384 2446 2473 2473 2473 2448 0 0 0 0 2504 2546 2574 2608 2631 2650 2655 2670 2676 2676 2676 2660 2645 2630 2600 2530 0 0 2316 2295 2265 2252 2238 2230 2222 2219 2216 2213 2209 2203 2197 2190 2183 2178 2171 2162 2156 2150 2144 2140 2137 2132 2129 2125 2122 2117 2112 2106 2099 2093 2086 2080 2076 2072 2066 2059 2053 2050 2050 2049 2046 2043 2041 2038 2036 2034 2033 2031 2030 2028 2026 2025 2022 2020 2019 2018 2017 2016 2014 2013 2011 2010 2008 2006 2004 2003 2001 1999 1998 1996 1994 1993 1992 1992 1990 1989 1988 1988 1987 1986 1986 1985 1984 1983 1982 1981 1981 1980 1979 1977 1975 1973 1973 1972 1971 1970 1969 1968 1967 1966 1965 1965 1965 1965 1965 1964 1964 1963 1963 1962 1960 1959 1958 1957 1956 1954 1953 1952 1951 1951 1950 1950 1949 1949 1949 1949 1949 1949 1948 1947 1946 1944 1944 1942 1941 1939 1939 1938 1936 1935 1933 1932 1930 1929 1929 1927 1926 1924 1921 1919 1917 1916 1915 1914 1913 1913 1911 1911 1909 1908 1906 1906 1905 1904 1902 1900 1899 1898 1895 1894 1892 1883 1866 1856 0 0 0 0 0 0 1322 1297 1290 1290 1290 1291 1294 1294 1294 1291 1280 1260 1240 1223 1214 1204 1200 1197 1197 1197 1199 1199 1199 1195 1186 1183 1177 1173 1169 1165 1163 1160 1158 1157 1157 1154 1153 1150 1148 1145 1142 1139 1137 1134 1132 1130 1128 1127 1127 1127 1127 1128 1128 1128 1128 1129 1131 1132 1132 1132 1129 1124 1120 1116 1111 1106 1103 1101 1099 1097 1097 1096 1096 1096 1096 1096 1096 1098 1098 1098 1098 1098 1097 1096 1096 1096 1095 1095 1096 1096 1097 1097 1099 1100 1101 1103 1105 1106 1109 1110 1112 1113 1116 1118 1120 1121 1123 1123 1124 1125 1126 1129 1132 1133 1133 1134 1134 1135 1136 1137 1138
1509 1501 1501 1490 1480 1472 1472 1472 1480 1484 1484 1484 1485 1487 1491 1493 1498 1499 1499 1499 1502 1506 1508 1510 1511 1511 1511 1510 1507 1507 1507 1511 1515 1520 1526 1530 1535 1538 1542 1544 1544 1545 1545 1546 1548 1549 1549 1549 1551 1553 1554 1556 1557 1561 1566 1573 1576 1586 1589 1591 1593 1593 1598 1607 0 0 0 0 1793 1836 1852 1875 1880 1890 1891 1894 1894 1894 1877 0 0 0 0 0 0 0 0 0 1836 1836 1836 1827 1827 1827 1850 1850 1850 1850 0 0 0 0 1922 1934 1957 1972 1983 1993 1994 1999 2005 2006 2006 2008 2009 2011 2011 2014 2016 2020 2023 2024 2024 2024 2024 2024 2024 2024 2029 2034 2035 2035 2036 2036 2036 2039 2042 2043 2043 2050 2056 2057 2060 2061 2067 2070 2080 2115 2162 2215 2257 2272 2298 2312 2323 2323 2323 2320 2320 2320 2323 2324 2324 2324 2320 2311 2301 2301 2301 2307 2314 2321 2324 2328 2333 2336 2336 2338 2339 2339 2342 2344 2345 2347 2349 2350 2351 2351 2351 2355 2361 2362 2362 2362 2362 2358 2358 2357 2357 2356 2356 2354 2350 2350 2350 2355 2366 2378 2388 2402 2405 2405 2405 2401 2400 2398 2396 2389 2387 2387 2386 2386 2386 0 0 2212 2184 2181 2179 2162 2155 2149 2149 2149 2151 2153 2154 2155 2156 2159 2167 2183 2183 2183 2165 2148 2148 2148 2148 2162 2171 2173 2178 2192 2197 2203 2203 2203 2200 2191 2189 2164 0 0 0 0 0 0 0 0 0 0 2276 2276 2276 2275 2269 2269 2269 2291 2299 2305 2307 2309 2314 2314 2314 2317 2318 2359 2395 2395 2395 2395 2394 2393 2393 2382 2372 2364 2364 2364 2364 2375 2376 2384 2459 2474 2499 2504 2507 2512 2512 2537 2539 2563 2608 2639 2651 2664 2670 2676 2695 2704 2704 2704 2691 2673 2661 2646 2581 0 0 2333 2300 2273 2255 2238 2230 2222 2216 2215 2209 2206 2202 2195 2190 2183 2177 2170 2161 2155 2150 2144 2139 2135 2132 2128 2123 2117 2114 2111 2106 2099 2093 2086 2080 2077 2072 2066 2061 2054 2052 2050 2049 2046 2044 2041 2038 2036 2034 2033 2031 2030 2028 2026 2025 2023 2021 2019 2018 2017 2016 2014 2013 2012 2010 2008 2006 2004 2003 2002 2000 1999 1997 1996 1995 1993 1993 1991 1991 1989 1989 1988 1987 1986 1986 1985 1983 1982 1981 1981 1980 1978 1977 1975 1973 1973 1972 1971 1970 1969 1968 1967 1966 1965 1965 1965 1965 1965 1965 1964 1963 1962 1961 1960 1959 1958 1956 1955 1954 1953 1952 1952 1951 1951 1950 1949 1949 1949 1949 1949 1949 1948 1947 1946 1946 1944 1943 1943 1940 1940 1938 1937 1935 1934 1933 1932 1931 1929 1928 1927 1925 1922 1920 1918 1917 1915 1914 1914 1913 1911 1911 1909 1907 1906 1906 1905 1904 1901 1900 1899 1897 1895 1891 1891 1873 1858 0 0 0 0 0 0 0 1301 1285 1285 1285 1285 1286 1287 1287 1287 1285 1275 1255 1233 1218 1209 1202 1197 1196 1196 1196 1196 1196 1194 1192 1186 1179 1173 1169 1166 1163 1161 1158 1157 1155 1154 1152 1150 1148 1145 1142 1140 1137 1135 1132 1130 1128 1127 1126 1126 1126 1127 1127 1127 1127 1128 1130 1131 1132 1132 1132 1128 1122 1118 1114 1109 1106 1102 1101 1099 1097 1096 1095 1095 1095 1095 1095 1095 1096 1096 1096 1096 1096 1096 1096 1095 1095 1095 1095 1095 1095 1096 1097 1099 1100 1102 1104 1106 1107 1109 1110 1112 1113 1116 1118 1120 1121 1122 1123 1123 1123 1125 1128 1130 1131 1132 1132 1132 1133 1133 1134 1134
1506 1497 1497 1486 1475 1471 1471 1471 1479 1483 1484 1484 1485 1486 1487 1490 1492 1492 1494 1494 1497 1501 1505 1507 1507 1507 1505 1504 1500 1500 1500 1503 1506 1510 1514 1520 1525 1528 1532 1536 1538 1538 1538 1544 1545 1545 1545 1546 1547 1548 1548 1549 1550 1550 1553 1558 1561 1567 1570 1576 1576 1583 1588 1589 1608 0 0 0 0 1794 1834 1857 1877 1883 1890 1890 1890 1890 1880 1874 1867 1867 1869 1874 1878 1878 1878 1872 1869 1869 1869 1869 1870 1880 1880 1880 1884 1884 1885 1888 1926 1926 1934 1951 1962 1972 1980 1985 1991 1994 1998 2000 2000 2001 2003 2005 2007 2009 2013 2016 2020 2022 2022 2022 2022 2023 2023 2023 2028 2033 2033 2033 2033 2033 2035 2035 2035 2033 2033 2033 2037 2050 2055 2057 2063 2069 2080 2112 2162 2194 2240 2266 2291 2306 2314 2314 2314 2309 2307 2307 2307 2307 2307 2307 2303 2296 2290 2290 2290 2298 2303 2309 2313 2319 2327 2333 2333 2333 2333 2333 2337 2338 2340 2343 2343 2344 2345 2345 2347 2351 2357 2357 2359 2359 2359 2358 2357 2356 2356 2356 2356 2352 2346 2346 2346 2350 2358 2370 2380 2394 2403 2403 2403 2399 2395 2394 2392 2389 2388 2388 2388 2388 2388 2368 0 0 2189 2173 2169 2160 2153 2145 2145 2145 2149 2150 2154 2155 2155 2158 2167 2183 2183 2183 2165 2148 2148 2148 2148 2162 2171 2172 2173 2181 2195 2203 2203 2203 2196 2196 2193 2188 0 0 0 0 0 0 0 0 2252 2272 2278 2289 2289 2289 2290 2291 2291 2291 2291 2285 2285 2285 2289 2305 2312 2317 2318 2359 2395 2395 2395 2401 2390 2389 2389 2382 2376 2370 2370 2370 2370 2376 2378 2384 2459 2479 2504 2523 2524 2525 2550 2576 2603 2640 2657 2664 2677 2682 2693 2705 2722 2734 2734 2734 2726 2713 2703 2699 2636 2524 0 0 2320 2279 2265 2245 2230 2222 2216 2214 2209 2206 2201 2194 2188 2183 2176 2168 2161 2154 2149 2144 2139 2135 2131 2126 2120 2115 2109 2106 2103 2097 2091 2086 2080 2077 2073 2068 2063 2058 2056 2053 2050 2046 2044 2041 2039 2038 2035 2033 2031 2030 2028 2026 2024 2023 2021 2020 2019 2017 2017 2015 2013 2012 2010 2008 2006 2004 2003 2002 2000 1999 1997 1996 1995 1994 1993 1992 1991 1989 1989 1989 1988 1987 1986 1985 1984 1983 1982 1981 1980 1978 1977 1975 1974 1973 1972 1971 1970 1969 1968 1967 1967 1966 1966 1966 1965 1965 1965 1964 1963 1962 1961 1960 1959 1958 1956 1955 1953 1953 1953 1952 1951 1951 1951 1950 1950 1950 1950 1949 1949 1948 1947 1947 1946 1944 1943 1943 1941 1940 1938 1937 1936 1935 1934 1932 1931 1929 1928 1927 1925 1924 1922 1920 1919 1917 1915 1915 1913 1911 1910 1909 1907 1906 1905 1905 1904 1901 1900 1897 1895 1892 1889 1880 1867 1847 0 0 0 0 0 0 1299 1288 1277 1277 1277 1279 1281 1283 1283 1283 1278 1269 1249 1231 1215 1208 1201 1196 1195 1194 1194 1193 1193 1192 1188 1184 1176 1170 1167 1164 1161 1159 1157 1155 1153 1151 1149 1148 1145 1142 1139 1137 1135 1132 1130 1128 1127 1126 1126 1126 1126 1126 1126 1126 1126 1128 1129 1131 1131 1131 1131 1127 1122 1117 1112 1109 1105 1102 1100 1099 1097 1095 1094 1094 1094 1094 1094 1094 1094 1094 1095 1095 1095 1095 1095 1094 1093 1093 1093 1093 1094 1095 1096 1099 1100 1103 1104 1106 1107 1109 1111 1112 1114 1116 1118 1120 1121 1122 1122 1122 1123 1123 1126 1128 1129 1130 1130 1130 1130 1130 1130 1131
1499 1489 1489 1481 1473 1469 1469 1469 1479 1483 1484 1484 1484 1485 1487 1488 1490 1490 1491 1491 1494 1496 1498 1500 1500 1500 1500 1500 1495 1495 1495 1497 1497 1499 1502 1503 1508 1514 1519 1523 1527 1529 1532 1538 1539 1539 1541 1543 1543 1543 1543 1543 1544 1545 1547 1549 1549 1552 1555 1566 1574 1575 1575 1581 1604 1634 1660 1695 0 0 1823 1851 1873 1881 1889 1889 1890 1890 1889 1888 1883 1882 1882 1883 1886 1886 1886 1884 1883 1883 1883 1890 1902 1903 1914 1916 1916 1917 1918 1921 1926 1926 1934 1951 1962 1972 1977 1982 1984 1990 1992 1992 1993 1996 1998 2002 2004 2007 2011 2013 2017 2019 2020 2020 2021 2022 2022 2023 2026 2030 2030 2032 2032 2032 2032 2032 2031 2025 2025 2025 2033 2046 2048 2053 2059 2067 2080 2107 2154 2191 2213 2255 2281 2297 2303 2303 2303 2297 2295 2295 2295 2294 2294 2293 2291 2287 2287 2287 2289 2293 2297 2300 2305 2313 2324 2327 2327 2327 2327 2327 2330 2331 2334 2334 2334 2336 2336 2336 2340 2345 2352 2354 2357 2357 2357 2357 2353 2353 2353 2353 2352 2349 2343 2343 2343 2347 2356 2369 2379 2388 2397 2397 2397 2394 2390 2389 2388 2388 2388 2388 2388 2388 2388 2368 0 0 2190 2173 2156 2143 2138 2138 2138 2142 2147 2150 2154 2155 2155 2156 2168 2185 2185 2185 2171 2157 2157 2157 2163 2173 2173 2174 2175 2177 2191 2203 2203 2203 2196 2196 2193 2190 2193 2197 2197 2201 2202 2204 2239 2255 2265 2272 2278 2283 2284 2287 2290 2291 2291 2291 2291 2279 2279 2279 2280 2295 2322 2346 2346 2357 2395 2395 2395 2401 2390 2389 2389 2389 2389 2393 2399 2399 2399 2400 2400 2414 2478 2516 2526 2534 2544 2560 2601 2639 2651 2664 2675 2681 2689 2700 2716 2730 2740 2750 2750 2750 2750 2746 2739 2723 2690 2605 0 0 0 2292 2267 2245 2234 2220 2216 2213 2209 2206 2201 2193 2188 2180 2173 2168 2160 2153 2146 2143 2139 2135 2130 2124 2118 2113 2108 2104 2100 2094 2089 2084 2080 2077 2074 2070 2065 2060 2057 2053 2050 2046 2044 2041 2039 2038 2035 2033 2031 2030 2028 2026 2024 2022 2021 2020 2019 2018 2017 2015 2013 2012 2010 2009 2006 2004 2003 2002 2000 1999 1998 1996 1995 1994 1993 1992 1991 1990 1990 1989 1988 1987 1986 1985 1984 1983 1982 1981 1980 1979 1977 1976 1976 1974 1974 1972 1970 1969 1968 1967 1967 1967 1967 1966 1965 1965 1965 1964 1963 1962 1961 1960 1959 1958 1956 1955 1954 1953 1953 1952 1951 1951 1951 1951 1951 1950 1950 1949 1949 1948 1947 1947 1946 1945 1944 1943 1941 1940 1938 1937 1936 1935 1935 1933 1932 1930 1929 1928 1927 1925 1924 1921 1920 1918 1917 1915 1913 1911 1910 1907 1905 1905 1904 1904 1903 1901 1900 1896 1894 1888 1881 1866 1848 0 0 0 0 0 0 0 1287 1275 1275 1275 1275 1278 1279 1279 1279 1277 1272 1255 1240 1223 1212 1204 1199 1196 1193 1192 1192 1192 1191 1190 1186 1182 1175 1169 1166 1163 1159 1157 1154 1152 1151 1150 1147 1145 1142 1139 1137 1134 1133 1130 1128 1127 1125 1125 1124 1124 1124 1124 1125 1125 1126 1127 1129 1130 1130 1130 1129 1126 1122 1117 1112 1109 1105 1102 1100 1099 1097 1095 1094 1093 1093 1093 1093 1093 1093 1093 1093 1093 1093 1093 1093 1093 1093 1093 1093 1093 1094 1094 1096 1099 1100 1103 1104 1106 1107 1109 1111 1112 1114 1116 1118 1119 1121 1122 1122 1122 1122 1122 1124 1126 1126 1126 1127 1127 1128 1129 1129 1130
1483 1477 1477 1473 1469 1467 1467 1467 1475 1480 1483 1484 1484 1485 1486 1487 1487 1488 1488 1489 1491 1491 1491 1492 1492 1492 1492 1488 1488 1488 1490 1490 1490 1489 1489 1489 1493 1497 1501 1507 1514 1520 1523 1525 1528 1532 1535 1535 1537 1540 1540 1540 1540 1541 1541 1542 1544 1545 1551 1556 1558 1564 1569 1579 1602 1606 1639 1675 1700 0 0 1837 1864 1877 1885 1886 1887 1888 1888 1888 1886 1886 1886 1893 1893 1893 1891 1888 1888 1888 1894 1897 1902 1906 1914 1916 1916 1917 1918 1921 1926 1931 1935 1951 1962 1968 1972 1977 1981 1984 1984 1986 1989 1992 1994 1998 2000 2005 2007 2009 2011 2013 2015 2017 2020 2021 2022 2022 2023 2026 2028 2029 2030 2030 2030 2030 2030 2025 2025 2025 2029 2038 2046 2052 2057 2067 2089 2094 2138 2171 2213 2252 2269 2287 2292 2292 2292 2286 2286 2286 2286 2286 2287 2287 2287 2286 2286 2286 2287 2292 2296 2300 2302 2308 2314 2314 2315 2318 2318 2319 2321 2323 2327 2328 2328 2328 2329 2330 2335 2342 2348 2352 2355 2356 2356 2356 2353 2353 2353 2352 2352 2343 2339 2339 2339 2344 2353 2368 2378 2385 2387 2387 2387 2385 2385 2385 2385 2385 2385 2385 2388 2388 2388 2368 2332 0 0 2173 2156 2132 2122 2122 2122 2133 2145 2150 2156 2156 2156 2165 2168 2186 2186 2186 2181 2173 2172 2172 2172 2177 2177 2177 2177 2177 2191 2203 2203 2203 2196 2196 2196 2215 2231 2239 2239 2239 2239 2239 2243 2261 2265 2272 2276 2283 2284 2287 2290 2291 2291 2291 2291 2276 2276 2276 2278 2295 2322 2346 2346 2357 2395 2403 2403 2403 2401 2390 2390 2401 2404 2416 2424 2424 2424 2430 2430 2477 2518 2530 2562 2577 2590 2610 2635 2654 2670 2683 2690 2699 2710 2717 2734 2746 2750 2750 2751 2750 2750 2749 2748 2733 2705 2653 2532 0 0 2292 2267 2247 2234 2222 2216 2212 2208 2205 2199 2192 2184 2178 2173 2167 2161 2153 2145 2140 2135 2131 2126 2122 2117 2112 2107 2102 2098 2093 2089 2084 2080 2078 2074 2070 2065 2061 2058 2054 2051 2046 2044 2041 2039 2038 2036 2033 2031 2029 2027 2026 2024 2022 2021 2020 2019 2018 2016 2015 2013 2012 2010 2009 2007 2005 2003 2002 2000 1999 1998 1997 1995 1994 1993 1992 1991 1990 1990 1989 1988 1987 1986 1985 1985 1983 1982 1982 1980 1979 1978 1977 1976 1975 1974 1973 1971 1970 1968 1968 1967 1967 1967 1966 1966 1966 1965 1965 1963 1962 1961 1960 1959 1958 1956 1955 1954 1954 1953 1952 1952 1951 1951 1951 1951 1951 1951 1950 1949 1948 1947 1947 1946 1945 1944 1943 1942 1940 1938 1938 1937 1936 1935 1934 1932 1931 1930 1928 1927 1926 1924 1921 1920 1918 1917 1915 1913 1911 1910 1907 1905 1903 1903 1903 1903 1900 1899 1896 1889 1880 1869 1851 0 0 0 0 0 0 0 1302 1281 1274 1274 1274 1275 1277 1277 1277 1274 1270 1266 1250 1235 1219 1208 1201 1196 1193 1191 1190 1190 1189 1189 1187 1185 1182 1175 1168 1165 1161 1157 1154 1151 1150 1148 1147 1145 1142 1139 1137 1134 1132 1130 1128 1127 1125 1124 1123 1123 1123 1123 1123 1124 1125 1126 1127 1129 1130 1130 1130 1128 1125 1122 1117 1112 1109 1105 1102 1100 1098 1096 1093 1093 1092 1092 1092 1092 1092 1091 1091 1091 1091 1091 1091 1091 1091 1091 1092 1092 1093 1093 1094 1096 1098 1100 1103 1104 1106 1106 1108 1111 1112 1114 1116 1118 1119 1121 1121 1121 1121 1121 1121 1122 1122 1124 1124 1124 1124 1125 1128 1129 1130
1473 1470 1470 1466 1465 1463 1463 1463 1467 1473 1476 1480 1482 1482 1482 1484 1484 1484 1484 1485 1485 1485 1486 1486 1486 1486 1486 1482 1482 1482 1485 1485 1485 1485 1483 1483 1483 1486 1490 1493 1499 1505 1507 1513 1517 1524 1527 1527 1530 1535 1535 1535 1534 1534 1534 1535 1538 1543 1545 1547 1550 1558 1567 1574 1593 1604 1636 1655 1690 1713 0 0 1861 1870 1873 1880 1885 1888 1888 1888 1886 1886 1886 1893 1893 1893 1893 1890 1890 1890 1894 1897 1902 1906 1914 1916 1916 1917 1918 1921 1926 1931 1936 1949 1960 1961 1965 1971 1974 1977 1977 1980 1983 1985 1988 1991 1994 1996 2000 2004 2007 2007 2008 2010 2014 2014 2016 2017 2019 2021 2023 2023 2024 2024 2024 2024 2024 2022 2022 2022 2027 2034 2046 2052 2059 2076 2089 2093 2116 2161 2210 2251 2265 2280 2280 2280 2278 2275 2275 2275 2278 2281 2283 2284 2284 2284 2284 2284 2287 2292 2295 2299 2301 2303 2303 2304 2305 2305 2308 2309 2312 2317 2321 2321 2322 2322 2322 2325 2332 2341 2346 2347 2348 2349 2352 2352 2352 2352 2351 2350 2343 2337 2337 2337 2337 2342 2350 2363 2377 2380 2380 2380 2378 2378 2378 2380 2380 2380 2377 2377 2376 2376 2376 2361 2332 2325 0 0 2156 2132 2122 2122 2122 2133 2145 2154 2156 2156 2162 2166 2172 2186 2186 2186 2181 2174 2172 2172 2172 2179 2179 2179 2181 2181 2191 2199 2199 2199 2195 2195 2195 2237 2273 2295 2295 2295 2268 2259 2259 2259 2265 2272 2276 2280 2280 2281 2282 2283 2284 2283 2283 2276 2260 2260 2260 2286 2322 2346 2346 2357 2395 2410 2410 2411 2410 2410 2415 2415 2419 2453 2460 2460 2470 2470 2502 2535 2571 2577 2600 2615 2645 2659 2672 2687 2698 2710 2719 2728 2732 2736 2748 2752 2752 2752 2752 2752 2750 2749 2749 2735 2710 2675 2570 0 0 2292 2265 2247 2234 2222 2216 2210 2208 2203 2198 2189 2182 2178 2171 2167 2160 2153 2145 2138 2133 2129 2125 2121 2116 2111 2107 2102 2097 2093 2089 2084 2080 2078 2075 2071 2066 2062 2058 2054 2051 2046 2044 2042 2039 2038 2036 2033 2030 2029 2027 2026 2024 2022 2021 2020 2019 2018 2016 2015 2014 2012 2011 2009 2008 2005 2003 2002 2000 1999 1998 1997 1995 1994 1993 1992 1991 1990 1990 1990 1989 1988 1987 1986 1985 1984 1983 1982 1980 1980 1979 1978 1977 1975 1974 1973 1971 1971 1970 1968 1967 1967 1967 1966 1966 1966 1965 1965 1963 1962 1961 1960 1959 1958 1956 1956 1955 1954 1953 1952 1952 1952 1952 1951 1951 1951 1951 1950 1949 1948 1948 1947 1946 1945 1944 1943 1942 1940 1939 1938 1937 1937 1936 1934 1933 1932 1930 1929 1928 1926 1924 1922 1920 1919 1917 1915 1913 1912 1910 1907 1905 1903 1902 1902 1901 1900 1895 1890 1882 1875 1865 1844 0 0 0 0 0 0 0 1286 1273 1269 1269 1269 1272 1272 1272 1272 1269 1264 1259 1248 1231 1213 1205 1199 1193 1191 1188 1187 1186 1186 1185 1184 1183 1180 1172 1166 1163 1158 1155 1152 1149 1147 1145 1143 1141 1139 1136 1133 1131 1129 1127 1126 1124 1123 1122 1122 1121 1121 1121 1122 1123 1124 1124 1126 1129 1129 1129 1129 1128 1124 1122 1117 1112 1109 1105 1101 1099 1097 1095 1093 1093 1091 1091 1091 1091 1091 1090 1090 1090 1090 1090 1090 1089 1089 1089 1090 1091 1092 1093 1094 1096 1098 1100 1103 1104 1106 1106 1108 1109 1112 1114 1115 1117 1119 1120 1121 1121 1121 1120 1120 1120 1120 1120 1121 1122 1123 1124 1126 1129 1129
1469 1469 1469 1466 1463 1460 1460 1460 1462 1465 1469 1473 1475 1477 1478 1479 1479 1479 1479 1480 1480 1480 1480 1480 1479 1479 1477 1477 1477 1478 1481 1481 1481 1480 1480 1480 1480 1480 1481 1485 1489 1496 1503 1505 1510 1511 1516 1519 1522 1527 1528 1528 1527 1528 1528 1530 1534 1536 1537 1539 1543 1550 1566 1574 1584 1592 1616 1652 1667 1694 0 0 1842 1858 1867 1870 1876 1881 1881 1882 1882 1882 1888 1893 1893 1893 1893 1890 1890 1890 1894 1897 1901 1906 1907 1909 1910 1911 1912 1918 1925 1931 1936 1947 1953 1959 1960 1963 1967 1968 1970 1972 1977 1980 1980 1981 1982 1984 1991 1998 2000 2002 2003 2003 2004 2006 2009 2012 2015 2016 2017 2017 2018 2017 2017 2018 2018 2020 2020 2022 2027 2034 2041 2053 2059 2069 2089 2093 2116 2133 2208 2241 2255 2267 2267 2267 2264 2264 2264 2268 2272 2275 2279 2281 2281 2282 2282 2283 2286 2292 2294 2297 2300 2300 2300 2298 2297 2297 2297 2301 2305 2311 2312 2312 2312 2313 2314 2319 2329 2336 2338 2338 2341 2341 2341 2345 2345 2345 2345 2342 2338 2334 2334 2334 2334 2335 2341 2353 2372 2372 2372 2370 2370 2370 2375 2377 2377 2377 2370 2368 2367 2366 2364 2345 2338 2327 2301 0 0 2132 2122 2122 2122 2133 2145 2158 2167 2167 2168 2170 2173 2186 2186 2186 2181 2174 2172 2172 2172 2179 2182 2182 2185 2190 2199 2199 2199 2189 2189 2189 2201 2270 2286 2295 2295 2295 2280 2259 2259 2259 2265 2273 2273 2274 2276 2274 2276 2276 2273 2271 2269 2250 2231 2231 2231 2266 2298 2316 2330 2357 2393 2411 2416 2417 2417 2417 2417 2417 2425 2455 2477 2495 2495 2509 2549 2589 2602 2615 2635 2668 2676 2686 2701 2711 2716 2725 2732 2742 2745 2748 2753 2753 2753 2752 2752 2752 2751 2750 2750 2742 2714 2689 2578 0 0 2284 2264 2244 2234 2219 2216 2208 2203 2199 2195 2188 2181 2177 2171 2166 2160 2152 2145 2137 2131 2129 2124 2121 2116 2110 2106 2102 2097 2093 2089 2086 2082 2079 2075 2071 2068 2064 2059 2056 2052 2048 2044 2042 2040 2038 2036 2033 2030 2028 2027 2026 2024 2022 2021 2020 2019 2017 2016 2015 2014 2012 2011 2009 2008 2006 2003 2002 2000 1999 1998 1996 1995 1994 1993 1992 1991 1990 1990 1990 1989 1988 1987 1986 1985 1984 1983 1983 1981 1980 1979 1978 1977 1976 1975 1973 1971 1971 1970 1969 1968 1967 1967 1967 1967 1966 1966 1965 1963 1962 1962 1960 1960 1958 1957 1956 1955 1954 1954 1953 1952 1952 1952 1951 1951 1951 1951 1950 1949 1948 1948 1947 1946 1945 1944 1943 1942 1940 1939 1938 1937 1937 1936 1934 1933 1933 1931 1929 1929 1927 1924 1923 1922 1921 1918 1915 1914 1912 1910 1907 1904 1903 1902 1901 1901 1899 1893 1886 1879 1870 1860 1837 0 0 0 0 0 1347 1306 1273 1269 1269 1269 1269 1269 1269 1268 1267 1263 1259 1252 1242 1225 1207 1201 1196 1191 1188 1186 1184 1184 1183 1183 1182 1181 1176 1168 1165 1159 1156 1153 1149 1145 1144 1142 1140 1138 1136 1133 1130 1127 1125 1124 1123 1122 1121 1121 1121 1121 1121 1121 1121 1122 1123 1124 1125 1128 1128 1128 1128 1127 1123 1121 1117 1112 1109 1105 1101 1099 1097 1094 1093 1091 1090 1090 1090 1090 1090 1090 1089 1088 1088 1088 1088 1088 1088 1089 1089 1091 1092 1093 1094 1096 1098 1101 1103 1104 1106 1106 1107 1109 1110 1113 1114 1116 1118 1119 1119 1119 1119 1119 1118 1118 1118 1118 1118 1119 1121 1122 1125 1128 1128
1469 1469 1469 1466 1463 1458 1458 1458 1458 1461 1464 1467 1470 1471 1473 1475 1475 1475 1474 1474 1474 1477 1477 1477 1476 1476 1474 1474 1474 1474 1475 1476 1476 1476 1476 1476 1476 1476 1476 1477 1480 1487 1492 1495 1500 1503 1507 1511 1515 1523 1523 1523 1523 1524 1525 1528 1531 1533 1533 1534 1535 1537 1550 1563 1573 1592 1599 1623 1664 1691 1714 0 0 1835 1856 1859 1865 1873 1877 1878 1880 1882 1887 1892 1892 1892 1891 1889 1889 1889 1891 1893 1894 1897 1902 1904 1905 1907 1910 1916 1924 1931 1936 1942 1946 1953 1958 1961 1963 1963 1965 1967 1970 1971 1972 1972 1974 1980 1982 1990 1993 1996 1996 1997 1998 1998 2002 2006 2010 2011 2012 2012 2013 2013 2013 2013 2013 2015 2018 2022 2026 2034 2041 2053 2059 2083 2096 2099 2116 2133 2178 2198 2227 2244 2260 2260 2260 2260 2260 2265 2271 2273 2275 2275 2276 2276 2276 2278 2282 2286 2293 2297 2299 2299 2299 2297 2295 2295 2295 2295 2297 2301 2301 2302 2302 2302 2307 2314 2321 2327 2328 2328 2329 2329 2329 2334 2335 2336 2336 2336 2332 2329 2329 2328 2328 2329 2331 2345 2360 2363 2363 2363 2363 2363 2365 2371 2371 2371 2361 2357 2357 2357 2353 2340 2339 2338 2322 0 0 0 0 2139 2139 2142 2153 2164 2176 2176 2178 2180 2180 2183 2183 2183 2181 2174 2165 2163 2163 2165 2174 2182 2185 2190 2199 2199 2199 2189 2189 2189 2212 2270 2308 2308 2308 2295 2280 2259 2259 2259 2265 2272 2272 2272 2271 2270 2270 2270 2270 2267 2267 2246 2231 2231 2231 2266 2298 2316 2330 2356 2393 2411 2428 2436 2439 2439 2446 2448 2448 2465 2498 2542 2552 2589 2643 2659 2663 2673 2682 2683 2693 2703 2715 2725 2725 2725 2732 2742 2750 2754 2757 2757 2757 2753 2752 2752 2753 2750 2750 2746 2720 2690 2582 0 0 2284 2264 2242 2227 2217 2215 2206 2199 2194 2190 2186 2181 2175 2171 2165 2159 2151 2145 2136 2131 2127 2124 2120 2115 2110 2106 2102 2097 2093 2090 2086 2083 2079 2076 2073 2070 2065 2061 2057 2054 2050 2046 2042 2040 2038 2036 2033 2030 2028 2027 2026 2025 2023 2021 2020 2019 2018 2016 2015 2014 2012 2011 2009 2008 2006 2003 2002 2000 1999 1998 1996 1996 1994 1992 1992 1991 1990 1990 1990 1989 1989 1988 1987 1986 1985 1984 1983 1983 1981 1980 1979 1978 1977 1975 1974 1973 1972 1971 1970 1969 1968 1968 1968 1967 1966 1966 1965 1963 1962 1962 1960 1960 1958 1957 1956 1955 1955 1954 1953 1953 1952 1952 1952 1951 1951 1951 1950 1949 1948 1948 1947 1946 1946 1944 1943 1942 1940 1939 1938 1937 1937 1936 1934 1934 1933 1932 1931 1930 1927 1926 1925 1923 1922 1919 1917 1915 1913 1911 1907 1905 1903 1901 1901 1900 1896 1893 1881 1871 1860 1848 1826 0 0 0 0 0 1315 1282 1262 1262 1262 1264 1266 1266 1266 1266 1263 1259 1255 1250 1239 1222 1204 1198 1194 1190 1186 1183 1182 1182 1181 1179 1179 1179 1173 1167 1162 1157 1153 1150 1146 1143 1141 1139 1137 1134 1133 1130 1127 1125 1123 1123 1122 1120 1119 1119 1119 1119 1119 1120 1121 1122 1123 1123 1125 1127 1128 1128 1128 1126 1122 1118 1115 1112 1108 1105 1101 1099 1096 1094 1092 1090 1089 1089 1089 1089 1089 1089 1088 1087 1087 1087 1087 1087 1088 1088 1089 1090 1090 1092 1094 1096 1098 1101 1103 1104 1106 1106 1107 1108 1109 1111 1114 1115 1116 1118 1118 1118 1117 1116 1116 1116 1116 1116 1116 1118 1118 1120 1123 1126 1126
1468 1467 1467 1465 1462 1458 1456 1456 1456 1459 1462 1465 1467 1469 1471 1472 1472 1472 1472 1472 1472 1473 1473 1473 1473 1473 1471 1469 1469 1469 1469 1470 1472 1472 1472 1472 1472 1472 1472 1472 1472 1475 1480 1485 1488 1493 1498 1504 1510 1516 1518 1518 1520 1523 1525 1527 1530 1530 1533 1533 1533 1534 1534 1546 1562 1574 1588 1598 1625 1675 1710 0 0 1809 1846 1858 1862 1866 1872 1877 1880 1882 1886 1892 1892 1892 1891 1889 1888 1888 1888 1892 1893 1893 1894 1894 1896 1902 1909 1914 1919 1924 1930 1930 1937 1945 1951 1957 1958 1959 1961 1964 1965 1966 1966 1967 1968 1971 1976 1978 1983 1983 1983 1984 1984 1991 1997 2001 2005 2006 2008 2010 2010 2010 2010 2008 2008 2008 2014 2021 2026 2032 2041 2055 2068 2086 2096 2099 2125 2129 2149 2178 2185 2219 2240 2251 2252 2252 2256 2264 2269 2272 2272 2272 2271 2271 2271 2274 2278 2282 2287 2291 2294 2294 2294 2293 2291 2287 2287 2287 2288 2289 2289 2290 2290 2291 2296 2305 2313 2318 2319 2319 2319 2319 2320 2324 2329 2329 2329 2328 2326 2326 2326 2327 2327 2328 2328 2334 2345 2353 2353 2353 2352 2352 2352 2357 2357 2357 2353 2346 2343 2343 2335 2335 2334 2334 2334 2326 0 0 0 2151 2151 2151 2162 2176 2184 2186 2186 2186 2185 2181 2170 2167 2167 2164 2164 2163 2163 2164 2172 2182 2185 2190 2199 2199 2199 2207 2207 2207 2229 2270 2308 2308 2308 2298 2280 2252 2252 2252 2259 2266 2268 2268 2266 2266 2261 2261 2261 2259 2257 2245 2231 2231 2231 2266 2298 2316 2330 2356 2393 2421 2430 2438 2462 2485 2510 2522 2547 2560 2571 2573 2593 2644 2672 2685 2686 2686 2689 2690 2693 2708 2725 2725 2725 2729 2732 2742 2751 2757 2758 2758 2758 2758 2756 2753 2753 2753 2753 2753 2736 2703 2582 0 0 2284 2264 2242 2227 2217 2215 2206 2199 2194 2189 2184 2180 2175 2171 2162 2155 2147 2142 2136 2131 2127 2124 2119 2114 2110 2106 2102 2096 2092 2090 2086 2083 2079 2076 2073 2070 2067 2064 2059 2056 2052 2048 2044 2041 2038 2036 2033 2030 2028 2027 2026 2025 2024 2021 2020 2019 2018 2016 2015 2013 2012 2010 2009 2008 2006 2003 2002 2000 1999 1998 1996 1996 1994 1992 1991 1991 1991 1990 1990 1989 1989 1988 1987 1986 1986 1985 1984 1984 1983 1981 1980 1978 1977 1976 1975 1975 1973 1972 1971 1970 1969 1969 1969 1969 1968 1967 1965 1963 1962 1962 1960 1960 1958 1957 1956 1956 1955 1954 1954 1954 1953 1952 1951 1951 1951 1951 1950 1950 1948 1948 1947 1946 1946 1945 1943 1942 1940 1939 1938 1938 1937 1936 1934 1934 1934 1933 1932 1931 1929 1927 1925 1925 1922 1921 1918 1917 1915 1913 1908 1905 1903 1901 1901 1900 1896 1893 1881 1870 1850 1828 0 0 0 0 0 0 1293 1268 1255 1255 1255 1261 1262 1262 1262 1260 1257 1255 1251 1245 1235 1216 1203 1195 1191 1187 1184 1181 1180 1180 1180 1178 1177 1175 1170 1165 1160 1155 1151 1147 1144 1142 1139 1137 1134 1132 1130 1127 1125 1122 1121 1121 1121 1119 1119 1118 1118 1119 1119 1119 1120 1121 1123 1123 1125 1126 1126 1126 1126 1124 1121 1117 1114 1110 1107 1103 1100 1098 1096 1093 1090 1088 1088 1088 1088 1088 1088 1087 1086 1086 1086 1086 1086 1087 1087 1087 1088 1088 1090 1092 1094 1096 1098 1101 1103 1104 1106 1106 1107 1107 1109 1110 1112 1113 1115 1115 1115 1115 1115 1114 1113 1113 1113 1113 1114 1115 1115 1116 1120 1123 1124
1468 1467 1467 1465 1462 1455 1451 1451 1451 1457 1461 1464 1467 1467 1467 1468 1469 1469 1469 1469 1469 1469 1470 1470 1470 1470 1469 1466 1464 1463 1463 1463 1469 1469 1469 1469 1468 1468 1464 1464 1464 1466 1468 1474 1476 1482 1488 1495 1503 1511 1514 1514 1517 1520 1523 1526 1527 1530 1532 1532 1532 1533 1533 1536 1550 1564 1567 1578 1600 1648 1687 0 0 1778 1821 1854 1858 1862 1869 1876 1878 1882 1885 1890 1890 1890 1886 1886 1886 1886 1888 1891 1891 1892 1893 1894 1896 1898 1903 1909 1914 1917 1918 1923 1930 1940 1948 1953 1953 1956 1958 1958 1961 1963 1963 1963 1963 1963 1965 1965 1967 1968 1968 1971 1975 1982 1987 1993 1996 2001 2004 2004 2004 2004 2004 2002 2002 2002 2006 2019 2026 2034 2044 2067 2083 2100 2119 2123 2125 2128 2142 2144 2181 2215 2222 2236 2246 2250 2255 2261 2265 2266 2266 2266 2266 2266 2268 2270 2274 2277 2278 2280 2282 2282 2282 2282 2280 2279 2279 2279 2280 2280 2280 2280 2280 2282 2286 2293 2301 2306 2309 2310 2310 2312 2314 2318 2322 2322 2322 2322 2322 2322 2322 2326 2326 2327 2328 2329 2335 2341 2347 2347 2347 2343 2343 2343 2343 2342 2341 2330 2328 2327 2327 2327 2334 2334 2336 2336 2334 0 0 2171 2171 2171 2180 2198 2201 2202 2202 2201 2198 2181 2170 2155 2152 2151 2152 2152 2152 2157 2172 2176 2181 2185 2197 2212 2215 2222 2224 2224 2235 2266 2308 2308 2308 2297 2280 2251 2251 2251 2258 2258 2258 2253 2251 2249 2249 2251 2257 2257 2257 2245 2245 2245 2248 2268 2300 2321 2340 2357 2398 2435 2445 2457 2487 2508 2536 2583 2603 2610 2616 2616 2634 2659 2679 2692 2692 2692 2692 2692 2693 2711 2725 2725 2725 2729 2731 2741 2751 2757 2758 2758 2758 2758 2758 2758 2758 2758 2758 2758 2742 2704 2591 0 0 2288 2265 2242 2227 2217 2215 2206 2199 2194 2189 2184 2179 2175 2168 2161 2152 2145 2140 2136 2132 2127 2123 2118 2114 2109 2106 2101 2096 2092 2090 2086 2083 2079 2076 2073 2070 2067 2064 2059 2056 2052 2048 2044 2041 2039 2036 2033 2030 2029 2027 2026 2025 2024 2021 2020 2019 2018 2016 2015 2013 2012 2010 2008 2007 2005 2003 2002 1999 1998 1998 1996 1996 1994 1993 1991 1991 1990 1990 1989 1989 1989 1988 1988 1987 1987 1986 1985 1984 1983 1982 1980 1978 1978 1977 1976 1975 1974 1973 1972 1971 1971 1970 1970 1969 1969 1967 1966 1964 1963 1962 1961 1960 1959 1958 1957 1956 1955 1955 1954 1954 1953 1952 1952 1951 1951 1951 1950 1950 1948 1948 1947 1946 1946 1945 1943 1942 1941 1939 1939 1938 1937 1936 1935 1934 1934 1934 1933 1931 1930 1928 1926 1925 1924 1922 1921 1918 1916 1913 1910 1907 1903 1902 1901 1900 1896 1893 1881 1869 1844 1818 0 0 0 0 0 0 1280 1260 1249 1249 1249 1259 1259 1259 1255 1253 1250 1247 1245 1241 1230 1214 1203 1195 1189 1184 1182 1180 1179 1177 1176 1175 1174 1172 1168 1162 1159 1154 1150 1145 1142 1139 1136 1134 1131 1129 1127 1125 1123 1121 1121 1120 1119 1118 1118 1118 1118 1118 1118 1119 1120 1121 1122 1123 1125 1126 1126 1126 1124 1123 1120 1116 1113 1110 1106 1103 1100 1097 1095 1092 1089 1088 1088 1088 1088 1087 1087 1086 1086 1085 1085 1085 1085 1086 1086 1086 1087 1088 1090 1092 1094 1096 1098 1101 1103 1104 1106 1106 1106 1106 1107 1108 1110 1112 1113 1114 1114 1114 1114 1113 1112 1112 1112 1112 1113 1114 1115 1115 1118 1122 1124
1464 1464 1464 1463 1460 1453 1450 1450 1450 1456 1459 1461 1461 1462 1463 1463 1464 1464 1465 1465 1465 1465 1466 1466 1466 1466 1464 1462 1460 1460 1460 1460 1462 1462 1462 1461 1460 1459 1459 1459 1459 1459 1460 1463 1465 1472 1478 1485 1493 1500 1508 1508 1511 1513 1517 1518 1519 1525 1525 1525 1527 1528 1528 1528 1537 1551 1560 1566 1587 1613 1638 0 0 0 1782 1836 1855 1859 1868 1875 1878 1882 1883 1884 1884 1884 1884 1884 1884 1886 1888 1891 1891 1891 1893 1894 1895 1898 1900 1905 1909 1912 1917 1921 1929 1935 1942 1946 1947 1948 1952 1954 1957 1957 1957 1957 1954 1954 1954 1955 1958 1960 1961 1963 1967 1972 1978 1985 1989 1995 1996 1997 1997 1997 1997 1999 1999 2001 2006 2019 2026 2036 2046 2068 2097 2120 2133 2133 2136 2140 2144 2144 2176 2200 2203 2220 2233 2246 2253 2258 2258 2258 2260 2263 2263 2264 2266 2268 2269 2271 2271 2271 2271 2270 2269 2269 2269 2269 2270 2272 2274 2274 2274 2274 2275 2276 2278 2281 2286 2293 2299 2301 2302 2304 2308 2313 2318 2318 2318 2318 2318 2318 2320 2324 2325 2326 2326 2326 2328 2333 2339 2342 2342 2342 2341 2341 2340 2338 2333 2327 2323 2323 2323 2325 2334 2334 2335 2335 2334 2333 2298 2236 2208 2208 2208 2208 2208 2210 2208 2206 2203 2181 2170 2155 2151 2143 2143 2143 2152 2157 2172 2176 2176 2178 2196 2222 2226 2226 2227 2235 2236 2257 2293 2295 2295 2295 2276 2251 2251 2251 2255 2255 2255 2253 2251 2248 2248 2251 2257 2257 2257 2255 2255 2255 2266 2283 2311 2346 2363 2370 0 0 0 2497 2518 2537 2590 2628 2630 2634 2636 2636 2649 2668 2689 2695 2695 2695 2695 2695 2695 2711 2725 2725 2725 2729 2731 2741 2752 2757 2759 2759 2759 2759 2759 2760 2760 2762 2762 2762 2747 2707 2608 0 0 2294 2267 2249 2234 2233 2225 2208 2201 2195 2189 2183 2177 2174 2168 2160 2152 2145 2140 2136 2132 2129 2123 2118 2114 2109 2106 2101 2096 2092 2089 2086 2081 2078 2074 2072 2069 2067 2064 2059 2056 2052 2048 2044 2041 2039 2036 2033 2031 2029 2028 2027 2025 2024 2022 2020 2020 2019 2016 2015 2013 2011 2010 2008 2007 2005 2003 2001 1999 1998 1997 1996 1995 1994 1993 1991 1991 1990 1990 1989 1989 1989 1988 1988 1987 1987 1986 1985 1984 1983 1982 1980 1979 1978 1977 1976 1976 1975 1974 1973 1973 1972 1971 1971 1970 1970 1968 1967 1965 1963 1962 1961 1961 1960 1958 1957 1957 1956 1955 1955 1954 1953 1952 1952 1952 1951 1951 1950 1950 1948 1948 1947 1946 1946 1945 1943 1942 1941 1940 1939 1938 1937 1937 1936 1935 1935 1934 1933 1933 1931 1929 1928 1927 1925 1923 1921 1919 1918 1916 1912 1910 1906 1904 1901 1900 1896 1893 1881 1864 1837 0 0 0 0 0 0 0 1272 1254 1249 1249 1249 1255 1255 1255 1251 1247 1243 1241 1240 1235 1227 1214 1201 1194 1188 1184 1181 1179 1177 1176 1174 1174 1172 1170 1165 1160 1156 1152 1147 1144 1139 1136 1134 1131 1128 1126 1124 1122 1121 1120 1119 1119 1117 1117 1117 1117 1117 1118 1118 1119 1120 1121 1122 1123 1125 1125 1125 1125 1123 1121 1118 1116 1113 1109 1106 1102 1098 1097 1094 1091 1089 1087 1087 1087 1087 1086 1085 1084 1084 1084 1084 1085 1085 1085 1085 1085 1085 1087 1089 1091 1093 1096 1099 1101 1102 1104 1105 1105 1106 1106 1106 1107 1108 1111 1111 1111 1112 1112 1112 1112 1112 1111 1111 1111 1113 1113 1114 1114 1117 1121 1123
1463 1458 1458 1458 1452 1443 1443 1443 1449 1453 1454 1455 1457 1457 1458 1459 1460 1460 1461 1461 1461 1461 1460 1460 1460 1460 1460 1458 1456 1455 1455 1455 1455 1455 1452 1452 1452 1452 1452 1453 1453 1454 1454 1454 1459 1461 1468 1475 1482 1489 1495 1500 1501 1502 1508 1510 1510 1514 1517 1519 1521 1521 1524 1527 1530 1537 1551 1565 1572 1582 1605 0 0 0 0 1832 1833 1844 1859 1870 1878 1879 1879 1880 1882 1882 1882 1882 1882 1885 1887 1888 1889 1889 1890 1892 1894 1896 1900 1904 1908 1910 1917 1921 1926 1931 1937 1938 1939 1940 1942 1948 1953 1953 1953 1947 1945 1945 1945 1954 1956 1957 1960 1961 1961 1968 1975 1981 1985 1989 1990 1991 1994 1994 1995 1996 1996 2001 2006 2019 2026 2041 2063 2085 2101 2124 2133 2133 2136 2140 2144 2144 2159 2179 2191 2193 2215 2231 2246 2253 2253 2254 2254 2254 2260 2261 2262 2262 2264 2264 2264 2262 2259 2259 2259 2260 2261 2262 2264 2268 2269 2269 2269 2269 2270 2272 2272 2273 2275 2281 2289 2292 2295 2296 2299 2306 2311 2312 2312 2311 2311 2312 2314 2321 2322 2322 2322 2322 2323 2329 2333 2337 2337 2339 2340 2339 2338 2338 2332 2326 2323 2323 2323 2324 2326 2327 2330 2333 2333 2333 2317 2295 2254 2234 2231 2222 2221 2212 2212 2208 2203 2196 2174 2155 2151 2143 2143 2143 2152 2166 2175 2176 2176 2178 2190 2212 2227 2227 2228 2235 2238 2257 2285 2295 2295 2295 2275 2251 2248 2248 2248 2253 2253 2253 2251 2248 2248 2251 2257 2258 2261 2263 2264 2282 0 0 0 0 0 0 0 2549 2568 2576 2593 2614 2647 2649 2649 2650 2650 2650 2663 2679 2689 2695 2695 2696 2699 2699 2700 2711 2725 2725 2725 2727 2731 2741 2752 2757 2759 2759 2760 2760 2760 2760 2760 2768 2768 2768 2755 2714 2618 0 0 2297 2270 2251 2236 2233 2225 2219 2207 2200 2191 2182 2177 2171 2167 2160 2152 2145 2140 2139 2135 2129 2123 2118 2114 2109 2106 2101 2096 2092 2089 2085 2081 2077 2074 2070 2069 2065 2062 2059 2056 2052 2048 2045 2041 2039 2037 2034 2031 2030 2028 2027 2026 2024 2022 2022 2020 2019 2016 2014 2013 2011 2009 2008 2006 2004 2003 2001 1999 1998 1996 1996 1995 1994 1993 1991 1990 1990 1989 1989 1989 1989 1988 1988 1987 1987 1986 1986 1984 1983 1982 1981 1980 1979 1979 1977 1977 1975 1975 1974 1973 1972 1972 1971 1971 1970 1969 1968 1966 1965 1963 1962 1962 1961 1959 1958 1958 1957 1956 1955 1954 1953 1952 1952 1952 1952 1951 1950 1949 1948 1948 1947 1946 1945 1944 1943 1942 1941 1940 1940 1939 1938 1937 1936 1935 1935 1935 1934 1933 1931 1930 1929 1927 1926 1924 1922 1921 1918 1916 1912 1910 1908 1904 1901 1900 1896 1893 1881 1849 1818 0 0 0 0 0 0 1282 1262 1249 1247 1247 1247 1252 1252 1252 1248 1244 1240 1238 1236 1230 1224 1211 1200 1192 1187 1183 1181 1178 1175 1173 1173 1172 1170 1168 1163 1158 1154 1149 1145 1142 1137 1133 1130 1128 1127 1124 1122 1121 1120 1118 1117 1117 1117 1117 1117 1117 1117 1118 1118 1119 1120 1120 1121 1123 1125 1125 1125 1125 1122 1119 1117 1115 1112 1108 1105 1101 1098 1096 1093 1090 1089 1087 1087 1086 1086 1086 1084 1083 1083 1083 1083 1083 1083 1084 1084 1085 1085 1086 1088 1090 1093 1096 1099 1100 1102 1104 1105 1105 1105 1105 1106 1107 1107 1109 1109 1109 1109 1110 1110 1110 1109 1109 1109 1111 1112 1113 1113 1114 1117 1121 1123
1463 1456 1456 1447 1447 1442 1442 1442 1448 1449 1450 1450 1451 1454 1457 1458 1458 1458 1458 1457 1457 1457 1453 1453 1453 1453 1453 1453 1451 1450 1450 1449 1449 1447 1446 1446 1446 1446 1446 1447 1447 1447 1449 1449 1449 1452 1459 1464 1471 1476 1482 1487 1491 1495 1499 1500 1502 1508 1511 1512 1515 1517 1520 1521 1523 1524 1532 1552 1568 1580 1593 1621 0 0 0 0 1829 1840 1848 1863 1874 1875 1876 1878 1878 1880 1880 1880 1880 1881 1884 1885 1885 1886 1887 1888 1892 1894 1898 1902 1907 1909 1911 1915 1922 1926 1928 1930 1931 1933 1936 1944 1947 1947 1947 1942 1939 1939 1939 1949 1955 1956 1958 1958 1960 1967 1975 1979 1981 1984 1985 1990 1993 1993 1993 1995 1995 2001 2010 2024 2043 2054 2063 2090 2105 2129 2133 2133 2136 2140 2148 2148 2155 2174 2187 2188 2197 2218 2235 2243 2245 2246 2249 2252 2255 2256 2256 2256 2256 2256 2256 2254 2253 2253 2253 2257 2258 2261 2263 2265 2266 2266 2266 2266 2266 2267 2268 2269 2269 2273 2279 2283 2284 2284 2287 2295 2304 2304 2304 2303 2303 2303 2307 2309 2310 2312 2312 2316 2321 2326 2329 2331 2331 2334 2335 2336 2336 2336 2331 2326 2323 2320 2320 2320 2321 2325 2325 2328 2328 2328 2317 2317 2298 2273 2257 2233 2224 2213 2213 2212 2212 2212 2210 2177 2158 2150 2150 2150 2167 2178 2178 2178 2178 2178 2190 2207 2227 2228 2232 2236 2238 2257 2284 2286 2286 2286 2275 2256 2248 2248 2248 2248 2250 2250 2253 2253 2253 2270 2277 2279 2281 2282 0 0 0 0 0 2513 2522 2561 2596 2599 2600 2611 2627 2643 2654 2654 2654 2655 2655 2663 2672 2685 2692 2696 2702 2702 2702 2702 2705 2713 2725 2725 2727 2728 2738 2746 2755 2760 2760 2760 2761 2762 2767 2770 2774 2774 2774 2774 2766 2729 2633 0 0 2300 2271 2252 2236 2234 2226 2220 2214 2201 2191 2182 2176 2170 2167 2160 2155 2150 2146 2141 2135 2129 2122 2117 2114 2110 2106 2101 2097 2092 2089 2085 2081 2076 2073 2070 2067 2064 2060 2057 2054 2052 2049 2045 2042 2040 2037 2034 2032 2030 2030 2029 2026 2024 2022 2022 2020 2019 2016 2014 2012 2011 2009 2007 2006 2004 2003 2001 2000 1998 1996 1996 1995 1994 1993 1991 1990 1990 1989 1989 1989 1988 1988 1987 1987 1987 1986 1986 1984 1983 1982 1981 1980 1980 1979 1979 1977 1976 1975 1974 1974 1974 1972 1972 1971 1970 1969 1968 1967 1965 1965 1964 1963 1962 1961 1960 1959 1958 1957 1956 1955 1954 1953 1953 1952 1952 1951 1950 1949 1949 1949 1948 1946 1945 1944 1943 1942 1942 1941 1940 1939 1938 1937 1936 1936 1935 1935 1934 1933 1931 1930 1929 1927 1926 1925 1925 1923 1918 1916 1914 1911 1908 1904 1900 1897 1892 1887 1873 1838 1806 0 0 0 0 0 1284 1271 1255 1247 1244 1244 1244 1246 1246 1246 1244 1241 1238 1235 1233 1228 1221 1208 1198 1192 1185 1182 1179 1177 1174 1173 1172 1171 1169 1166 1162 1157 1152 1147 1142 1137 1134 1130 1128 1126 1125 1123 1121 1120 1118 1117 1116 1116 1116 1116 1116 1116 1117 1117 1118 1119 1120 1120 1121 1123 1125 1125 1125 1125 1122 1119 1117 1114 1110 1108 1104 1100 1097 1095 1092 1090 1089 1087 1086 1086 1086 1084 1083 1082 1082 1082 1082 1082 1083 1083 1083 1084 1085 1086 1088 1089 1092 1095 1098 1100 1102 1103 1103 1103 1103 1104 1104 1105 1106 1107 1107 1108 1108 1108 1108 1108 1108 1108 1108 1111 1111 1112 1112 1113 1117 1120 1120
1463 1455 1455 1443 1443 1442 1442 1442 1446 1446 1446 1446 1446 1449 1453 1454 1455 1455 1454 1453 1453 1450 1448 1448 1448 1447 1447 1446 1446 1445 1445 1445 1444 1444 1444 1444 1442 1442 1442 1442 1442 1442 1442 1442 1446 1447 1448 1452 1458 1463 1470 1476 1483 1487 1490 1494 1500 1502 1507 1509 1511 1514 1517 1519 1519 1522 1523 1544 1567 1578 1588 1597 0 0 0 0 0 1837 1844 1852 1869 1872 1873 1874 1874 1877 1877 1877 1878 1880 1880 1881 1883 1883 1884 1885 1889 1893 1895 1900 1904 1904 1905 1907 1911 1914 1918 1924 1929 1929 1929 1928 1927 1926 1922 1922 1922 1923 1932 1942 1949 1952 1953 1957 1960 1967 1972 1975 1977 1977 1981 1988 1989 1991 1992 1993 1993 2001 2010 2035 2043 2054 2063 2090 2113 2129 2133 2139 2139 2140 2148 2148 2151 2166 2183 2184 2196 2211 2224 2232 2235 2239 2244 2247 2250 2251 2251 2251 2248 2248 2248 2248 2248 2248 2249 2254 2258 2261 2262 2262 2263 2264 2264 2264 2264 2264 2263 2264 2264 2265 2270 2271 2272 2273 2276 2284 2293 2293 2293 2293 2293 2293 2295 2299 2301 2304 2305 2308 2315 2322 2324 2325 2326 2326 2328 2332 2332 2332 2326 2320 2319 2317 2317 2317 2318 2321 2321 2321 2320 2317 2317 2315 2311 2290 2273 2250 2224 2220 2216 2214 2212 2212 2211 2198 2186 2173 2173 2173 2188 2188 2188 2179 2179 2179 2185 2207 2228 2233 2233 2236 2245 2257 2277 2282 2282 2282 2275 2263 2256 2254 2254 2254 2258 2263 2265 2268 2270 2278 2285 2287 2297 0 0 0 0 0 2522 2580 2618 2624 2626 2626 2626 2635 2644 2654 2655 2655 2656 2659 2659 2669 2680 2686 2693 2696 2702 2706 2709 2711 2713 2719 2725 2727 2731 2734 2743 2755 2761 2763 2764 2764 2764 2767 2772 2778 2779 2783 2783 2783 2769 2752 2682 0 0 2301 2275 2252 2236 2234 2226 2220 2214 2202 2191 2183 2176 2170 2167 2162 2159 2154 2147 2141 2135 2129 2122 2117 2114 2113 2109 2104 2097 2092 2089 2085 2081 2076 2073 2070 2067 2064 2059 2056 2054 2052 2049 2046 2043 2040 2037 2034 2032 2031 2030 2029 2027 2024 2022 2022 2020 2019 2016 2014 2012 2011 2009 2007 2006 2004 2003 2001 2000 1999 1996 1996 1995 1994 1993 1992 1990 1990 1989 1989 1989 1988 1987 1987 1987 1987 1986 1985 1984 1983 1982 1981 1980 1980 1979 1979 1977 1976 1976 1975 1974 1974 1973 1972 1972 1971 1970 1969 1968 1967 1965 1965 1964 1963 1962 1961 1961 1960 1958 1957 1955 1954 1953 1953 1952 1952 1952 1951 1949 1949 1949 1948 1946 1945 1944 1944 1943 1943 1942 1941 1939 1938 1937 1936 1936 1935 1935 1934 1933 1931 1930 1929 1927 1926 1926 1925 1923 1920 1917 1915 1911 1908 1901 1895 1889 1883 1874 1860 1830 1806 0 0 0 0 0 1269 1254 1247 1241 1241 1241 1241 1242 1242 1242 1239 1238 1236 1233 1232 1227 1216 1205 1196 1190 1184 1180 1178 1175 1173 1171 1171 1170 1168 1164 1161 1157 1151 1146 1140 1136 1132 1128 1126 1125 1123 1121 1120 1119 1117 1116 1116 1116 1115 1115 1116 1116 1117 1117 1118 1119 1120 1120 1121 1123 1125 1125 1125 1125 1122 1119 1117 1113 1109 1106 1103 1099 1096 1095 1092 1089 1088 1086 1086 1085 1084 1084 1083 1082 1081 1081 1081 1081 1081 1082 1083 1084 1084 1086 1087 1088 1090 1093 1098 1099 1101 1102 1102 1102 1102 1103 1103 1104 1105 1105 1106 1106 1106 1106 1106 1106 1106 1106 1107 1108 1108 1109 1109 1111 1116 1116 1117
1463 1448 1448 1433 1433 1433 1433 1437 1438 1440 1440 1440 1440 1442 1445 1446 1447 1447 1446 1446 1446 1444 1444 1443 1442 1442 1441 1441 1441 1441 1441 1442 1442 1442 1442 1441 1439 1439 1439 1439 1439 1436 1436 1436 1438 1440 1442 1444 1445 1449 1452 1457 1467 1476 1482 1485 1488 1491 1499 1507 1508 1510 1512 1516 1516 1517 1518 1529 1554 1571 1574 1581 1595 0 0 0 0 1818 1844 1851 1860 1870 1870 1871 1871 1872 1873 1874 1875 1876 1877 1878 1879 1879 1881 1882 1884 1887 1892 1895 1897 1898 1898 1900 1905 1910 1914 1918 1918 1918 1916 1913 1911 1911 1908 1908 1908 1918 1928 1932 1939 1941 1944 1948 1953 1959 1965 1968 1971 1971 1977 1983 1984 1985 1988 1989 1991 1997 2010 2035 2043 2054 2059 2090 2118 2129 2133 2140 2140 2144 2148 2148 2151 2156 2159 2182 2190 2207 2216 2223 2230 2234 2238 2242 2243 2244 2244 2244 2244 2244 2244 2244 2244 2246 2247 2251 2255 2259 2259 2260 2261 2261 2262 2262 2262 2261 2261 2261 2261 2261 2263 2263 2264 2264 2268 2275 2287 2287 2287 2288 2288 2288 2291 2293 2295 2296 2298 2300 2306 2314 2318 2318 2318 2319 2320 2324 2324 2324 2316 2314 2314 2314 2314 2315 2318 2318 2318 2318 2315 2315 2315 2313 2313 2298 2276 2257 2255 2221 2219 2219 2212 2212 2212 2202 2200 2199 2198 2198 2198 2198 2195 2183 2183 2183 2185 2207 2227 2233 2235 2236 2250 2257 2258 2273 2275 2275 2275 2263 2262 2256 2256 2256 2258 2282 2293 2296 2296 2297 0 0 0 0 0 0 2522 2562 2589 2614 2625 2631 2636 2637 2642 2647 2655 2663 2663 2663 2663 2663 2665 2678 2687 2692 2695 2696 2703 2712 2720 2721 2722 2723 2726 2732 2735 2739 2748 2759 2766 2767 2768 2769 2769 2772 2775 2779 2784 2784 2784 2784 2774 2752 2704 2517 0 2301 2275 2253 2236 2234 2226 2220 2214 2203 2191 2183 2176 2170 2167 2163 2159 2154 2147 2141 2135 2129 2122 2118 2114 2113 2110 2104 2097 2092 2089 2085 2081 2076 2073 2070 2067 2064 2059 2056 2053 2051 2049 2046 2044 2041 2037 2034 2033 2031 2030 2029 2027 2024 2022 2022 2020 2018 2016 2014 2012 2010 2009 2007 2005 2004 2003 2003 2001 2000 1998 1997 1995 1995 1993 1992 1990 1990 1990 1989 1989 1988 1987 1987 1987 1986 1986 1985 1984 1983 1982 1981 1981 1980 1980 1979 1978 1977 1976 1976 1975 1974 1974 1974 1973 1973 1972 1971 1970 1968 1967 1966 1965 1965 1963 1962 1961 1960 1960 1958 1956 1956 1954 1954 1954 1953 1952 1951 1949 1949 1949 1948 1948 1946 1946 1945 1944 1943 1943 1941 1939 1938 1938 1936 1936 1935 1934 1934 1932 1931 1930 1929 1927 1927 1926 1926 1923 1920 1919 1915 1911 1904 1900 1895 1886 1871 1861 1849 1828 0 0 0 0 0 0 1268 1247 1239 1238 1238 1238 1238 1238 1238 1237 1236 1235 1234 1233 1230 1226 1216 1205 1195 1188 1183 1179 1176 1174 1171 1170 1170 1169 1166 1162 1158 1154 1150 1144 1139 1135 1130 1128 1126 1123 1122 1120 1118 1117 1116 1116 1115 1115 1115 1115 1115 1116 1117 1118 1118 1119 1120 1121 1123 1124 1125 1125 1125 1125 1123 1121 1117 1113 1109 1105 1101 1098 1095 1093 1090 1087 1087 1086 1085 1084 1084 1083 1082 1082 1081 1081 1081 1081 1081 1081 1082 1083 1084 1085 1086 1087 1089 1091 1096 1096 1099 1099 1100 1100 1100 1100 1102 1103 1103 1103 1105 1105 1105 1104 1104 1104 1104 1104 1104 1106 1106 1107 1107 1108 1109 1111 1112
1447 1434 1434 1425 1425 1425 1428 1430 1431 1432 1433 1434 1435 1437 1438 1438 1438 1438 1438 1437 1437 1437 1438 1438 1438 1438 1435 1434 1434 1434 1437 1437 1438 1438 1438 1437 1437 1436 1436 1436 1434 1432 1432 1432 1432 1435 1437 1437 1439 1439 1443 1447 1454 1461 1467 1472 1477 1479 1485 1502 1506 1508 1511 1515 1515 1515 1516 1517 1533 1551 1557 1567 1579 0 0 0 0 1797 1831 1849 1857 1868 1868 1868 1868 1868 1868 1869 1870 1872 1873 1876 1877 1877 1877 1877 1878 1879 1880 1883 1884 1886 1887 1891 1897 1902 1905 1906 1912 1912 1912 1907 1906 1902 1902 1902 1907 1912 1920 1928 1935 1936 1937 1940 1945 1952 1956 1960 1961 1961 1966 1970 1974 1977 1984 1987 1988 1997 2010 2035 2040 2043 2053 2090 2118 2137 2142 2146 2146 2146 2139 2139 2133 2133 2133 2169 2184 2202 2214 2221 2222 2224 2228 2232 2232 2235 2235 2235 2235 2235 2237 2240 2240 2241 2243 2247 2252 2255 2255 2256 2256 2256 2260 2260 2260 2260 2259 2259 2259 2259 2259 2260 2260 2260 2266 2273 2280 2282 2284 2284 2284 2286 2290 2291 2291 2293 2294 2296 2301 2307 2309 2309 2310 2310 2313 2318 2318 2318 2315 2313 2313 2313 2313 2315 2316 2317 2317 2317 2315 2315 2315 2318 2318 2318 2314 2302 2287 2254 2237 2226 2224 2221 2214 2204 2204 2204 2204 2204 2204 2199 2198 2189 2189 2189 2190 2202 2218 2230 2231 2235 2250 2251 2256 2271 2275 2275 2275 2275 2269 2261 2259 2259 2259 2282 2295 2296 2298 0 0 0 0 0 2541 2577 2590 2597 2610 2621 2631 2632 2638 2642 2649 2654 2663 2669 2671 2671 2671 2673 2676 2684 2687 2692 2697 2700 2707 2716 2725 2725 2726 2728 2728 2732 2735 2741 2751 2763 2772 2773 2773 2774 2774 2775 2776 2780 2786 2789 2789 2789 2782 2760 2704 2518 0 2311 2275 2253 2241 2238 2227 2220 2212 2203 2195 2185 2176 2170 2167 2164 2160 2154 2147 2141 2134 2129 2123 2118 2114 2113 2110 2104 2097 2092 2089 2085 2081 2076 2073 2070 2068 2065 2059 2056 2053 2051 2048 2046 2044 2041 2037 2034 2033 2032 2030 2029 2027 2024 2023 2022 2020 2018 2016 2014 2012 2010 2009 2007 2005 2004 2003 2003 2001 2000 1998 1997 1996 1995 1993 1992 1991 1991 1990 1989 1989 1987 1987 1987 1986 1986 1985 1985 1984 1983 1983 1982 1981 1980 1980 1979 1978 1977 1977 1976 1976 1976 1975 1975 1975 1975 1974 1972 1971 1969 1969 1968 1968 1966 1965 1964 1963 1962 1960 1959 1957 1957 1956 1955 1954 1954 1952 1951 1950 1949 1949 1948 1948 1948 1947 1945 1945 1944 1943 1942 1941 1940 1939 1937 1936 1935 1934 1933 1932 1931 1929 1928 1927 1927 1927 1927 1925 1920 1919 1918 1911 1903 1896 1893 1882 1870 1852 1831 1810 0 0 0 0 0 0 1259 1243 1236 1236 1236 1237 1237 1237 1237 1235 1234 1232 1231 1229 1227 1224 1215 1205 1195 1187 1181 1177 1175 1173 1170 1169 1167 1167 1164 1160 1155 1152 1147 1141 1137 1133 1129 1127 1125 1122 1121 1119 1118 1117 1116 1116 1115 1115 1115 1115 1115 1116 1117 1118 1118 1119 1121 1122 1123 1125 1125 1125 1125 1125 1123 1121 1116 1113 1107 1104 1099 1096 1093 1090 1088 1086 1084 1084 1084 1083 1083 1083 1082 1081 1080 1080 1080 1080 1081 1081 1082 1082 1083 1084 1085 1086 1088 1090 1091 1094 1096 1096 1098 1098 1099 1100 1101 1102 1102 1102 1102 1103 1103 1103 1102 1102 1101 1101 1101 1102 1104 1105 1105 1105 1106 1107 1109
1429 1419 1419 1419 1419 1419 1422 1424 1426 1428 1428 1429 1434 1434 1434 1434 1431 1431 1431 1430 1431 1431 1430 1430 1430 1429 1428 1426 1426 1426 1430 1432 1432 1432 1432 1432 1432 1432 1432 1432 1430 1428 1426 1426 1426 1426 1428 1430 1430 1433 1433 1440 1444 1446 1453 1457 1462 1467 1474 1484 1500 1508 1511 1513 1513 1513 1513 1513 1517 1532 1545 1548 1561 1580 0 0 0 0 1831 1848 1855 1863 1865 1865 1865 1865 1865 1866 1866 1868 1870 1874 1874 1874 1873 1873 1873 1873 1873 1874 1875 1876 1879 1884 1891 1895 1897 1897 1901 1904 1904 1904 1900 1899 1899 1899 1904 1907 1914 1922 1928 1931 1933 1936 1940 1946 1949 1950 1951 1951 1954 1963 1969 1973 1973 1975 1984 1997 2010 2027 2028 2032 2053 2090 2118 2138 2150 2150 2150 2149 2139 2134 2127 2127 2127 2145 2155 2181 2197 2210 2211 2212 2213 2216 2218 2220 2221 2221 2222 2224 2230 2236 2236 2237 2240 2244 2247 2251 2251 2251 2252 2252 2254 2255 2255 2255 2255 2255 2255 2257 2257 2258 2258 2258 2265 2272 2275 2276 2278 2278 2280 2283 2285 2287 2290 2291 2292 2294 2300 2304 2304 2304 2305 2305 2307 2313 2314 2314 2314 2313 2313 2313 2313 2316 2316 2317 2317 2317 2315 2315 2315 2318 2318 2318 2315 2311 2310 2292 2289 2279 2266 2245 2217 2206 2206 2206 2206 2205 2205 2204 2204 2196 2192 2192 2192 2201 2216 2231 2241 2246 2247 2250 2255 2271 2278 2284 2284 2284 2270 2261 2261 2261 2263 2289 2317 0 0 0 0 0 0 2517 2543 2604 2607 2613 2618 2627 2632 2638 2639 2648 2650 2658 2664 2669 2672 2673 2675 2678 2679 2685 2687 2692 2697 2702 2707 2716 2725 2728 2732 2732 2733 2733 2737 2742 2751 2765 2777 2777 2777 2779 2779 2779 2785 2786 2788 2793 2793 2793 2782 2761 2704 2518 0 0 2272 2253 2247 2238 2231 2220 2212 2204 2196 2189 2181 2176 2170 2165 2161 2155 2147 2140 2133 2128 2124 2119 2114 2112 2110 2104 2097 2092 2088 2085 2081 2076 2073 2071 2068 2065 2061 2057 2054 2051 2048 2046 2044 2041 2037 2034 2033 2032 2031 2029 2027 2025 2023 2022 2020 2018 2016 2014 2012 2011 2009 2007 2006 2005 2004 2003 2001 2000 1999 1998 1996 1995 1994 1993 1991 1991 1990 1989 1989 1987 1987 1987 1986 1986 1985 1985 1985 1984 1983 1982 1981 1981 1981 1981 1980 1979 1978 1977 1977 1976 1976 1976 1975 1975 1974 1973 1971 1971 1970 1969 1969 1967 1966 1965 1965 1963 1962 1961 1959 1958 1958 1956 1955 1954 1953 1951 1950 1950 1949 1949 1948 1948 1947 1946 1945 1944 1943 1942 1941 1940 1939 1938 1936 1935 1934 1933 1931 1930 1929 1928 1927 1927 1927 1927 1927 1921 1919 1918 1911 1903 1896 1890 1880 1864 1838 1815 0 0 0 0 0 0 1285 1250 1237 1234 1234 1234 1237 1237 1237 1235 1233 1231 1229 1228 1226 1224 1221 1214 1204 1194 1186 1180 1176 1173 1171 1169 1167 1165 1164 1161 1157 1153 1149 1144 1139 1136 1131 1128 1126 1124 1122 1120 1119 1117 1117 1115 1115 1115 1115 1115 1115 1115 1116 1117 1118 1119 1119 1121 1124 1125 1126 1126 1126 1126 1125 1123 1121 1116 1111 1107 1103 1098 1094 1091 1090 1087 1085 1084 1084 1084 1082 1082 1082 1081 1081 1080 1080 1080 1080 1081 1081 1081 1082 1082 1083 1084 1085 1087 1088 1089 1091 1094 1095 1096 1097 1098 1100 1100 1101 1101 1101 1101 1100 1100 1100 1100 1100 1100 1100 1100 1100 1102 1104 1104 1105 1105 1107 1109
1418 1410 1412 1412 1412 1416 1417 1421 1425 1425 1425 1429 1434 1434 1434 1428 1427 1424 1424 1424 1423 1423 1423 1423 1423 1423 1423 1422 1422 1422 1422 1425 1425 1425 1422 1422 1422 1428 1428 1428 1426 1424 1422 1421 1418 1418 1418 1420 1422 1425 1426 1429 1429 1430 1430 1439 1446 1451 1459 1478 1489 1498 1506 1508 1509 1509 1512 1512 1513 1518 1528 1537 1550 1576 0 0 0 0 1825 1848 1855 1862 1862 1862 1863 1863 1863 1864 1865 1865 1867 1870 1870 1870 1870 1869 1868 1868 1868 1869 1869 1871 1874 1878 1883 1891 1891 1892 1894 1895 1895 1895 1894 1894 1894 1899 1901 1904 1911 1917 1924 1927 1930 1934 1939 1943 1946 1948 1948 1950 1954 1962 1969 1972 1972 1975 1984 1997 2014 2025 2027 2032 2053 2090 2116 2138 2150 2150 2150 2149 2140 2127 2108 2108 2108 2108 2137 2150 2180 2199 2199 2199 2202 2202 2202 2205 2205 2206 2209 2215 2223 2227 2231 2232 2236 2239 2243 2245 2246 2246 2247 2248 2248 2249 2249 2249 2249 2249 2251 2254 2255 2255 2257 2258 2263 2269 2271 2271 2271 2272 2274 2276 2280 2282 2284 2288 2290 2294 2298 2302 2303 2303 2303 2303 2304 2308 2313 2313 2313 2313 2313 2313 2313 2316 2317 2317 2327 2327 2327 2326 2326 2324 2323 2324 2324 2324 2324 2324 2319 2315 2312 2308 2276 2235 2226 2224 2220 2220 2217 2217 2217 2216 2216 2207 2207 2207 2215 2231 2250 2250 2250 2251 2256 2271 2278 2287 2287 2287 2271 2266 2266 2266 2268 2297 0 0 0 0 0 2518 2567 2610 2610 2610 2614 2614 2620 2628 2632 2648 2653 2658 2660 2662 2665 2670 2672 2673 2675 2678 2681 2685 2687 2692 2697 2702 2707 2716 2725 2728 2736 2736 2737 2738 2739 2743 2754 2768 2778 2778 2778 2779 2779 2781 2786 2793 2802 2809 2809 2809 2797 2752 2693 2518 0 0 2269 2253 2250 2239 2234 2221 2212 2207 2200 2190 2182 2177 2174 2169 2161 2155 2147 2138 2132 2128 2124 2120 2115 2112 2108 2102 2097 2092 2088 2085 2081 2077 2073 2071 2068 2065 2062 2057 2054 2051 2048 2046 2043 2040 2037 2035 2033 2032 2031 2030 2028 2026 2025 2022 2020 2018 2016 2014 2012 2011 2010 2008 2006 2005 2004 2003 2001 2000 1999 1998 1996 1995 1994 1993 1992 1991 1990 1990 1989 1987 1987 1986 1986 1986 1986 1985 1985 1984 1983 1982 1981 1981 1981 1981 1980 1979 1979 1978 1978 1978 1977 1976 1976 1975 1974 1974 1973 1972 1971 1970 1969 1969 1968 1966 1966 1964 1963 1962 1960 1960 1959 1958 1957 1955 1954 1953 1952 1950 1950 1949 1949 1948 1947 1947 1946 1945 1944 1942 1941 1940 1939 1938 1936 1935 1934 1933 1931 1930 1930 1928 1927 1927 1927 1927 1927 1921 1919 1918 1909 1903 1896 1888 1878 1860 1821 1795 0 0 0 0 0 0 1269 1239 1231 1231 1231 1234 1236 1236 1236 1233 1231 1229 1227 1225 1223 1221 1217 1213 1200 1193 1183 1179 1175 1172 1169 1167 1165 1164 1161 1158 1154 1151 1146 1142 1137 1134 1130 1128 1125 1123 1121 1120 1119 1117 1117 1115 1115 1115 1115 1115 1115 1116 1116 1117 1118 1119 1120 1121 1124 1126 1127 1128 1128 1128 1126 1123 1121 1116 1111 1107 1102 1097 1093 1090 1088 1087 1085 1084 1084 1082 1081 1081 1081 1080 1080 1080 1080 1079 1079 1079 1080 1080 1080 1082 1083 1084 1085 1086 1086 1088 1089 1092 1093 1094 1095 1097 1099 1100 1100 1100 1098 1098 1098 1098 1098 1098 1097 1098 1098 1098 1099 1102 1102 1103 1104 1105 1107 1108
1409 1403 1407 1407 1407 1412 1414 1419 1422 1423 1425 1427 1432 1432 1432 1427 1421 1421 1419 1418 1418 1417 1417 1417 1418 1418 1418 1418 1415 1415 1415 1418 1418 1418 1416 1416 1416 1421 1421 1421 1420 1418 1416 1413 1410 1409 1409 1409 1410 1415 1419 1419 1419 1422 1425 1431 1434 1437 1443 1459 1477 1484 1487 1493 1496 1502 1502 1504 1510 1515 1524 1533 1547 1574 0 0 0 0 1825 1848 1855 1858 1859 1859 1859 1861 1863 1863 1864 1864 1866 1866 1867 1867 1867 1865 1864 1864 1864 1864 1866 1867 1871 1875 1882 1887 1890 1891 1891 1892 1892 1892 1891 1887 1887 1887 1890 1899 1908 1914 1919 1922 1929 1934 1938 1940 1944 1947 1948 1950 1954 1962 1969 1972 1972 1975 1984 1998 2015 2025 2027 2032 2063 2090 2114 2137 2150 2150 2150 2149 2140 2123 2092 2092 2092 2099 2113 2133 2168 2191 2191 2191 2192 2192 2192 2196 2196 2198 2202 2210 2215 2221 2225 2229 2235 2239 2240 2240 2241 2242 2242 2243 2243 2242 2242 2240 2240 2240 2244 2248 2252 2252 2254 2258 2263 2265 2267 2268 2268 2268 2268 2270 2273 2278 2282 2283 2287 2292 2296 2299 2302 2302 2302 2303 2303 2303 2309 2311 2311 2311 2312 2314 2323 2324 2324 2324 2327 2329 2329 2330 2330 2330 2332 2332 2335 2340 2343 2344 2349 2349 2349 2349 2344 2313 2288 2240 2236 2232 2232 2232 2232 2232 2226 2213 2213 2213 2215 2246 2250 2250 2250 2251 2256 2286 2288 2297 2297 2288 2285 2285 2285 2287 2298 2373 0 0 0 0 2531 2563 2592 2611 2616 2616 2618 2618 2627 2637 2643 2648 2654 2659 2660 2663 2666 2670 2670 2672 2675 2678 2682 2685 2687 2692 2697 2706 2708 2714 2720 2728 2737 2742 2743 2746 2746 2751 2760 2774 2779 2779 2779 2780 2780 2783 2788 2794 2804 2815 2815 2815 2805 2752 2687 2498 0 0 2269 2253 2252 2246 2237 2224 2217 2211 2205 2195 2187 2179 2175 2170 2164 2155 2147 2138 2132 2128 2124 2120 2117 2112 2108 2102 2097 2093 2089 2085 2081 2077 2073 2071 2068 2065 2062 2058 2054 2051 2048 2046 2043 2040 2037 2035 2033 2032 2031 2030 2029 2028 2025 2023 2020 2018 2016 2014 2013 2011 2011 2010 2007 2005 2005 2003 2001 2000 1999 1998 1997 1995 1994 1993 1993 1992 1991 1990 1989 1987 1987 1986 1986 1985 1985 1985 1985 1984 1983 1982 1982 1981 1981 1981 1980 1980 1980 1980 1979 1978 1978 1978 1977 1976 1976 1974 1973 1972 1971 1970 1970 1969 1969 1968 1966 1965 1964 1964 1963 1962 1960 1958 1957 1956 1955 1953 1952 1952 1950 1949 1949 1948 1947 1947 1946 1945 1944 1942 1941 1941 1939 1939 1937 1935 1934 1933 1931 1930 1930 1930 1928 1928 1928 1928 1928 1921 1917 1912 1906 1898 1891 1881 1867 1819 1816 1765 0 0 0 0 0 0 1254 1234 1228 1228 1228 1232 1232 1232 1232 1231 1230 1228 1226 1223 1221 1219 1215 1212 1199 1187 1180 1176 1173 1170 1167 1165 1163 1161 1159 1155 1152 1148 1143 1140 1135 1133 1130 1126 1124 1122 1120 1119 1119 1117 1117 1115 1115 1115 1115 1115 1115 1116 1117 1118 1119 1119 1121 1122 1125 1128 1130 1130 1130 1128 1127 1123 1120 1116 1111 1106 1102 1096 1092 1090 1088 1086 1084 1084 1083 1082 1081 1081 1080 1080 1080 1079 1079 1079 1079 1079 1079 1080 1080 1082 1083 1084 1084 1084 1085 1086 1088 1090 1091 1093 1094 1096 1098 1098 1098 1098 1097 1096 1096 1096 1096 1095 1095 1095 1096 1097 1097 1099 1099 1100 1102 1104 1104 1107
1408 1403 1406 1406 1406 1409 1411 1416 1419 1421 1422 1426 1432 1432 1432 1427 1419 1415 1414 1414 1414 1413 1413 1413 1413 1413 1413 1413 1410 1410 1410 1411 1411 1411 1411 1411 1411 1415 1415 1415 1414 1412 1409 1406 1403 1402 1402 1402 1405 1407 1413 1415 1416 1417 1423 1425 1427 1427 1429 1440 1454 1466 1468 1471 1474 1482 1491 1498 1504 1509 1516 1528 1544 0 0 0 0 0 1824 1848 1855 1857 1857 1857 1858 1860 1861 1861 1861 1862 1862 1862 1862 1862 1862 1861 1861 1861 1861 1861 1863 1864 1868 1872 1879 1881 1883 1885 1886 1889 1889 1889 1888 1885 1885 1885 1889 1897 1906 1913 1916 1922 1927 1933 1935 1938 1941 1944 1945 1946 1954 1962 1969 1971 1972 1978 1991 2002 2015 2025 2031 2043 2069 2090 2110 2136 2142 2143 2143 2142 2140 2123 2089 2088 2088 2088 2108 2127 2153 2186 2186 2186 2186 2186 2187 2193 2193 2196 2198 2206 2212 2216 2222 2227 2233 2233 2234 2236 2236 2236 2237 2238 2237 2237 2237 2235 2235 2235 2239 2243 2246 2251 2253 2258 2263 2264 2264 2266 2266 2266 2268 2270 2271 2274 2277 2280 2283 2289 2292 2295 2298 2300 2301 2301 2302 2302 2305 2308 2310 2311 2317 2321 2324 2324 2324 2325 2328 2329 2330 2333 2337 2337 2338 2338 2345 2352 2352 2352 2355 2356 2363 2363 2363 2336 2294 2269 0 0 0 0 0 0 0 0 0 0 0 0 0 0 0 0 0 0 0 0 0 0 0 0 0 0 0 2445 2495 2524 2539 2553 2567 2584 2598 2613 2619 2620 2620 2624 2633 2644 2652 2656 2657 2660 2663 2667 2668 2669 2670 2671 2675 2678 2682 2686 2687 2692 2697 2706 2710 2714 2720 2728 2737 2744 2749 2751 2756 2762 2770 2778 2779 2779 2779 2779 2780 2786 2789 2794 2806 2815 2815 2815 2805 2752 2641 0 0 2293 2267 2257 2256 2249 2240 2231 2220 2213 2205 2196 2188 2183 2178 2173 2165 2155 2147 2138 2132 2128 2124 2121 2117 2113 2108 2102 2098 2093 2088 2084 2081 2077 2073 2070 2067 2064 2062 2059 2056 2052 2049 2046 2043 2040 2037 2035 2033 2032 2031 2030 2029 2028 2026 2023 2021 2020 2017 2015 2014 2012 2011 2010 2009 2008 2005 2003 2001 2001 2001 1999 1997 1995 1994 1993 1993 1992 1991 1990 1989 1988 1987 1986 1986 1985 1985 1985 1985 1984 1984 1982 1982 1982 1982 1981 1980 1980 1980 1980 1979 1978 1978 1978 1977 1976 1976 1975 1973 1973 1972 1970 1970 1970 1970 1968 1967 1966 1965 1965 1963 1962 1961 1959 1957 1956 1955 1954 1952 1952 1951 1950 1949 1948 1947 1947 1946 1945 1944 1942 1941 1941 1940 1939 1937 1936 1934 1933 1931 1931 1931 1930 1928 1928 1927 1927 1927 1917 1912 1911 1904 1893 0 0 0 0 0 0 0 0 0 0 0 1271 1248 1234 1227 1227 1227 1230 1230 1230 1230 1230 1229 1227 1224 1222 1219 1216 1215 1209 1198 1187 1180 1174 1170 1168 1167 1164 1162 1159 1157 1154 1151 1146 1142 1138 1135 1132 1128 1126 1124 1121 1120 1119 1118 1117 1117 1115 1115 1115 1115 1115 1115 1116 1117 1118 1119 1120 1121 1124 1127 1129 1131 1131 1131 1129 1127 1123 1120 1115 1111 1106 1101 1096 1092 1089 1088 1086 1084 1083 1082 1081 1080 1080 1080 1080 1079 1079 1079 1079 1079 1079 1079 1079 1080 1081 1081 1081 1082 1082 1083 1085 1087 1090 1091 1093 1094 1096 1097 1097 1097 1097 1096 1095 1094 1093 1093 1093 1094 1094 1094 1094 1094 1095 1095 1097 1098 1100 1100 1104
1407 1401 1406 1406 1406 1408 1410 1411 1415 1416 1418 1424 1432 1432 1432 1427 1416 1409 1409 1409 1409 1409 1406 1406 1406 1406 1406 1406 1407 1407 1407 1407 1407 1407 1407 1407 1408 1408 1409 1409 1409 1406 1403 1400 1398 1398 1398 1401 1405 1406 1410 1412 1414 1416 1420 1420 1421 1422 1424 1429 1439 1448 1452 1456 1463 1467 1478 1490 1496 1498 1505 1513 1522 0 0 0 0 0 0 1847 1855 1855 1855 1855 1857 1860 1860 1860 1859 1858 1858 1857 1857 1857 1857 1857 1857 1858 1858 1859 1859 1860 1861 1867 1871 1874 1876 1878 1880 1880 1883 1883 1883 1882 1882 1882 1884 1894 1903 1910 1916 1921 1926 1928 1933 1938 1941 1942 1943 1946 1954 1963 1969 1971 1972 1983 1992 2003 2015 2028 2040 2052 2072 2090 2110 2123 2134 2135 2135 2135 2135 2123 2089 2077 2077 2077 2102 2117 2146 2174 2176 2177 2178 2178 2186 2192 2192 2192 2194 2199 2206 2210 2216 2220 2223 2223 2226 2226 2226 2229 2231 2232 2233 2233 2233 2232 2232 2232 2235 2237 2240 2246 2250 2258 2261 2262 2263 2264 2265 2266 2266 2269 2271 2272 2275 2278 2280 2285 2288 2288 2291 2295 2297 2298 2298 2299 2302 2305 2308 2312 2317 2323 2325 2326 2327 2327 2329 2331 2333 2337 2340 2342 2342 2345 2353 2360 2362 2362 2364 2364 2364 2365 2365 2365 2342 2342 0 0 0 0 0 0 0 0 0 0 0 0 0 0 0 0 0 0 0 0 0 0 0 0 0 0 0 2495 2522 2542 2554 2565 2578 2595 2606 2613 2619 2621 2623 2634 2641 2650 2654 2656 2657 2660 2664 2667 2669 2669 2669 2670 2673 2678 2683 2686 2689 2695 2710 2711 2711 2714 2720 2728 2737 2744 2750 2752 2757 2762 2771 2778 2779 2779 2779 2779 2781 2787 2789 2794 2808 2815 2815 2815 2805 2749 2638 0 0 2289 2265 2259 2256 2252 2241 2233 2221 2213 2206 2196 2188 2183 2178 2174 2166 2157 2149 2142 2134 2128 2125 2121 2118 2115 2110 2106 2099 2094 2088 2084 2081 2077 2074 2070 2067 2064 2062 2060 2057 2054 2051 2047 2045 2042 2038 2035 2033 2032 2031 2030 2029 2028 2026 2024 2023 2020 2019 2016 2015 2013 2011 2010 2010 2008 2006 2004 2003 2002 2001 2000 1998 1996 1994 1994 1993 1993 1992 1990 1989 1988 1987 1986 1986 1986 1986 1985 1985 1984 1984 1982 1982 1982 1982 1981 1981 1980 1980 1980 1979 1979 1978 1978 1977 1976 1976 1975 1974 1973 1973 1972 1970 1970 1970 1969 1968 1966 1966 1965 1964 1962 1961 1959 1958 1956 1955 1955 1953 1952 1952 1952 1951 1950 1950 1948 1947 1946 1944 1943 1942 1941 1940 1939 1937 1935 1934 1933 1932 1932 1931 1930 1928 1928 1928 1927 1922 1915 1912 1909 1902 0 0 0 0 0 0 0 0 0 0 0 0 1261 1242 1230 1227 1227 1227 1228 1229 1229 1229 1229 1227 1225 1223 1221 1217 1216 1214 1207 1197 1187 1180 1174 1170 1167 1166 1163 1161 1158 1156 1153 1149 1145 1142 1137 1132 1130 1128 1126 1122 1121 1120 1119 1118 1117 1117 1116 1115 1115 1115 1115 1115 1116 1117 1118 1119 1120 1122 1124 1127 1130 1131 1131 1131 1129 1127 1123 1120 1114 1110 1105 1101 1096 1091 1088 1086 1085 1083 1082 1081 1080 1080 1079 1079 1079 1079 1079 1079 1078 1078 1078 1078 1079 1079 1079 1080 1080 1080 1081 1083 1085 1087 1089 1091 1092 1094 1095 1096 1096 1096 1096 1096 1094 1093 1092 1092 1092 1092 1092 1092 1092 1092 1093 1093 1095 1095 1098 1098 1099
1403 1401 1403 1403 1404 1405 1405 1406 1408 1410 1412 1416 1423 1423 1423 1420 1408 1403 1403 1403 1402 1402 1402 1401 1400 1400 1400 1402 1403 1404 1404 1404 1403 1400 1398 1398 1398 1400 1404 1404 1404 1400 1396 1396 1396 1396 1398 1401 1404 1404 1408 1412 1413 1415 1415 1415 1415 1415 1415 1418 1423 1432 1440 1447 1456 1458 1470 1478 1484 1486 1488 1489 1503 1522 0 0 0 0 0 1828 1849 1850 1850 1853 1855 1855 1855 1851 1851 1850 1850 1852 1852 1852 1853 1854 1855 1855 1855 1855 1855 1855 1856 1860 1862 1866 1866 1866 1866 1866 1868 1869 1871 1872 1874 1878 1884 1894 1900 1908 1916 1921 1923 1927 1932 1937 1940 1941 1942 1946 1957 1964 1969 1971 1973 1983 1996 2007 2019 2033 2045 2061 2072 2085 2097 2113 2123 2126 2128 2128 2128 2123 2089 2058 2058 2058 2093 2112 2145 2159 2167 2168 2169 2173 2183 2186 2187 2189 2189 2191 2200 2207 2209 2211 2211 2211 2212 2212 2212 2217 2222 2226 2228 2231 2231 2231 2231 2231 2231 2231 2235 2241 2248 2254 2257 2258 2258 2260 2262 2265 2266 2269 2270 2270 2273 2276 2279 2281 2283 2285 2286 2288 2291 2293 2296 2299 2299 2301 2306 2312 2318 2323 2325 2326 2327 2327 2329 2333 2337 2339 2344 2345 2347 2353 2357 2363 2369 2369 2370 2371 2371 2378 2378 2378 2378 2367 2367 2367 2385 2396 0 0 0 0 0 0 0 0 0 0 0 0 0 0 0 0 0 0 0 0 0 0 2509 2548 2548 2558 2566 2578 2589 2602 2609 2616 2619 2621 2624 2636 2649 2654 2655 2657 2659 2661 2665 2667 2669 2669 2670 2671 2673 2678 2683 2688 2701 2717 2717 2717 2717 2717 2720 2728 2737 2744 2751 2756 2764 2773 2779 2779 2780 2780 2781 2784 2792 2806 2810 2811 2811 2810 2810 2808 2789 2734 2614 0 0 2289 2265 2260 2256 2252 2241 2233 2223 2213 2206 2196 2188 2183 2180 2176 2170 2159 2152 2144 2138 2131 2125 2122 2120 2116 2114 2108 2101 2094 2089 2084 2081 2077 2074 2070 2066 2064 2061 2060 2057 2054 2051 2048 2045 2042 2039 2035 2033 2032 2031 2030 2029 2028 2026 2024 2023 2021 2019 2017 2015 2013 2012 2011 2010 2009 2007 2005 2005 2003 2002 2001 1999 1997 1995 1995 1995 1994 1993 1991 1990 1989 1988 1988 1986 1986 1986 1986 1985 1984 1984 1983 1982 1982 1982 1982 1982 1981 1980 1980 1979 1979 1979 1978 1977 1976 1976 1975 1974 1974 1973 1972 1971 1970 1970 1969 1968 1966 1966 1965 1964 1962 1961 1960 1958 1957 1956 1955 1954 1954 1953 1952 1952 1952 1950 1949 1948 1946 1944 1943 1942 1941 1940 1939 1937 1936 1934 1934 1934 1933 1933 1931 1928 1927 1927 1925 1921 1912 1911 1908 0 0 0 0 0 0 0 0 0 0 0 0 0 1252 1240 1230 1227 1227 1227 1227 1228 1228 1227 1226 1225 1223 1222 1219 1217 1216 1214 1207 1197 1187 1182 1174 1170 1167 1164 1162 1159 1157 1154 1152 1147 1144 1140 1135 1132 1129 1127 1124 1121 1120 1119 1118 1117 1116 1116 1116 1115 1115 1115 1115 1115 1116 1117 1118 1120 1121 1123 1125 1128 1130 1131 1131 1131 1129 1127 1123 1118 1112 1108 1103 1099 1094 1090 1087 1086 1083 1082 1081 1080 1080 1079 1079 1079 1079 1079 1078 1078 1078 1078 1078 1078 1078 1078 1079 1079 1080 1080 1081 1083 1085 1087 1089 1091 1092 1094 1095 1096 1096 1096 1096 1095 1093 1093 1091 1091 1091 1091 1091 1091 1091 1091 1091 1091 1093 1094 1095 1096 1096
