0 0 0 0 0 0 0 0 2505 2613 2634 2687 2735 2743 2764 2785 2808 2817 2847 2852 2885 2955 2955 2955 2955 2955 2970 2979 2989 3006 3071 3073 3073 3073 3073 3073 3071 3073 3073 3073 3089 3107 3109 3111 3116 3121 3125 3125 3128 3137 3137 3137 3133 3133 3133 3144 3154 3155 3157 3159 3162 3169 3169 3169 3169 3167 3167 3167 3171 3179 3180 3180 3180 3182 3184 3184 3185 3186 3188 3194 3200 3202 3202 3202 3201 3198 3198 3198 3203 3204 3204 3208 3212 3217 3222 3227 3235 3241 3244 3245 3252 3262 3272 3281 3286 3286 3288 3292 3296 3301 3302 3307 3307 3307 3305 3305 3305 3307 3308 3316 3327 3327 3332 3336 3342 3344 3345 3346 3347 3351 3354 3354 3357 3357 3358 3359 3369 3369 3369 3366 3366 3366 3373 3382 3389 3396 3401 3401 3401 3401 3401 3405 3416 3432 3441 3441 3441 3427 3418 3418 3418 3422 3428 3433 3438 3442 3450 3460 3467 3479 3479 3479 3471 3471 3471 3471 3471 3469 3469 3469 3474 3476 3479 3487 3487 3487 3489 3489 3489 3493 3494 3495 3495 3495 3498 3500 3500 3501 3503 3505 3505 3505 3505 3502 3500 3500 3500 3495 3495 3495 3500 3505 3508 3518 3518 3526 3526 3526 3521 3518 3518 3518 3517 3517 3514 3514 3513 3513 3513 3511 3507 3505 3499 3494 3494 3493 3493 3489 3489 3487 3487 3464 3416 3184 2715 0 0 0 1664 1647 1647 1643 1636 1636 1631 1626 1621 1611 1606 1604 1601 1599 1599 1596 1593 1590 1586 1584 1583 1579 1575 1574 1574 1572 1568 1565 1565 1564 1562 1559 1556 1554 1554 1552 1551 1549 1547 1547 1546 1544 1543 1543 1541 1540 1539 1538 1537 1536 1536 1535 1535 1534 1534 1533 1532 1531 1530 1530 1528 1528 1526 1525 1524 1523 1522 1520 1520 1519 1517 1516 1515 1514 1513 1512 1510 1509 1507 1506 1506 1505 1504 1504 1503 1503 1503 1503 1502 1502 1502 1504 1532 0 0 0 0 0 0 0 0 0 0 0 0 0 0 0 0 0 0 0 0 0 0 0 0 2085 2110 2128 2128 2128 2127 2120 2107 2107 2107 2105 2105 2103 2102 2100 2097 2095 2094 2093 2093 2092 2090 2088 2086 2086 2085 2084 2082 2080 2078 2075 2071 2068 2066 2066 2066 2066 2066 2063 2058 2055 2055 2054 2052 2049 2046 2044 2042 2041 2039 2039 2037 2036 2035 2034 2034 2034 2034 2033 2033 2032 2032 2032 2032 2032 2032 2031 2031 2031 2030 2029 2029 2027 2026 2023 2022 2021 2021 2019 2017 2016 2014 2012 2011 2009 2008 2007 2005 2003 2001 2000 1999 1998 1996 1996 1996 1996 1996 1997 1997 1997 1997 1997 1998 1998 1999 1999 1999 1999 2000 2002 2002 2003 2003 2003 2003 2002 2000 1998 1996 1996 1996 1996 1996 1996 1995 1993 1993 1993 1993 1994 1994 1995 1996 1996 1996 1996 1996 1996 1996 1995 1994 1994 1993 1992 1992 1992 1992 1992 1992 1992 1991 1991 1990 1990 1990 1990 1990 1990 1990 1990 1991 1991 1992 1993 1994 1996 1997 1998 1999 1999 2000 2002 2003 2003 2003 2004 2005 2005 2005 2006 2007 2007 2007 2007 2008 2009 2012 2013 2014 2016 2016 2016 2018 2018 2020 2020 2020 2020 2021 2021 2022 2023 2023 2023 2023 2023 2023 2024 2027 2028 2031 2033 2033 2033 2032 2032 2032 2033 2034 2036 2036 2036 2036 2036 2038 2042 2043 2044 2045 2046 2047 2047 2048 2048 2048 2053 2057 2058 2058 2058 2058 2056 2055 2053 2052 2052 2052 2055 2055 2061 2061 2061 2038 2013 1992 1983 1983 1983 1976 1971 1958 1951 1942 1940 1940 1942 1945 1949 1953
0 0 0 0 0 0 0 0 0 2574 2637 2690 2726 2741 2756 2785 2808 2817 2847 2852 2885 2949 2989 2989 2989 2984 2984 2984 2989 3024 3071 3073 3073 3078 3076 3076 3077 3077 3077 3083 3089 3109 3111 3115 3116 3117 3125 3125 3126 3135 3135 3135 3130 3130 3130 3141 3154 3156 3163 3165 3166 3173 3173 3173 3170 3167 3167 3167 3173 3177 3178 3180 3180 3181 3184 3184 3188 3188 3188 3194 3203 3204 3204 3204 3202 3202 3202 3204 3206 3207 3211 3213 3215 3217 3222 3227 3235 3241 3244 3246 3252 3264 3273 3285 3291 3292 3294 3295 3296 3301 3307 3307 3307 3307 3308 3307 3307 3308 3308 3316 3327 3335 3340 3342 3347 3347 3347 3348 3349 3359 3363 3363 3363 3361 3361 3361 3361 3362 3364 3366 3368 3375 3379 3386 3393 3396 3402 3406 3407 3409 3411 3411 3421 3440 3443 3443 3443 3431 3419 3419 3419 3424 3434 3441 3445 3450 3457 3465 3471 3482 3482 3482 3474 3474 3474 3474 3474 3477 3477 3482 3487 3488 3489 3490 3489 3489 3489 3489 3489 3496 3496 3496 3496 3497 3498 3500 3500 3502 3503 3505 3505 3505 3505 3502 3499 3494 3493 3493 3493 3493 3500 3505 3508 3518 3518 3525 3526 3526 3526 3524 3524 3523 3523 3521 3519 3518 3518 3518 3516 3511 3509 3506 3500 3496 3496 3495 3493 3491 3490 3489 3487 3462 3416 3117 2696 0 0 1709 1667 1644 1636 1633 1631 1628 1623 1622 1619 1614 1608 1604 1601 1599 1598 1595 1593 1590 1586 1584 1580 1577 1574 1573 1573 1570 1567 1565 1564 1562 1559 1558 1556 1554 1553 1552 1551 1549 1548 1547 1546 1545 1543 1543 1542 1541 1540 1539 1538 1537 1536 1535 1535 1534 1534 1533 1532 1532 1531 1530 1528 1528 1526 1526 1524 1524 1522 1521 1520 1519 1517 1517 1515 1514 1513 1512 1511 1509 1508 1506 1506 1505 1504 1503 1502 1502 1502 1502 1502 1502 1502 1504 1512 0 0 0 0 0 0 0 0 0 0 0 0 0 0 0 0 0 0 0 0 0 0 0 0 0 2083 2105 2119 2119 2119 2115 2102 2102 2101 2101 2101 2101 2099 2098 2095 2093 2092 2091 2091 2089 2087 2086 2084 2083 2083 2081 2079 2077 2075 2073 2070 2066 2062 2061 2061 2061 2060 2058 2056 2053 2053 2052 2050 2047 2044 2041 2040 2039 2038 2037 2035 2034 2033 2033 2032 2032 2032 2032 2032 2031 2030 2030 2030 2029 2029 2029 2029 2029 2028 2028 2028 2026 2024 2023 2021 2019 2019 2017 2016 2015 2012 2011 2010 2008 2007 2006 2005 2003 2001 1999 1998 1998 1996 1995 1995 1995 1995 1995 1995 1996 1996 1996 1996 1997 1997 1997 1997 1997 1997 1998 1999 1999 2000 2000 2000 2000 1999 1996 1995 1993 1992 1992 1992 1992 1992 1991 1991 1991 1991 1992 1993 1993 1994 1994 1994 1994 1994 1994 1994 1993 1993 1992 1992 1991 1990 1990 1990 1990 1990 1990 1990 1990 1989 1989 1989 1989 1989 1989 1989 1989 1990 1990 1990 1991 1993 1994 1995 1996 1997 1997 1997 1999 2001 2002 2002 2003 2003 2004 2004 2004 2005 2005 2006 2006 2007 2008 2010 2012 2013 2014 2016 2016 2016 2017 2018 2018 2018 2019 2019 2019 2020 2020 2020 2021 2021 2021 2022 2023 2025 2028 2031 2031 2031 2031 2030 2030 2030 2030 2033 2035 2035 2036 2036 2036 2038 2041 2043 2043 2044 2045 2046 2047 2047 2047 2048 2052 2057 2058 2058 2058 2057 2056 2055 2053 2051 2051 2051 2054 2064 2064 2064 2061 2038 2013 1992 1986 1983 1983 1976 1971 1954 1946 1944 1944 1944 1946 1947 1949 1960
0 0 0 0 0 0 0 0 0 2531 2634 2690 2719 2741 2748 2785 2808 2817 2852 2859 2901 2949 2992 2992 2994 2992 2992 2993 2994 3024 3071 3073 3073 3078 3076 3076 3078 3078 3083 3092 3105 3109 3115 3116 3117 3117 3125 3128 3128 3132 3132 3132 3127 3127 3127 3136 3152 3156 3168 3169 3172 3173 3173 3173 3172 3170 3170 3170 3176 3178 3179 3181 3181 3181 3184 3190 3190 3193 3195 3196 3203 3209 3209 3209 3209 3209 3210 3211 3211 3212 3217 3219 3219 3222 3225 3234 3236 3241 3248 3252 3255 3268 3276 3286 3291 3292 3295 3296 3296 3301 3307 3308 3309 3310 3310 3313 3315 3317 3320 3325 3332 3339 3346 3350 3351 3351 3351 3351 3351 3360 3368 3368 3368 3362 3357 3357 3357 3358 3364 3366 3372 3378 3383 3387 3393 3397 3402 3406 3411 3419 3419 3421 3426 3440 3444 3444 3444 3431 3421 3421 3421 3430 3439 3448 3452 3457 3462 3465 3476 3482 3482 3482 3477 3477 3477 3483 3485 3485 3486 3492 3495 3495 3496 3496 3495 3495 3495 3495 3495 3496 3497 3497 3498 3499 3501 3501 3501 3502 3503 3505 3505 3505 3505 3502 3499 3494 3491 3491 3491 3493 3500 3507 3516 3518 3518 3525 3528 3529 3529 3528 3528 3527 3526 3523 3523 3523 3523 3523 3523 3517 3509 3506 3500 3497 3496 3496 3496 3492 3491 3490 3487 3441 3421 3117 2663 0 0 1710 1669 1644 1636 1631 1624 1623 1622 1619 1619 1616 1612 1606 1601 1599 1598 1595 1593 1588 1584 1581 1579 1576 1573 1572 1570 1568 1566 1564 1563 1560 1559 1558 1555 1554 1554 1552 1552 1550 1549 1548 1546 1545 1544 1543 1543 1541 1540 1539 1538 1538 1537 1536 1536 1535 1534 1533 1532 1532 1531 1531 1529 1528 1527 1526 1525 1524 1522 1522 1521 1519 1518 1517 1515 1514 1513 1512 1511 1509 1508 1507 1506 1505 1503 1502 1501 1500 1500 1500 1502 1502 1504 1505 1509 1510 1519 1524 1526 1528 1528 1528 1528 1528 1529 1532 1536 1536 1536 0 0 0 0 0 0 0 0 0 0 0 2053 2084 2113 2113 2113 2113 2102 2101 2100 2100 2100 2100 2099 2097 2094 2092 2090 2089 2088 2087 2087 2084 2082 2081 2080 2078 2076 2074 2072 2070 2068 2063 2058 2057 2056 2056 2056 2054 2053 2051 2050 2050 2047 2044 2042 2040 2039 2037 2036 2035 2033 2032 2031 2031 2030 2030 2030 2030 2029 2029 2029 2028 2028 2027 2027 2027 2027 2027 2026 2025 2025 2024 2023 2020 2019 2018 2017 2017 2015 2013 2011 2009 2008 2008 2007 2006 2005 2002 2001 1998 1997 1997 1996 1995 1994 1994 1994 1994 1994 1994 1994 1994 1994 1994 1994 1995 1995 1995 1995 1996 1996 1996 1996 1996 1996 1996 1996 1995 1993 1991 1991 1990 1990 1990 1990 1989 1989 1989 1990 1991 1992 1992 1992 1992 1992 1992 1992 1992 1992 1992 1991 1990 1989 1989 1989 1989 1988 1988 1988 1988 1988 1988 1988 1988 1988 1988 1988 1988 1988 1988 1988 1989 1989 1989 1990 1990 1992 1993 1995 1995 1996 1998 2000 2001 2001 2002 2002 2002 2002 2003 2004 2004 2005 2006 2007 2007 2009 2010 2012 2014 2015 2015 2015 2016 2016 2016 2016 2017 2017 2017 2017 2017 2018 2018 2018 2019 2020 2022 2023 2027 2029 2029 2029 2029 2028 2028 2028 2029 2032 2035 2035 2035 2036 2036 2037 2041 2042 2042 2042 2043 2043 2044 2046 2047 2047 2049 2050 2055 2056 2056 2056 2055 2055 2052 2050 2050 2050 2050 2064 2064 2064 2059 2038 2013 1992 1986 1986 1983 1979 1967 1953 1939 1939 1939 1944 1946 1947 1949 1960
0 0 0 0 0 0 0 0 0 2528 2625 2690 2719 2725 2744 2773 2802 2836 2869 2871 2901 2949 2992 2992 2994 2992 2992 2993 2994 3024 3063 3073 3073 3078 3076 3076 3078 3083 3097 3103 3108 3116 3117 3117 3117 3117 3129 3129 3133 3133 3133 3133 3130 3130 3130 3136 3141 3156 3170 3172 3173 3173 3173 3173 3173 3174 3175 3175 3179 3179 3179 3181 3181 3181 3187 3198 3201 3201 3204 3204 3204 3209 3209 3210 3210 3210 3213 3213 3214 3215 3218 3223 3225 3226 3226 3238 3248 3250 3252 3257 3259 3270 3281 3289 3295 3295 3296 3296 3299 3305 3309 3309 3310 3310 3315 3317 3321 3328 3332 3335 3339 3346 3356 3359 3359 3359 3359 3359 3364 3368 3371 3371 3371 3365 3359 3358 3358 3358 3364 3366 3375 3381 3385 3393 3395 3399 3404 3406 3411 3419 3420 3421 3426 3440 3444 3444 3444 3431 3431 3431 3431 3439 3449 3455 3459 3461 3462 3465 3477 3479 3479 3479 3478 3478 3478 3487 3490 3494 3495 3500 3500 3500 3501 3501 3501 3501 3501 3500 3500 3500 3501 3502 3503 3503 3504 3504 3504 3504 3506 3507 3507 3507 3505 3502 3499 3494 3491 3491 3491 3493 3504 3514 3518 3523 3524 3525 3528 3529 3529 3529 3529 3529 3526 3526 3526 3527 3531 3531 3531 3526 3517 3506 3500 3497 3497 3497 3497 3493 3491 3491 3482 3445 3441 3117 2686 0 0 1710 1677 1646 1636 1631 1624 1623 1622 1619 1619 1617 1614 1606 1603 1599 1598 1595 1590 1584 1582 1581 1578 1575 1573 1572 1569 1567 1566 1564 1563 1560 1559 1558 1555 1554 1554 1552 1552 1551 1549 1548 1547 1546 1545 1544 1543 1542 1541 1540 1539 1539 1538 1537 1536 1535 1535 1533 1533 1532 1531 1531 1529 1529 1527 1526 1525 1524 1523 1522 1521 1520 1518 1517 1516 1515 1514 1513 1511 1511 1509 1507 1506 1505 1503 1501 1500 1500 1500 1500 1501 1502 1503 1505 1506 1508 1510 1518 1519 1519 1519 1518 1518 1516 1516 1516 1518 1522 1528 1531 1536 1539 1540 0 0 0 0 0 0 0 0 2062 2105 2112 2112 2105 2102 2099 2099 2099 2099 2099 2098 2095 2093 2090 2088 2088 2087 2086 2085 2083 2081 2079 2078 2076 2074 2070 2068 2068 2064 2060 2057 2054 2054 2053 2051 2050 2049 2049 2048 2047 2045 2041 2039 2038 2036 2035 2034 2034 2031 2031 2030 2029 2028 2028 2028 2028 2028 2027 2027 2027 2026 2025 2024 2024 2024 2023 2023 2023 2023 2022 2021 2019 2018 2017 2016 2015 2015 2012 2010 2008 2007 2006 2006 2005 2004 2002 2000 1997 1996 1996 1995 1993 1993 1993 1993 1993 1993 1993 1993 1993 1993 1993 1992 1992 1992 1992 1993 1993 1993 1993 1992 1992 1992 1993 1993 1993 1993 1991 1990 1989 1989 1988 1987 1987 1987 1987 1988 1990 1990 1991 1991 1991 1991 1991 1991 1990 1990 1989 1989 1988 1987 1987 1986 1986 1986 1986 1986 1987 1987 1987 1987 1987 1986 1986 1987 1987 1987 1987 1987 1988 1987 1987 1988 1989 1990 1991 1993 1995 1996 1998 1999 2000 2000 2001 2001 2001 2002 2002 2003 2003 2004 2005 2006 2007 2008 2009 2011 2013 2014 2014 2015 2015 2015 2015 2015 2015 2015 2015 2015 2015 2016 2017 2017 2019 2019 2020 2022 2025 2026 2027 2028 2028 2028 2028 2028 2028 2030 2033 2034 2035 2036 2036 2037 2039 2040 2040 2040 2041 2042 2042 2043 2045 2045 2045 2046 2054 2056 2056 2056 2055 2054 2052 2050 2043 2043 2043 2064 2064 2064 2053 2036 2010 1990 1986 1986 1983 1979 1967 1951 1937 1937 1937 1937 1944 1946 1947 1960
0 0 0 0 0 0 0 0 0 2525 2618 2662 2665 2693 2743 2773 2802 2837 2869 2871 2901 2949 2992 2992 2994 2992 2992 2993 2994 3018 3054 3071 3074 3078 3078 3078 3083 3085 3097 3103 3108 3117 3125 3126 3129 3130 3130 3132 3133 3135 3138 3135 3135 3136 3136 3136 3141 3156 3170 3172 3172 3172 3172 3172 3172 3180 3180 3181 3181 3181 3181 3181 3181 3184 3193 3205 3210 3210 3210 3209 3209 3209 3209 3212 3212 3213 3214 3216 3216 3216 3218 3223 3226 3229 3232 3242 3250 3259 3260 3262 3267 3278 3285 3292 3297 3299 3299 3300 3305 3308 3309 3310 3310 3310 3320 3323 3330 3334 3337 3343 3350 3355 3373 3373 3373 3371 3371 3371 3371 3374 3374 3374 3374 3367 3362 3358 3358 3358 3364 3369 3378 3381 3386 3394 3396 3399 3404 3406 3411 3419 3420 3421 3426 3428 3441 3441 3441 3441 3441 3441 3443 3451 3463 3467 3467 3468 3469 3472 3478 3479 3479 3479 3479 3479 3483 3488 3493 3494 3500 3504 3504 3504 3504 3504 3502 3502 3502 3501 3501 3501 3504 3506 3506 3507 3507 3507 3507 3507 3508 3508 3508 3507 3505 3503 3501 3497 3492 3492 3492 3500 3507 3518 3527 3529 3529 3529 3529 3529 3529 3532 3532 3532 3530 3530 3530 3530 3534 3534 3534 3533 3526 3517 3507 3501 3501 3501 3498 3497 3492 3491 3482 3445 3441 3231 2686 0 0 0 1686 1658 1641 1635 1618 1617 1617 1617 1617 1617 1615 1608 1604 1599 1597 1592 1586 1583 1580 1578 1577 1573 1570 1569 1568 1567 1565 1564 1562 1560 1559 1557 1555 1555 1554 1553 1552 1551 1550 1549 1548 1547 1546 1545 1544 1543 1542 1541 1540 1539 1539 1537 1536 1535 1535 1534 1533 1532 1532 1531 1530 1529 1528 1526 1525 1524 1523 1522 1521 1520 1519 1518 1517 1516 1514 1514 1512 1511 1510 1508 1506 1505 1503 1501 1500 1500 1500 1500 1501 1502 1503 1503 1505 1505 1509 1516 1516 1516 1518 1516 1516 1516 1516 1516 1518 1518 1521 1527 1532 1535 1538 1541 1552 0 0 0 0 0 0 0 2100 2103 2103 2103 2095 2095 2095 2099 2099 2099 2096 2093 2091 2088 2087 2086 2086 2084 2082 2080 2079 2077 2076 2073 2070 2068 2066 2065 2062 2058 2055 2054 2053 2051 2049 2049 2048 2047 2045 2044 2041 2039 2037 2036 2034 2034 2032 2031 2030 2029 2029 2028 2027 2027 2026 2026 2025 2025 2025 2024 2024 2023 2022 2021 2021 2021 2021 2021 2021 2021 2019 2017 2017 2016 2015 2014 2012 2011 2009 2007 2006 2004 2004 2003 2001 2000 1997 1996 1995 1994 1994 1992 1991 1991 1991 1991 1991 1992 1992 1992 1992 1991 1991 1990 1990 1990 1990 1990 1990 1990 1989 1989 1989 1989 1990 1990 1990 1990 1988 1987 1987 1986 1985 1985 1985 1985 1985 1985 1986 1987 1987 1989 1989 1989 1989 1988 1988 1988 1987 1986 1986 1984 1984 1984 1984 1984 1985 1985 1985 1985 1985 1985 1985 1985 1985 1985 1985 1986 1986 1986 1986 1986 1986 1987 1988 1989 1991 1994 1996 1997 1998 1999 2000 2000 2000 2000 2000 2001 2002 2003 2004 2005 2006 2007 2007 2009 2010 2011 2013 2014 2014 2014 2014 2014 2014 2013 2013 2013 2013 2013 2015 2016 2017 2017 2017 2019 2019 2020 2023 2025 2028 2028 2028 2028 2028 2028 2029 2030 2032 2032 2033 2033 2033 2035 2037 2037 2038 2038 2039 2040 2040 2040 2040 2041 2043 2050 2052 2052 2053 2052 2052 2052 2048 2042 2035 2035 2035 2040 2040 2040 2019 1995 1973 1973 1973 1972 1972 1967 1946 1934 1934 1932 1932 1932 1932 1932 1932
0 0 0 0 0 0 0 0 0 2513 2559 2603 2606 2676 2716 2771 2802 2837 2869 2871 2894 2934 2967 2979 2984 2985 2985 2986 2993 3018 3054 3071 3073 3078 3078 3078 3083 3085 3097 3103 3121 3125 3127 3129 3129 3132 3133 3133 3135 3136 3142 3142 3142 3142 3141 3141 3141 3153 3168 3168 3170 3170 3170 3172 3176 3180 3184 3184 3185 3185 3185 3185 3185 3188 3198 3208 3212 3213 3213 3213 3212 3212 3211 3212 3212 3214 3217 3217 3224 3225 3226 3228 3229 3237 3241 3243 3253 3260 3261 3262 3273 3280 3287 3296 3299 3301 3301 3302 3305 3308 3309 3310 3310 3317 3321 3330 3331 3336 3341 3349 3367 3373 3375 3375 3375 3375 3376 3375 3375 3375 3375 3374 3374 3371 3366 3366 3365 3365 3369 3373 3383 3387 3389 3397 3399 3402 3404 3406 3410 3417 3419 3419 3420 3422 3427 3440 3440 3441 3442 3442 3447 3455 3463 3468 3475 3475 3475 3478 3483 3483 3483 3482 3482 3482 3487 3492 3493 3498 3503 3507 3507 3507 3507 3506 3504 3504 3502 3502 3502 3503 3505 3508 3510 3510 3510 3511 3510 3511 3511 3511 3510 3509 3509 3509 3509 3509 3503 3502 3502 3502 3512 3525 3532 3533 3533 3533 3530 3530 3530 3533 3535 3535 3535 3531 3531 3531 3535 3535 3535 3534 3529 3523 3514 3506 3502 3502 3500 3500 3492 3491 3482 3446 3445 3272 2686 0 0 0 1701 1669 1653 1636 1624 1615 1615 1615 1616 1616 1616 1609 1604 1599 1595 1592 1586 1583 1580 1578 1574 1572 1569 1568 1568 1567 1565 1564 1562 1560 1559 1558 1555 1555 1555 1554 1552 1551 1550 1549 1548 1548 1546 1546 1544 1543 1542 1541 1540 1539 1539 1538 1537 1537 1535 1535 1534 1534 1533 1531 1530 1529 1528 1527 1525 1524 1523 1522 1522 1521 1520 1519 1517 1516 1515 1514 1513 1512 1510 1509 1507 1505 1503 1502 1501 1501 1501 1501 1501 1502 1503 1503 1504 1504 1504 1509 1510 1514 1516 1516 1516 1516 1516 1516 1517 1518 1521 1524 1525 1526 1527 1539 1547 1554 0 0 0 0 0 0 2080 2089 2089 2090 2090 2090 2095 2095 2095 2095 2094 2091 2089 2087 2086 2085 2084 2083 2081 2079 2077 2076 2073 2071 2068 2065 2064 2062 2060 2057 2054 2053 2052 2049 2048 2046 2046 2045 2044 2042 2040 2037 2034 2032 2032 2030 2030 2030 2029 2028 2027 2025 2025 2024 2024 2024 2024 2024 2023 2022 2022 2020 2019 2019 2019 2019 2019 2019 2019 2019 2019 2017 2017 2015 2015 2014 2012 2011 2009 2007 2006 2004 2003 2001 2000 1998 1996 1994 1994 1994 1992 1991 1990 1990 1990 1990 1990 1990 1990 1990 1989 1989 1988 1988 1988 1988 1988 1988 1988 1987 1987 1987 1987 1987 1988 1988 1988 1987 1986 1986 1984 1984 1984 1984 1983 1983 1983 1983 1984 1984 1984 1985 1986 1987 1987 1987 1987 1987 1986 1985 1984 1983 1982 1982 1982 1982 1982 1983 1983 1983 1983 1984 1984 1984 1984 1983 1983 1984 1984 1984 1984 1985 1986 1986 1988 1988 1989 1992 1994 1996 1996 1997 1997 1997 1997 1998 1999 1999 2001 2001 2003 2004 2005 2006 2007 2008 2009 2009 2011 2013 2013 2013 2013 2013 2012 2012 2012 2012 2012 2012 2014 2015 2016 2016 2016 2016 2016 2017 2021 2025 2027 2028 2028 2028 2028 2028 2028 2029 2029 2029 2030 2030 2030 2034 2035 2036 2036 2036 2037 2037 2037 2037 2038 2038 2038 2046 2049 2050 2051 2051 2050 2050 2047 2041 2033 2033 2032 2031 2030 2028 2012 1989 1967 1955 1947 1947 1946 1942 1940 1934 1934 1932 1932 1932 1932 1932 1932
0 0 0 0 0 0 0 0 0 2516 2540 2546 2585 2676 2693 2699 2702 2836 2860 2862 2885 2910 2931 2953 2979 2984 2985 2986 2993 3018 3054 3071 3073 3078 3079 3083 3085 3090 3097 3103 3118 3123 3127 3134 3134 3138 3139 3138 3138 3140 3142 3148 3148 3149 3148 3148 3151 3153 3168 3168 3170 3170 3170 3172 3177 3181 3185 3185 3187 3187 3187 3188 3188 3190 3201 3210 3213 3215 3218 3218 3218 3212 3212 3212 3212 3214 3217 3224 3231 3231 3231 3237 3237 3238 3243 3247 3253 3254 3261 3262 3273 3280 3288 3296 3302 3303 3303 3303 3306 3310 3310 3311 3315 3318 3323 3330 3334 3337 3343 3356 3367 3375 3375 3376 3377 3377 3377 3377 3376 3376 3376 3375 3375 3374 3371 3371 3371 3372 3376 3383 3392 3401 3408 3409 3409 3409 3409 3409 3410 3415 3415 3417 3418 3418 3423 3430 3438 3440 3441 3444 3450 3456 3463 3468 3475 3478 3478 3483 3490 3490 3490 3490 3490 3492 3493 3495 3498 3502 3505 3509 3509 3509 3509 3508 3507 3507 3503 3503 3503 3503 3506 3508 3512 3514 3514 3516 3516 3516 3515 3513 3512 3511 3511 3511 3511 3511 3506 3506 3506 3510 3519 3529 3538 3538 3538 3538 3533 3533 3533 3538 3542 3542 3542 3536 3536 3536 3536 3537 3537 3537 3530 3523 3515 3508 3507 3505 3503 3503 3497 3495 3491 3462 3445 3346 2989 0 0 0 0 1670 1662 1644 1624 1609 1609 1609 1615 1615 1615 1609 1603 1598 1593 1590 1586 1582 1580 1577 1574 1572 1569 1568 1568 1566 1565 1563 1562 1560 1559 1558 1556 1555 1555 1554 1553 1552 1551 1550 1549 1548 1547 1546 1545 1544 1542 1541 1540 1539 1539 1539 1538 1537 1536 1535 1535 1534 1533 1531 1530 1530 1529 1527 1526 1525 1524 1523 1522 1521 1520 1519 1518 1517 1517 1515 1514 1512 1511 1509 1507 1505 1504 1502 1501 1501 1501 1501 1501 1502 1503 1503 1504 1504 1504 1507 1510 1514 1516 1517 1517 1518 1518 1518 1518 1518 1520 1522 1524 1524 1527 1536 1540 1552 1563 0 0 0 0 0 2073 2088 2088 2089 2089 2089 2093 2093 2093 2093 2091 2090 2088 2086 2084 2083 2083 2082 2079 2076 2074 2072 2070 2068 2065 2064 2061 2059 2057 2054 2053 2051 2049 2047 2046 2045 2044 2043 2042 2040 2038 2035 2033 2032 2031 2030 2029 2028 2027 2026 2026 2024 2024 2023 2022 2022 2021 2021 2021 2021 2020 2018 2018 2018 2018 2018 2018 2018 2019 2019 2019 2017 2016 2015 2014 2013 2012 2011 2009 2006 2005 2004 2002 2000 1999 1997 1995 1994 1993 1993 1991 1989 1988 1988 1988 1988 1988 1988 1988 1988 1988 1987 1987 1987 1987 1987 1987 1987 1985 1984 1984 1984 1984 1985 1986 1986 1986 1985 1984 1983 1983 1983 1982 1982 1982 1982 1982 1982 1981 1982 1982 1983 1985 1985 1985 1985 1985 1985 1985 1984 1982 1982 1982 1981 1981 1981 1981 1981 1981 1981 1981 1981 1981 1981 1982 1982 1982 1982 1982 1982 1983 1983 1984 1985 1986 1988 1988 1990 1992 1994 1994 1994 1994 1994 1996 1996 1997 1999 1999 2000 2001 2003 2004 2004 2006 2007 2008 2008 2009 2010 2011 2012 2012 2012 2012 2011 2011 2011 2011 2011 2013 2014 2015 2015 2015 2015 2015 2016 2021 2024 2026 2027 2027 2027 2027 2027 2027 2027 2027 2027 2028 2028 2028 2032 2033 2033 2034 2034 2034 2034 2034 2034 2034 2034 2036 2042 2044 2048 2050 2050 2050 2049 2046 2041 2033 2033 2032 2030 2025 2021 2007 1986 1967 1955 1947 1947 1946 1942 1940 1934 1934 1932 1932 1932 1932 1932 1932
0 0 0 0 0 0 0 0 2500 2513 2519 2519 2584 2676 2693 2699 2702 2781 2860 2862 2885 2910 2931 2953 2977 2984 2985 2986 2993 3035 3057 3074 3074 3078 3081 3083 3085 3094 3097 3103 3118 3124 3127 3134 3135 3139 3139 3140 3141 3141 3142 3150 3150 3154 3158 3155 3159 3159 3168 3168 3171 3171 3171 3172 3181 3185 3186 3187 3189 3190 3190 3191 3192 3193 3203 3211 3216 3217 3220 3220 3220 3216 3216 3216 3216 3217 3221 3228 3233 3241 3241 3241 3243 3243 3248 3253 3254 3255 3262 3271 3274 3283 3288 3297 3304 3305 3306 3306 3307 3310 3312 3314 3318 3321 3326 3330 3336 3337 3344 3357 3369 3376 3376 3377 3378 3378 3378 3377 3376 3376 3376 3377 3377 3377 3377 3377 3382 3387 3391 3393 3404 3416 3418 3418 3418 3417 3413 3413 3413 3415 3415 3415 3417 3417 3421 3426 3434 3439 3444 3448 3454 3464 3470 3472 3477 3479 3483 3490 3491 3492 3493 3493 3494 3497 3501 3501 3503 3503 3506 3509 3510 3510 3510 3510 3510 3507 3504 3503 3503 3503 3506 3514 3515 3518 3521 3526 3526 3526 3520 3514 3512 3512 3512 3515 3515 3515 3516 3516 3516 3519 3528 3536 3545 3545 3545 3543 3538 3538 3538 3544 3551 3551 3551 3543 3536 3536 3536 3537 3537 3537 3531 3524 3516 3509 3509 3509 3507 3507 3507 3505 3505 3479 3440 3374 3151 0 0 0 0 1681 1679 1660 1645 1622 1615 1615 1615 1615 1615 1609 1601 1596 1593 1590 1585 1581 1579 1576 1574 1571 1569 1568 1567 1565 1564 1563 1562 1560 1559 1558 1556 1556 1555 1554 1554 1552 1552 1551 1549 1549 1547 1546 1545 1544 1543 1542 1540 1539 1539 1539 1538 1537 1537 1536 1535 1534 1533 1532 1531 1530 1529 1527 1526 1525 1524 1523 1522 1521 1521 1520 1518 1518 1517 1515 1514 1513 1511 1510 1508 1505 1504 1503 1502 1501 1501 1501 1501 1502 1503 1503 1504 1504 1504 1507 1510 1514 1516 1517 1519 1519 1519 1519 1518 1518 1518 1522 1523 1524 1527 1536 1540 1551 1563 1582 0 0 0 0 2047 2088 2088 2088 2089 2089 2091 2091 2091 2089 2089 2088 2087 2085 2083 2081 2081 2079 2075 2073 2070 2068 2066 2065 2063 2061 2059 2057 2055 2052 2050 2048 2047 2046 2044 2043 2042 2041 2039 2036 2034 2032 2032 2031 2030 2029 2027 2025 2025 2024 2024 2023 2022 2021 2020 2020 2020 2020 2019 2019 2018 2017 2017 2016 2016 2017 2017 2017 2017 2017 2017 2017 2016 2015 2014 2013 2011 2010 2009 2006 2004 2003 2002 2000 1998 1997 1995 1994 1991 1990 1989 1987 1987 1987 1986 1987 1986 1986 1986 1986 1986 1985 1985 1985 1985 1985 1985 1984 1984 1983 1983 1983 1983 1983 1984 1984 1984 1983 1982 1981 1981 1981 1981 1981 1981 1981 1981 1980 1979 1979 1979 1979 1981 1983 1983 1983 1983 1983 1983 1982 1981 1981 1980 1980 1980 1979 1979 1978 1978 1978 1978 1978 1980 1980 1981 1981 1981 1981 1981 1981 1981 1981 1983 1983 1985 1986 1987 1989 1990 1991 1992 1992 1992 1993 1994 1995 1996 1996 1997 1998 1999 2001 2002 2003 2005 2005 2005 2006 2006 2007 2009 2010 2011 2011 2011 2011 2010 2010 2010 2010 2010 2013 2013 2013 2013 2013 2013 2015 2018 2024 2026 2027 2027 2027 2026 2025 2025 2025 2025 2026 2026 2026 2028 2028 2031 2032 2033 2033 2033 2033 2032 2031 2031 2031 2034 2036 2036 2037 2037 2037 2041 2041 2041 2034 2030 2026 2022 2018 2011 2006 1996 1986 1967 1955 1947 1947 1947 1944 1947 1950 1950 1947 1947 1947 1946 1946 1946
0 0 0 0 0 0 0 0 2500 2505 2505 2505 2583 2676 2693 2699 2702 2781 2849 2859 2885 2910 2931 2953 2979 2991 2992 3007 3010 3044 3068 3078 3083 3088 3089 3089 3094 3094 3116 3120 3126 3131 3133 3134 3135 3139 3139 3140 3141 3142 3142 3150 3150 3154 3158 3155 3159 3164 3172 3178 3180 3184 3186 3187 3188 3188 3188 3188 3192 3193 3193 3195 3195 3197 3207 3215 3220 3223 3223 3224 3224 3223 3223 3223 3223 3223 3225 3230 3236 3242 3244 3248 3249 3249 3251 3255 3259 3260 3271 3278 3279 3283 3288 3297 3307 3309 3309 3311 3312 3312 3319 3322 3325 3325 3328 3332 3338 3340 3344 3360 3370 3376 3376 3377 3379 3379 3379 3379 3377 3377 3377 3381 3381 3381 3381 3381 3382 3389 3394 3398 3405 3417 3429 3429 3429 3424 3416 3415 3415 3415 3415 3415 3415 3417 3421 3426 3434 3439 3444 3448 3455 3465 3470 3472 3477 3479 3485 3492 3492 3493 3494 3494 3495 3497 3501 3504 3505 3506 3507 3509 3511 3512 3513 3513 3513 3507 3505 3505 3505 3506 3513 3519 3521 3526 3529 3530 3530 3530 3523 3519 3517 3516 3516 3517 3517 3522 3523 3523 3526 3527 3530 3540 3551 3552 3552 3552 3546 3546 3546 3552 3556 3556 3556 3548 3541 3541 3541 3541 3541 3539 3532 3525 3517 3510 3510 3510 3510 3510 3510 3508 3505 3479 3440 3430 3198 2650 0 0 0 1700 1688 1672 1649 1623 1615 1615 1613 1611 1611 1601 1598 1594 1591 1590 1585 1581 1578 1576 1574 1571 1569 1568 1567 1565 1564 1563 1562 1560 1559 1558 1557 1556 1556 1555 1554 1554 1552 1551 1551 1549 1547 1547 1545 1545 1543 1542 1540 1539 1539 1539 1538 1538 1538 1537 1535 1535 1533 1532 1531 1530 1529 1528 1526 1525 1524 1523 1523 1522 1521 1520 1519 1519 1518 1516 1515 1513 1512 1511 1510 1507 1505 1504 1503 1502 1502 1502 1502 1502 1502 1503 1503 1504 1505 1507 1510 1514 1516 1517 1519 1519 1519 1519 1518 1518 1518 1522 1523 1527 1532 1536 1540 1551 1563 1582 0 0 0 0 2046 2088 2088 2088 2089 2089 2089 2089 2089 2088 2086 2086 2085 2083 2081 2079 2077 2076 2072 2069 2067 2065 2064 2062 2061 2059 2057 2054 2052 2050 2048 2046 2045 2044 2042 2041 2041 2039 2037 2033 2031 2030 2030 2029 2027 2026 2024 2024 2024 2022 2021 2020 2019 2019 2018 2018 2018 2018 2017 2017 2016 2016 2015 2015 2015 2015 2015 2015 2016 2016 2016 2016 2015 2014 2013 2012 2010 2009 2008 2006 2004 2003 2002 2000 1998 1997 1995 1993 1991 1989 1987 1986 1985 1985 1985 1985 1985 1985 1985 1985 1985 1985 1983 1983 1983 1983 1983 1983 1983 1982 1982 1982 1982 1982 1982 1982 1982 1980 1980 1980 1980 1980 1980 1980 1979 1979 1978 1978 1976 1976 1976 1977 1979 1980 1980 1980 1980 1980 1980 1980 1980 1979 1978 1977 1976 1976 1976 1976 1976 1976 1976 1976 1977 1977 1979 1980 1980 1980 1980 1980 1979 1979 1979 1981 1984 1984 1985 1987 1989 1989 1989 1989 1989 1990 1991 1991 1992 1993 1994 1997 1998 2000 2002 2002 2003 2003 2003 2004 2004 2005 2006 2009 2009 2010 2010 2010 2010 2010 2010 2010 2010 2012 2012 2012 2012 2012 2012 2013 2017 2021 2023 2024 2026 2026 2026 2025 2025 2025 2025 2025 2026 2026 2028 2028 2030 2031 2032 2032 2032 2032 2032 2030 2030 2030 2032 2032 2032 2032 2032 2033 2034 2034 2034 2029 2024 2020 2019 2015 2008 2002 1996 1986 1979 1974 1966 1960 1959 1955 1951 1951 1951 1960 1960 1960 1959 1959 1959
0 0 0 0 0 0 2382 2454 2500 2505 2505 2505 2583 2676 2714 2723 2733 2761 2811 2859 2885 2923 2944 2964 2986 2999 3018 3028 3035 3068 3079 3081 3083 3088 3104 3114 3116 3121 3123 3126 3133 3135 3135 3135 3138 3139 3139 3139 3139 3140 3140 3149 3150 3154 3156 3159 3172 3172 3176 3179 3183 3184 3186 3188 3189 3190 3192 3193 3193 3194 3194 3195 3196 3205 3216 3216 3220 3223 3224 3226 3231 3231 3231 3231 3227 3227 3227 3234 3237 3242 3245 3248 3254 3255 3257 3257 3259 3260 3277 3280 3281 3283 3288 3297 3307 3314 3316 3316 3317 3318 3319 3322 3325 3328 3332 3337 3338 3342 3350 3360 3371 3376 3379 3379 3379 3380 3380 3380 3380 3380 3384 3384 3384 3383 3383 3383 3383 3391 3396 3402 3410 3418 3431 3431 3431 3425 3420 3420 3417 3417 3415 3415 3415 3417 3421 3426 3434 3439 3444 3449 3455 3465 3470 3472 3477 3479 3489 3493 3493 3493 3496 3496 3497 3498 3501 3506 3507 3508 3508 3509 3512 3514 3514 3514 3514 3509 3508 3508 3509 3510 3517 3525 3529 3531 3533 3533 3533 3532 3527 3526 3520 3520 3520 3520 3527 3528 3529 3529 3530 3533 3535 3542 3551 3559 3559 3559 3554 3554 3554 3559 3560 3560 3560 3550 3545 3545 3545 3543 3543 3541 3537 3533 3523 3517 3517 3515 3514 3514 3512 3510 3505 3479 3462 3440 3295 3003 0 0 0 0 1689 1680 1663 1635 1619 1617 1617 1616 1607 1599 1595 1593 1590 1587 1585 1580 1578 1575 1572 1571 1569 1568 1567 1565 1564 1563 1562 1561 1559 1559 1557 1557 1556 1556 1555 1554 1553 1552 1551 1549 1547 1547 1545 1545 1543 1542 1541 1539 1539 1539 1538 1538 1538 1537 1536 1535 1533 1533 1531 1531 1529 1528 1527 1526 1525 1524 1523 1523 1522 1521 1520 1519 1518 1517 1515 1514 1512 1511 1510 1508 1506 1505 1503 1502 1502 1502 1502 1502 1502 1503 1503 1504 1505 1507 1509 1514 1514 1515 1515 1519 1519 1519 1517 1517 1517 1523 1532 1538 1541 1542 1546 1551 1565 0 0 0 0 0 2046 2089 2089 2089 2089 2088 2087 2087 2087 2085 2084 2084 2083 2081 2079 2077 2075 2072 2070 2068 2065 2062 2062 2059 2059 2057 2055 2053 2050 2048 2046 2045 2044 2043 2041 2039 2039 2037 2034 2032 2029 2029 2028 2027 2026 2024 2023 2022 2021 2020 2019 2018 2018 2017 2016 2016 2016 2015 2015 2014 2014 2014 2013 2013 2013 2013 2014 2014 2014 2014 2014 2014 2013 2012 2012 2011 2010 2009 2007 2005 2003 2002 2001 2000 1998 1997 1995 1993 1990 1988 1985 1984 1983 1983 1983 1983 1983 1983 1983 1983 1983 1983 1983 1982 1982 1982 1982 1982 1981 1981 1981 1979 1979 1979 1980 1980 1980 1979 1977 1977 1977 1977 1977 1977 1976 1976 1975 1975 1975 1975 1975 1975 1977 1977 1977 1977 1977 1977 1977 1977 1977 1976 1975 1973 1973 1973 1973 1973 1973 1973 1973 1974 1976 1977 1978 1978 1978 1978 1979 1979 1978 1979 1979 1979 1982 1982 1984 1985 1987 1987 1987 1987 1987 1988 1988 1989 1989 1990 1992 1994 1996 1998 2000 2001 2002 2002 2002 2003 2004 2004 2006 2008 2008 2009 2009 2009 2009 2009 2009 2009 2009 2010 2012 2012 2012 2011 2011 2011 2014 2017 2018 2019 2020 2024 2024 2024 2024 2024 2024 2024 2025 2026 2027 2027 2029 2029 2031 2031 2031 2031 2031 2030 2030 2029 2030 2030 2030 2030 2031 2032 2032 2032 2032 2027 2018 2018 2016 2014 2007 1999 1992 1986 1979 1974 1970 1966 1960 1960 1951 1951 1951 1962 1966 1972 1972 1975 1975
0 0 0 0 0 0 2422 2443 2500 2505 2505 2505 2583 2667 2717 2724 2739 2781 2849 2862 2901 2942 2959 2984 2989 3021 3032 3034 3035 3068 3079 3081 3083 3088 3104 3120 3122 3128 3129 3130 3135 3136 3137 3137 3137 3138 3138 3135 3135 3140 3140 3140 3140 3144 3144 3144 3172 3176 3181 3182 3184 3185 3188 3189 3194 3196 3197 3197 3197 3197 3197 3198 3206 3213 3216 3216 3220 3221 3223 3226 3231 3232 3232 3232 3232 3232 3233 3238 3241 3243 3247 3250 3254 3257 3257 3258 3259 3271 3281 3282 3283 3283 3288 3297 3307 3316 3321 3321 3321 3321 3321 3324 3326 3330 3337 3344 3345 3348 3353 3363 3371 3377 3379 3379 3379 3380 3381 3382 3383 3386 3387 3389 3389 3389 3384 3384 3384 3393 3397 3403 3414 3419 3434 3434 3434 3427 3427 3426 3420 3420 3420 3423 3431 3433 3434 3436 3437 3443 3448 3457 3464 3471 3476 3479 3482 3484 3489 3496 3496 3496 3496 3496 3496 3498 3499 3506 3511 3511 3512 3512 3513 3516 3516 3516 3515 3510 3509 3509 3509 3512 3521 3528 3533 3535 3536 3536 3535 3534 3532 3531 3531 3532 3531 3532 3533 3533 3534 3534 3535 3538 3542 3546 3553 3561 3561 3561 3560 3560 3560 3562 3562 3562 3560 3554 3550 3547 3546 3546 3543 3543 3541 3538 3533 3521 3521 3521 3521 3521 3516 3511 3493 3471 3464 3443 3370 3189 0 0 0 0 0 1707 1678 1644 1625 1619 1617 1613 1603 1596 1593 1592 1588 1585 1583 1580 1577 1574 1572 1571 1569 1568 1567 1565 1564 1563 1562 1561 1560 1559 1558 1557 1556 1556 1555 1554 1553 1552 1551 1550 1548 1548 1547 1546 1544 1542 1541 1539 1539 1539 1539 1538 1538 1538 1536 1535 1534 1533 1532 1531 1530 1528 1527 1526 1526 1524 1524 1523 1522 1521 1521 1520 1519 1518 1517 1515 1514 1513 1511 1510 1507 1505 1504 1503 1503 1502 1502 1502 1502 1503 1503 1504 1505 1507 1507 1508 1510 1515 1515 1515 1516 1516 1516 1517 1517 1528 1535 1540 1542 1548 1557 1566 1590 0 0 0 0 0 2047 2090 2090 2090 2089 2088 2087 2087 2086 2084 2084 2083 2081 2079 2076 2073 2071 2069 2068 2066 2061 2059 2057 2057 2057 2055 2053 2051 2049 2046 2045 2043 2042 2041 2039 2038 2037 2035 2033 2031 2028 2028 2026 2025 2023 2022 2021 2020 2019 2017 2017 2016 2016 2015 2014 2014 2013 2013 2012 2012 2012 2011 2011 2011 2011 2011 2012 2012 2013 2013 2013 2013 2012 2011 2010 2010 2009 2008 2006 2004 2002 2001 2000 1999 1998 1997 1995 1993 1990 1987 1984 1983 1982 1981 1980 1980 1980 1980 1981 1981 1982 1982 1982 1982 1981 1981 1980 1980 1980 1979 1979 1978 1978 1978 1978 1978 1977 1977 1976 1975 1975 1975 1975 1975 1974 1972 1972 1972 1972 1972 1973 1973 1973 1973 1973 1972 1972 1972 1973 1973 1973 1972 1971 1971 1971 1971 1972 1972 1972 1972 1972 1973 1973 1975 1976 1976 1977 1977 1978 1978 1978 1978 1978 1978 1980 1981 1983 1984 1984 1985 1985 1985 1985 1985 1985 1985 1986 1987 1989 1990 1992 1993 1995 1999 2000 2000 2001 2001 2003 2004 2006 2006 2007 2008 2009 2009 2009 2009 2009 2009 2009 2010 2010 2010 2010 2010 2010 2010 2011 2014 2016 2016 2018 2022 2024 2024 2024 2023 2023 2023 2025 2025 2027 2027 2028 2028 2028 2030 2030 2030 2029 2027 2027 2026 2027 2027 2028 2028 2028 2027 2027 2024 2024 2020 2015 2013 2011 2011 2005 1998 1991 1986 1979 1974 1970 1966 1960 1960 1951 1951 1951 1962 1966 1975 1975 1978 1978
0 0 0 0 0 0 2430 2433 2443 2448 2448 2470 2556 2659 2717 2727 2744 2784 2850 2867 2932 2980 2997 3005 3011 3032 3034 3035 3035 3068 3071 3074 3079 3079 3104 3122 3123 3128 3129 3130 3135 3137 3137 3137 3137 3137 3135 3130 3130 3130 3137 3137 3137 3141 3142 3144 3172 3177 3181 3182 3186 3187 3189 3192 3194 3196 3200 3201 3201 3204 3204 3205 3214 3216 3216 3217 3221 3223 3225 3226 3231 3232 3232 3233 3233 3233 3240 3242 3244 3246 3247 3250 3254 3258 3259 3262 3269 3281 3282 3283 3283 3284 3288 3297 3307 3316 3322 3323 3323 3324 3324 3324 3331 3337 3342 3347 3351 3353 3358 3364 3372 3377 3379 3379 3380 3380 3383 3383 3385 3389 3393 3397 3398 3398 3398 3395 3395 3395 3405 3407 3416 3419 3430 3431 3431 3432 3432 3432 3432 3427 3427 3427 3440 3442 3442 3443 3446 3448 3455 3465 3473 3476 3477 3480 3486 3493 3497 3501 3501 3502 3502 3501 3499 3499 3499 3506 3513 3514 3515 3515 3517 3518 3518 3520 3520 3520 3516 3516 3516 3518 3524 3532 3539 3540 3540 3540 3540 3540 3540 3540 3541 3542 3542 3542 3542 3540 3536 3536 3536 3546 3553 3557 3560 3562 3562 3562 3560 3560 3560 3563 3563 3563 3561 3556 3552 3550 3548 3546 3546 3543 3541 3538 3533 3521 3521 3521 3521 3521 3519 3511 3483 3470 3459 3445 3444 3253 3080 0 0 0 0 0 0 1644 1625 1619 1617 1609 1601 1595 1593 1591 1587 1585 1581 1579 1576 1574 1572 1571 1570 1568 1567 1566 1565 1564 1563 1562 1561 1560 1559 1558 1558 1557 1556 1555 1553 1552 1551 1551 1549 1548 1547 1547 1546 1543 1542 1540 1540 1539 1539 1539 1539 1538 1536 1535 1534 1534 1532 1531 1530 1529 1527 1526 1526 1525 1524 1523 1523 1522 1521 1521 1519 1518 1517 1516 1515 1514 1513 1511 1508 1507 1505 1505 1503 1503 1502 1502 1502 1503 1503 1504 1505 1507 1507 1507 1510 1514 1515 1515 1516 1516 1516 1517 1517 1528 1537 1541 1545 1558 1571 1586 1599 0 0 0 0 0 2076 2091 2091 2091 2089 2088 2087 2085 2085 2083 2083 2080 2079 2077 2073 2071 2068 2066 2065 2063 2060 2056 2055 2055 2054 2053 2052 2049 2048 2045 2044 2042 2040 2039 2037 2036 2035 2034 2031 2030 2028 2026 2024 2022 2021 2020 2019 2018 2017 2015 2015 2014 2014 2013 2012 2011 2010 2010 2010 2010 2010 2010 2010 2010 2010 2010 2010 2010 2010 2011 2011 2011 2010 2009 2009 2008 2008 2007 2005 2004 2002 2000 2000 1998 1998 1997 1995 1993 1990 1987 1984 1982 1982 1980 1979 1978 1978 1978 1979 1979 1979 1979 1979 1979 1979 1979 1979 1979 1979 1978 1978 1977 1976 1976 1976 1976 1975 1975 1975 1975 1974 1974 1974 1973 1972 1972 1970 1970 1970 1970 1970 1970 1970 1970 1970 1970 1970 1970 1970 1970 1970 1969 1969 1969 1969 1970 1970 1970 1971 1971 1971 1971 1973 1973 1974 1975 1975 1976 1976 1977 1977 1977 1977 1977 1977 1979 1981 1983 1983 1983 1983 1983 1983 1983 1983 1983 1984 1986 1986 1988 1988 1989 1990 1994 1997 1998 1999 2000 2002 2003 2004 2004 2005 2007 2009 2009 2009 2009 2008 2008 2008 2009 2009 2009 2009 2009 2009 2009 2011 2012 2012 2014 2015 2019 2024 2024 2024 2022 2022 2022 2023 2025 2026 2026 2027 2027 2027 2027 2027 2026 2022 2022 2022 2023 2024 2025 2025 2025 2025 2025 2024 2017 2016 2015 2013 2010 2007 2005 2002 1998 1991 1986 1976 1970 1969 1965 1960 1951 1948 1948 1948 1959 1972 1977 1977 1982 1982
0 0 0 0 0 0 2430 2431 2433 2448 2448 2470 2532 2651 2714 2743 2772 2808 2850 2900 2962 3055 3055 3055 3045 3038 3034 3034 3034 3053 3071 3074 3077 3079 3096 3122 3123 3128 3129 3130 3135 3135 3137 3137 3137 3137 3135 3126 3126 3126 3135 3135 3135 3139 3140 3144 3170 3176 3181 3182 3184 3186 3188 3192 3194 3196 3201 3204 3205 3206 3206 3214 3216 3216 3220 3220 3220 3221 3223 3225 3229 3231 3231 3235 3236 3240 3245 3246 3247 3247 3247 3250 3253 3258 3261 3267 3276 3281 3283 3283 3283 3285 3287 3293 3305 3316 3323 3323 3325 3327 3327 3327 3335 3340 3344 3348 3352 3354 3359 3364 3372 3377 3379 3379 3380 3380 3384 3385 3388 3392 3396 3400 3402 3402 3404 3405 3407 3407 3412 3415 3416 3422 3428 3431 3431 3432 3437 3444 3444 3444 3442 3441 3441 3442 3443 3446 3450 3453 3461 3470 3473 3476 3477 3480 3486 3493 3505 3508 3508 3508 3507 3507 3503 3503 3503 3507 3519 3520 3521 3521 3521 3521 3522 3522 3522 3521 3521 3521 3522 3525 3530 3537 3545 3545 3545 3545 3545 3545 3546 3546 3546 3546 3547 3547 3547 3547 3544 3544 3544 3550 3559 3563 3564 3564 3564 3563 3561 3561 3561 3564 3564 3564 3561 3557 3553 3551 3551 3546 3546 3544 3541 3538 3533 3521 3521 3521 3521 3521 3519 3508 3480 3479 3467 3459 3449 3373 3207 2782 0 0 0 0 0 1644 1625 1619 1610 1608 1601 1595 1592 1587 1587 1584 1581 1579 1576 1574 1573 1571 1570 1568 1567 1566 1565 1565 1563 1562 1561 1561 1560 1559 1558 1558 1557 1555 1554 1553 1552 1551 1549 1549 1548 1548 1548 1545 1543 1541 1540 1540 1540 1539 1539 1539 1537 1536 1534 1534 1533 1531 1530 1529 1527 1527 1526 1525 1525 1523 1523 1523 1521 1521 1520 1520 1518 1517 1516 1514 1513 1512 1510 1509 1507 1505 1504 1503 1503 1503 1503 1503 1503 1504 1505 1507 1507 1507 1510 1513 1513 1515 1516 1516 1520 1524 1525 1532 1538 1544 1554 1570 1597 1597 0 0 0 0 0 0 2088 2091 2091 2091 2089 2088 2086 2083 2082 2080 2079 2077 2076 2074 2072 2068 2064 2063 2062 2060 2057 2054 2052 2052 2052 2051 2051 2049 2047 2045 2042 2041 2038 2037 2035 2035 2033 2031 2030 2028 2025 2023 2021 2020 2020 2019 2017 2016 2014 2014 2013 2013 2012 2011 2010 2010 2009 2009 2008 2008 2008 2008 2008 2008 2008 2009 2009 2009 2009 2009 2009 2009 2008 2008 2007 2007 2006 2005 2005 2002 2001 2000 1998 1998 1998 1997 1995 1993 1989 1987 1983 1982 1980 1980 1978 1975 1975 1975 1976 1976 1977 1976 1976 1976 1976 1976 1977 1977 1977 1977 1976 1976 1976 1975 1974 1974 1974 1974 1974 1973 1972 1972 1972 1972 1972 1971 1970 1970 1970 1969 1969 1968 1968 1968 1968 1968 1968 1968 1968 1967 1967 1967 1967 1967 1968 1968 1970 1970 1970 1970 1970 1971 1971 1972 1972 1973 1974 1975 1976 1976 1976 1975 1975 1975 1976 1977 1979 1981 1982 1982 1982 1981 1981 1981 1981 1981 1981 1984 1984 1986 1987 1987 1989 1991 1993 1995 1995 1997 1999 2002 2002 2003 2004 2006 2008 2009 2009 2009 2008 2008 2008 2008 2009 2009 2009 2009 2009 2009 2010 2010 2010 2010 2012 2015 2018 2019 2020 2020 2020 2020 2020 2020 2021 2021 2021 2021 2021 2021 2020 2017 2017 2017 2017 2018 2019 2019 2019 2018 2018 2018 2016 2014 2014 2014 2011 2009 2005 2003 1999 1997 1987 1984 1973 1965 1963 1962 1960 1951 1948 1948 1948 1959 1972 1984 1986 1987 1988
0 0 0 0 0 0 2430 2431 2433 2448 2448 2470 2532 2632 2712 2757 2824 2878 2892 2931 2976 3055 3055 3055 3045 3038 3031 3031 3031 3053 3071 3074 3077 3079 3095 3114 3120 3128 3128 3130 3134 3135 3137 3137 3137 3137 3135 3124 3124 3124 3132 3132 3139 3141 3142 3156 3165 3176 3181 3182 3184 3186 3188 3192 3193 3199 3204 3212 3212 3214 3215 3220 3220 3220 3219 3219 3219 3221 3222 3223 3228 3231 3233 3233 3234 3241 3245 3247 3248 3248 3251 3253 3253 3260 3264 3269 3276 3281 3283 3283 3283 3283 3283 3288 3301 3323 3325 3325 3327 3327 3327 3330 3335 3341 3345 3348 3353 3354 3360 3364 3372 3376 3379 3380 3380 3381 3385 3386 3391 3393 3397 3400 3403 3406 3406 3408 3410 3415 3417 3420 3423 3424 3428 3431 3432 3433 3439 3452 3452 3452 3451 3445 3444 3444 3445 3447 3454 3458 3461 3470 3473 3476 3477 3480 3486 3493 3505 3511 3512 3512 3512 3511 3509 3509 3509 3517 3527 3527 3527 3527 3526 3526 3527 3527 3526 3524 3524 3524 3530 3533 3539 3544 3550 3551 3551 3551 3551 3551 3551 3552 3554 3557 3558 3561 3561 3561 3557 3555 3555 3555 3564 3567 3567 3567 3564 3564 3562 3562 3562 3564 3564 3564 3563 3560 3557 3554 3551 3549 3546 3544 3536 3531 3525 3519 3519 3519 3519 3519 3519 3496 3470 3470 3470 3459 3457 3373 3233 2855 0 0 0 0 0 1643 1614 1607 1605 1604 1600 1594 1589 1586 1586 1584 1581 1578 1576 1575 1574 1572 1571 1569 1568 1568 1566 1565 1564 1563 1563 1562 1561 1559 1558 1558 1558 1557 1556 1554 1553 1551 1550 1549 1549 1548 1548 1546 1544 1542 1540 1540 1540 1540 1539 1539 1538 1536 1535 1534 1533 1532 1530 1529 1528 1528 1527 1526 1525 1524 1523 1523 1522 1521 1521 1520 1519 1519 1518 1516 1513 1512 1511 1510 1508 1507 1506 1505 1503 1503 1503 1503 1504 1504 1505 1506 1506 1506 1508 1512 1513 1516 1517 1521 1524 1529 1532 1533 1543 1549 1565 1600 1608 0 0 0 0 0 0 2070 2090 2091 2091 2090 2089 2086 2085 2082 2081 2079 2078 2076 2074 2071 2069 2065 2063 2060 2059 2057 2055 2052 2051 2050 2049 2049 2049 2048 2045 2044 2041 2039 2036 2035 2033 2032 2031 2029 2027 2026 2023 2021 2020 2019 2018 2016 2014 2012 2012 2011 2011 2011 2010 2009 2008 2007 2006 2006 2006 2006 2006 2006 2006 2006 2006 2006 2006 2007 2007 2007 2007 2007 2006 2006 2005 2005 2004 2004 2003 2002 2000 1999 1998 1997 1997 1996 1995 1993 1989 1986 1983 1981 1979 1977 1976 1974 1974 1974 1974 1974 1974 1974 1974 1974 1974 1974 1974 1976 1976 1976 1976 1975 1975 1974 1974 1974 1973 1972 1972 1971 1970 1970 1970 1970 1970 1970 1970 1969 1969 1968 1968 1967 1967 1967 1966 1964 1964 1964 1965 1965 1965 1965 1966 1966 1967 1968 1968 1968 1970 1970 1970 1970 1970 1970 1972 1973 1974 1974 1975 1975 1975 1975 1975 1975 1976 1977 1979 1979 1979 1979 1980 1980 1980 1980 1980 1980 1981 1982 1984 1985 1985 1987 1988 1990 1992 1993 1994 1995 1997 1999 2000 2002 2003 2005 2006 2008 2008 2008 2007 2007 2007 2007 2009 2009 2009 2009 2009 2008 2008 2008 2008 2008 2008 2011 2012 2015 2015 2016 2016 2016 2016 2016 2016 2016 2016 2016 2014 2013 2011 2010 2010 2010 2013 2014 2014 2014 2012 2012 2012 2010 2008 2008 2008 2008 2008 2006 2005 2002 1999 1996 1987 1976 1972 1965 1963 1962 1960 1951 1951 1951 1953 1959 1972 1983 1986 1987 1988
0 0 0 0 0 0 2410 2429 2433 2434 2467 2485 2525 2610 2695 2757 2824 2881 2913 2932 2976 3055 3055 3055 3045 3020 3020 3020 3031 3053 3077 3086 3089 3089 3095 3106 3112 3116 3122 3125 3126 3134 3135 3135 3135 3135 3133 3124 3124 3124 3132 3139 3144 3151 3161 3165 3165 3172 3172 3177 3180 3182 3191 3193 3199 3199 3204 3212 3214 3220 3222 3222 3222 3222 3221 3221 3221 3221 3223 3224 3228 3233 3233 3234 3239 3244 3246 3247 3248 3249 3253 3253 3253 3263 3265 3269 3276 3279 3282 3283 3283 3283 3283 3288 3301 3323 3326 3326 3328 3328 3328 3331 3335 3341 3345 3348 3353 3355 3360 3366 3370 3373 3378 3380 3381 3382 3385 3389 3392 3394 3397 3400 3403 3408 3410 3411 3412 3416 3420 3422 3428 3428 3430 3434 3434 3435 3440 3454 3459 3459 3459 3450 3450 3450 3450 3453 3457 3461 3467 3470 3473 3474 3474 3476 3481 3491 3505 3511 3512 3512 3512 3511 3511 3511 3514 3525 3527 3528 3528 3529 3529 3530 3531 3533 3533 3534 3534 3536 3542 3543 3545 3548 3553 3555 3555 3555 3551 3551 3551 3554 3558 3563 3573 3573 3573 3572 3572 3567 3567 3567 3568 3568 3568 3567 3565 3565 3565 3564 3564 3564 3564 3564 3563 3560 3557 3556 3553 3549 3546 3543 3536 3528 3522 3514 3514 3514 3514 3514 3505 3496 3472 3472 3472 3472 3472 3373 3233 2855 2528 0 0 0 0 1632 1606 1599 1598 1595 1595 1593 1589 1586 1586 1583 1581 1578 1576 1575 1574 1572 1571 1570 1569 1568 1566 1566 1566 1564 1563 1562 1561 1560 1559 1559 1558 1558 1558 1556 1554 1553 1552 1551 1550 1550 1548 1546 1545 1543 1540 1540 1540 1540 1540 1539 1538 1537 1536 1535 1533 1532 1531 1530 1529 1528 1527 1526 1526 1525 1524 1523 1522 1522 1521 1521 1521 1519 1518 1516 1514 1513 1512 1511 1509 1508 1507 1505 1505 1504 1504 1504 1504 1504 1505 1506 1506 1506 1508 1510 1510 1516 1518 1528 1534 1536 1539 1540 1550 1556 1576 0 0 0 0 0 0 0 2061 2089 2089 2089 2089 2087 2084 2083 2082 2082 2081 2079 2077 2075 2073 2071 2067 2064 2061 2060 2058 2057 2054 2052 2050 2049 2048 2047 2046 2045 2044 2042 2039 2036 2033 2032 2031 2030 2029 2028 2025 2022 2020 2019 2018 2017 2015 2014 2012 2011 2010 2010 2009 2009 2008 2007 2007 2006 2005 2005 2004 2004 2004 2004 2004 2004 2004 2004 2005 2005 2005 2005 2005 2005 2005 2004 2004 2004 2004 2003 2002 2002 2000 1999 1997 1997 1996 1995 1994 1992 1989 1986 1983 1980 1979 1977 1975 1973 1972 1972 1972 1972 1972 1972 1972 1971 1971 1972 1972 1973 1975 1975 1975 1974 1973 1973 1972 1972 1972 1971 1970 1970 1969 1969 1969 1969 1969 1969 1969 1968 1968 1967 1967 1967 1967 1966 1966 1964 1963 1963 1963 1964 1964 1964 1965 1965 1966 1966 1967 1967 1969 1969 1970 1970 1970 1970 1971 1972 1972 1973 1973 1974 1974 1974 1975 1975 1975 1977 1978 1978 1978 1978 1978 1978 1979 1979 1980 1980 1981 1982 1982 1983 1984 1986 1988 1990 1991 1991 1992 1993 1995 1998 1999 2002 2003 2004 2005 2005 2007 2007 2007 2007 2007 2007 2007 2008 2008 2008 2007 2007 2007 2006 2003 2003 2003 2006 2008 2009 2010 2011 2012 2012 2012 2012 2013 2015 2015 2015 2012 2008 2008 2008 2008 2009 2010 2011 2011 2011 2011 2011 2010 2010 2007 2005 2005 2005 2005 2005 2003 2001 1998 1993 1986 1975 1972 1965 1965 1965 1969 1969 1969 1966 1966 1966 1977 1983 1986 1987 1988
0 0 0 0 0 0 2393 2407 2424 2446 2485 2485 2496 2572 2646 2757 2824 2883 2916 2932 2976 2996 2996 2996 2996 2996 3006 3020 3043 3076 3090 3094 3095 3102 3102 3106 3108 3112 3112 3113 3123 3126 3127 3127 3126 3121 3121 3121 3121 3126 3132 3139 3148 3163 3165 3172 3172 3172 3172 3177 3180 3182 3191 3193 3199 3202 3204 3212 3214 3221 3223 3223 3223 3222 3221 3221 3221 3224 3225 3225 3228 3232 3234 3235 3239 3246 3248 3249 3250 3251 3254 3257 3259 3263 3267 3271 3274 3276 3282 3284 3284 3285 3286 3288 3301 3323 3327 3328 3328 3328 3328 3331 3337 3343 3348 3350 3353 3356 3361 3366 3370 3373 3377 3380 3382 3383 3386 3389 3392 3394 3397 3400 3405 3411 3415 3415 3417 3421 3421 3425 3432 3434 3436 3436 3436 3438 3446 3458 3465 3465 3465 3452 3451 3451 3451 3453 3458 3462 3472 3473 3473 3473 3473 3474 3478 3485 3495 3508 3512 3512 3512 3512 3512 3515 3521 3526 3527 3528 3528 3529 3530 3533 3536 3538 3542 3544 3547 3550 3551 3552 3553 3555 3557 3559 3559 3559 3556 3556 3556 3557 3560 3569 3573 3573 3573 3574 3574 3572 3572 3572 3571 3570 3570 3570 3570 3570 3570 3566 3564 3564 3564 3564 3563 3560 3557 3556 3553 3549 3546 3542 3535 3527 3521 3513 3512 3508 3505 3503 3496 3495 3472 3472 3469 3467 3467 3361 3233 2855 2528 0 0 0 0 1622 1605 1597 1592 1591 1591 1591 1589 1586 1585 1583 1581 1579 1577 1575 1574 1573 1572 1570 1569 1569 1567 1567 1566 1565 1564 1563 1562 1560 1559 1559 1559 1559 1559 1556 1555 1554 1554 1554 1554 1551 1548 1546 1545 1543 1542 1541 1541 1541 1541 1540 1538 1537 1536 1535 1534 1533 1531 1530 1530 1529 1528 1527 1526 1525 1524 1523 1523 1522 1522 1521 1521 1520 1518 1517 1516 1514 1512 1511 1510 1509 1507 1506 1506 1505 1505 1504 1504 1504 1505 1505 1505 1505 1505 1508 1510 1519 1529 1536 1538 1547 1563 1569 1571 0 0 0 0 0 0 0 0 0 2087 2089 2089 2089 2088 2087 2083 2083 2082 2082 2080 2078 2075 2074 2072 2070 2067 2063 2061 2059 2057 2056 2054 2052 2049 2047 2046 2046 2044 2043 2043 2039 2037 2032 2031 2030 2030 2029 2029 2025 2023 2020 2018 2017 2016 2016 2014 2011 2010 2009 2009 2008 2007 2007 2006 2006 2006 2006 2003 2003 2002 2002 2002 2002 2002 2002 2002 2002 2003 2004 2004 2004 2004 2004 2004 2003 2003 2003 2003 2002 2002 2001 2000 1998 1997 1996 1995 1994 1993 1992 1989 1986 1983 1980 1978 1976 1974 1973 1972 1972 1971 1971 1971 1970 1970 1970 1970 1970 1970 1971 1972 1972 1972 1972 1972 1972 1972 1971 1971 1970 1970 1969 1968 1968 1967 1967 1967 1967 1967 1967 1966 1966 1966 1966 1966 1966 1965 1964 1963 1962 1962 1962 1963 1963 1963 1964 1964 1964 1966 1967 1968 1968 1969 1969 1969 1970 1970 1971 1972 1972 1972 1974 1974 1974 1974 1974 1975 1977 1977 1977 1977 1977 1977 1978 1978 1978 1979 1980 1981 1981 1982 1982 1984 1985 1988 1990 1991 1991 1991 1992 1995 1998 1999 2001 2002 2003 2003 2003 2004 2006 2006 2006 2007 2007 2007 2006 2006 2005 2005 2005 2005 2004 2000 2000 2000 2003 2006 2007 2008 2009 2009 2009 2009 2009 2010 2011 2011 2011 2011 2008 2007 2007 2007 2008 2009 2010 2010 2011 2011 2011 2010 2008 2006 2002 2002 2002 2002 2002 2002 1998 1994 1989 1983 1975 1972 1972 1972 1974 1977 1977 1977 1974 1974 1974 1980 1983 1985 1985 1985
0 0 0 0 0 0 2380 2407 2429 2449 2494 2512 2524 2528 2586 2695 2813 2883 2921 2932 2962 2972 2972 2977 2978 2987 3006 3022 3048 3085 3097 3108 3108 3108 3108 3108 3108 3112 3112 3113 3119 3121 3126 3126 3126 3121 3121 3121 3129 3142 3149 3151 3161 3176 3180 3180 3180 3177 3177 3177 3180 3182 3191 3200 3201 3202 3204 3212 3214 3222 3223 3223 3223 3222 3222 3222 3222 3226 3227 3227 3229 3232 3234 3236 3242 3247 3250 3252 3255 3256 3258 3258 3259 3264 3267 3273 3273 3276 3282 3285 3285 3288 3294 3294 3301 3328 3331 3331 3331 3331 3331 3335 3341 3346 3352 3354 3355 3361 3368 3368 3370 3373 3377 3382 3383 3384 3386 3389 3392 3394 3396 3400 3407 3413 3420 3420 3422 3422 3423 3430 3435 3440 3442 3443 3443 3448 3456 3470 3473 3473 3473 3459 3454 3453 3453 3454 3459 3464 3473 3473 3473 3473 3473 3474 3478 3485 3491 3496 3503 3503 3507 3507 3511 3515 3521 3526 3527 3527 3528 3529 3530 3534 3540 3544 3548 3554 3557 3558 3558 3558 3560 3561 3561 3561 3561 3560 3558 3558 3558 3559 3561 3569 3574 3574 3574 3574 3575 3575 3575 3574 3574 3574 3574 3574 3573 3573 3572 3568 3566 3565 3564 3564 3560 3556 3556 3556 3553 3547 3543 3539 3533 3526 3518 3508 3500 3496 3495 3492 3491 3477 3477 3477 3463 3463 3388 3272 3214 2841 2528 0 0 0 0 1611 1603 1597 1591 1591 1591 1590 1588 1586 1585 1583 1581 1579 1577 1576 1575 1574 1572 1571 1570 1570 1569 1569 1567 1567 1565 1563 1562 1561 1561 1560 1560 1560 1559 1556 1555 1555 1555 1554 1554 1551 1547 1545 1545 1544 1543 1543 1542 1541 1541 1540 1538 1537 1536 1535 1534 1533 1532 1531 1530 1529 1528 1528 1527 1526 1525 1525 1524 1524 1523 1522 1521 1520 1518 1517 1516 1514 1513 1512 1511 1510 1509 1508 1507 1507 1506 1506 1506 1506 1506 1506 1505 1505 1505 1507 1510 1523 1536 1546 1552 1565 0 0 0 0 0 0 0 0 0 0 2062 2079 2087 2089 2089 2089 2088 2087 2083 2082 2080 2080 2077 2075 2072 2071 2070 2067 2065 2062 2060 2058 2056 2054 2053 2051 2049 2047 2044 2044 2043 2042 2040 2037 2033 2031 2029 2028 2028 2027 2026 2023 2020 2017 2016 2015 2015 2015 2013 2011 2010 2008 2007 2006 2005 2005 2004 2004 2004 2003 2002 2001 2001 2001 2001 2001 2000 2000 2000 2001 2001 2002 2002 2002 2002 2002 2002 2002 2002 2002 2002 2002 2002 2000 1999 1998 1997 1996 1995 1994 1993 1991 1988 1985 1982 1979 1977 1974 1972 1972 1972 1972 1971 1970 1969 1969 1968 1968 1968 1968 1968 1970 1970 1970 1970 1970 1970 1970 1970 1970 1970 1970 1969 1969 1967 1967 1966 1966 1966 1966 1966 1966 1966 1965 1965 1965 1965 1965 1965 1963 1962 1962 1962 1961 1962 1962 1962 1962 1963 1963 1965 1966 1967 1967 1968 1968 1968 1969 1970 1970 1970 1971 1972 1973 1974 1974 1974 1974 1974 1975 1976 1976 1977 1977 1977 1977 1978 1978 1979 1980 1980 1981 1981 1982 1984 1984 1987 1988 1990 1990 1991 1991 1994 1995 1998 1999 2000 2001 2001 2001 2003 2003 2006 2006 2006 2006 2005 2004 2002 2002 2002 2000 2000 2000 1997 1997 1997 2002 2005 2006 2007 2008 2008 2008 2008 2006 2006 2006 2008 2008 2008 2006 2006 2006 2007 2008 2008 2009 2009 2009 2009 2009 2008 2005 2003 2001 2000 2000 2000 2000 1998 1997 1994 1986 1977 1972 1972 1972 1972 1975 1978 1978 1978 1977 1977 1977 1981 1981 1982 1983 1984
0 0 0 0 0 0 2353 2390 2442 2453 2507 2512 2524 2528 2586 2695 2794 2881 2916 2932 2962 2972 2972 2977 2978 2987 3007 3031 3055 3088 3103 3111 3121 3122 3122 3122 3116 3113 3113 3113 3119 3121 3126 3126 3126 3126 3127 3132 3145 3157 3160 3163 3172 3184 3184 3185 3185 3187 3188 3191 3192 3200 3205 3205 3206 3208 3212 3213 3214 3222 3222 3222 3222 3222 3223 3223 3223 3226 3227 3228 3231 3233 3235 3238 3243 3248 3257 3258 3258 3260 3259 3259 3260 3264 3267 3273 3275 3276 3283 3291 3291 3291 3295 3295 3301 3328 3335 3337 3340 3340 3340 3342 3348 3355 3358 3360 3360 3364 3369 3372 3372 3374 3378 3382 3385 3386 3386 3388 3389 3391 3393 3400 3408 3415 3424 3426 3429 3431 3433 3436 3440 3441 3445 3450 3453 3464 3473 3480 3480 3480 3474 3462 3457 3456 3456 3456 3461 3467 3473 3478 3478 3478 3478 3478 3478 3485 3491 3496 3501 3503 3503 3507 3510 3515 3521 3523 3524 3525 3525 3526 3530 3534 3542 3550 3558 3559 3565 3566 3566 3566 3565 3565 3565 3565 3563 3563 3562 3562 3562 3566 3567 3574 3574 3576 3576 3576 3577 3578 3578 3578 3578 3576 3576 3576 3575 3573 3572 3570 3567 3566 3563 3559 3551 3551 3551 3551 3551 3543 3535 3529 3524 3517 3509 3500 3496 3492 3492 3492 3489 3463 3463 3460 3460 3361 3320 3095 2834 2516 0 0 0 0 1629 1605 1597 1596 1591 1591 1590 1589 1587 1586 1585 1583 1581 1580 1578 1576 1575 1575 1573 1572 1571 1571 1570 1569 1569 1568 1567 1566 1562 1562 1561 1561 1561 1560 1559 1557 1556 1556 1555 1554 1554 1551 1547 1546 1545 1545 1544 1543 1542 1541 1540 1540 1538 1538 1537 1535 1534 1533 1532 1531 1530 1530 1529 1528 1528 1528 1526 1525 1525 1524 1524 1523 1521 1520 1519 1518 1516 1515 1514 1513 1513 1512 1511 1510 1509 1509 1508 1507 1507 1507 1506 1506 1505 1505 1505 1505 1510 1525 1536 1549 1572 0 0 0 0 0 0 0 0 0 0 2055 2072 2079 2087 2087 2087 2087 2087 2086 2083 2082 2080 2076 2075 2073 2072 2070 2068 2065 2062 2061 2059 2057 2056 2054 2051 2050 2048 2045 2043 2043 2041 2040 2037 2033 2031 2029 2026 2026 2025 2024 2023 2020 2017 2015 2015 2014 2013 2012 2010 2009 2008 2007 2006 2004 2003 2003 2002 2002 2001 2001 2001 1999 1999 1999 1998 1998 1999 1999 1999 2000 2000 2001 2001 2001 2001 2000 2000 2000 2000 2000 2000 2000 2000 1999 1999 1997 1996 1995 1994 1994 1993 1991 1988 1984 1981 1977 1975 1973 1971 1970 1970 1970 1969 1968 1967 1967 1966 1966 1966 1967 1967 1968 1968 1968 1968 1969 1969 1969 1969 1969 1969 1969 1969 1967 1966 1965 1965 1965 1965 1965 1965 1965 1965 1964 1964 1964 1964 1964 1964 1963 1961 1961 1961 1961 1961 1961 1961 1961 1962 1963 1964 1966 1966 1966 1967 1967 1968 1968 1969 1969 1970 1970 1972 1972 1973 1973 1973 1974 1974 1974 1976 1976 1976 1976 1977 1977 1978 1978 1978 1979 1980 1980 1981 1981 1983 1984 1986 1988 1989 1989 1989 1991 1992 1993 1995 1996 1997 1999 2000 2001 2003 2003 2005 2005 2005 2003 2002 2000 1999 1998 1998 1998 1998 1998 1996 1996 1996 2001 2003 2005 2006 2007 2007 2007 2006 2005 2004 2004 2004 2004 2004 2005 2005 2005 2007 2007 2007 2007 2007 2007 2007 2005 2004 2002 2000 2000 2000 1999 1999 1998 1993 1992 1992 1985 1977 1972 1972 1972 1973 1975 1979 1979 1979 1979 1979 1979 1982 1982 1982 1982 1983
0 0 0 0 0 0 0 2387 2442 2483 2512 2516 2524 2528 2586 2695 2794 2872 2921 2932 2962 2972 2972 2977 2978 2988 3019 3032 3063 3088 3103 3111 3121 3129 3129 3129 3116 3116 3116 3118 3119 3121 3128 3142 3151 3151 3153 3153 3155 3160 3164 3166 3176 3186 3186 3187 3187 3190 3195 3200 3201 3202 3205 3206 3209 3213 3217 3222 3224 3224 3224 3222 3222 3222 3223 3225 3229 3229 3230 3232 3234 3237 3240 3242 3252 3254 3265 3266 3266 3266 3263 3263 3263 3269 3273 3274 3279 3284 3290 3297 3300 3301 3302 3304 3313 3328 3339 3343 3347 3348 3349 3350 3355 3362 3362 3363 3363 3365 3371 3374 3375 3375 3378 3383 3386 3388 3388 3388 3389 3391 3393 3400 3408 3416 3425 3431 3436 3439 3441 3441 3443 3445 3445 3450 3465 3473 3478 3481 3481 3481 3478 3472 3467 3461 3461 3461 3467 3475 3477 3482 3482 3482 3481 3481 3481 3486 3491 3496 3501 3503 3503 3507 3510 3515 3520 3523 3524 3524 3525 3526 3530 3534 3543 3553 3563 3570 3577 3577 3577 3576 3574 3572 3572 3571 3570 3569 3569 3569 3573 3575 3576 3576 3576 3576 3576 3576 3579 3580 3580 3580 3578 3578 3576 3576 3575 3574 3573 3570 3568 3566 3563 3559 3549 3547 3547 3546 3545 3538 3528 3517 3509 3504 3497 3496 3492 3491 3492 3492 3478 3467 3454 3449 3417 3312 3036 2713 0 0 0 0 0 0 1606 1598 1597 1595 1592 1592 1590 1589 1587 1586 1585 1584 1582 1581 1580 1578 1577 1576 1574 1573 1572 1572 1571 1570 1569 1568 1568 1566 1563 1563 1562 1562 1561 1561 1560 1558 1556 1556 1555 1555 1554 1551 1547 1546 1545 1545 1544 1543 1543 1542 1540 1540 1539 1538 1537 1536 1535 1533 1533 1532 1531 1531 1530 1529 1529 1528 1527 1527 1526 1525 1524 1523 1522 1521 1520 1519 1517 1516 1515 1514 1513 1513 1512 1511 1510 1509 1509 1508 1507 1507 1507 1506 1506 1505 1505 1505 1510 1525 1536 1549 0 0 0 0 0 0 0 0 0 2026 2041 2064 2074 2080 2082 2085 2086 2086 2086 2086 2083 2082 2079 2076 2074 2072 2070 2068 2065 2062 2060 2059 2058 2056 2054 2051 2050 2048 2046 2043 2042 2040 2040 2038 2034 2031 2028 2026 2025 2024 2023 2022 2020 2018 2016 2014 2013 2012 2010 2009 2009 2008 2008 2005 2004 2003 2002 2001 2000 2000 2000 1999 1999 1998 1997 1997 1997 1997 1997 1997 1998 1998 1999 2000 2000 2000 1999 1999 1999 1999 1999 1999 1998 1998 1998 1998 1998 1997 1995 1995 1994 1993 1991 1990 1988 1983 1980 1976 1974 1971 1970 1968 1968 1968 1967 1966 1965 1963 1963 1963 1964 1964 1965 1965 1966 1966 1967 1968 1969 1969 1969 1969 1969 1969 1969 1967 1966 1965 1965 1965 1965 1965 1965 1965 1964 1964 1964 1963 1963 1963 1962 1961 1960 1960 1960 1960 1960 1960 1960 1961 1961 1962 1963 1964 1964 1965 1965 1966 1967 1968 1968 1969 1969 1970 1970 1972 1972 1973 1973 1973 1973 1974 1974 1974 1974 1975 1976 1977 1977 1978 1978 1979 1979 1979 1980 1980 1981 1983 1983 1985 1987 1987 1988 1988 1990 1992 1992 1994 1996 1999 2000 2001 2002 2002 2002 2002 2002 1999 1996 1995 1994 1994 1994 1996 1996 1996 1996 1996 1996 2000 2002 2003 2004 2004 2004 2004 2004 2004 2002 2001 2001 2001 2001 2001 2001 2003 2004 2004 2005 2004 2004 2004 2002 2001 2000 1999 1999 1998 1998 1998 1997 1993 1991 1988 1987 1984 1977 1972 1972 1972 1974 1976 1979 1979 1980 1980 1980 1982 1982 1982 1982 1982 1983
0 0 0 0 0 0 0 0 2442 2523 2574 2589 2608 2635 2656 2708 2794 2872 2921 2959 2984 2987 2992 2994 3002 3011 3042 3044 3063 3085 3103 3110 3121 3131 3131 3131 3120 3120 3120 3130 3138 3141 3148 3157 3164 3165 3165 3165 3165 3165 3165 3168 3180 3190 3190 3190 3190 3190 3195 3200 3201 3202 3205 3206 3211 3215 3217 3224 3226 3226 3226 3222 3222 3222 3224 3232 3235 3235 3236 3238 3238 3243 3247 3251 3254 3261 3270 3271 3271 3271 3271 3271 3271 3271 3275 3280 3286 3294 3301 3306 3308 3308 3314 3319 3326 3335 3339 3343 3347 3351 3354 3355 3357 3362 3363 3364 3364 3368 3373 3375 3377 3378 3379 3383 3387 3390 3390 3391 3391 3391 3393 3400 3409 3419 3428 3433 3440 3445 3448 3448 3448 3448 3448 3450 3465 3473 3478 3481 3481 3481 3479 3478 3475 3473 3472 3472 3472 3479 3483 3485 3485 3485 3485 3487 3488 3495 3503 3503 3503 3504 3507 3510 3510 3515 3519 3523 3523 3524 3525 3526 3530 3536 3545 3559 3574 3577 3579 3579 3579 3582 3581 3581 3581 3579 3576 3576 3576 3576 3581 3584 3584 3584 3582 3579 3579 3579 3579 3580 3580 3580 3579 3578 3578 3576 3575 3574 3573 3570 3568 3566 3563 3559 3549 3547 3542 3537 3535 3533 3522 3507 3495 3491 3491 3491 3491 3487 3491 3482 3467 3450 3420 3411 3123 2728 0 0 0 0 0 0 0 1602 1600 1596 1596 1595 1593 1592 1590 1589 1587 1586 1585 1584 1582 1581 1580 1579 1578 1577 1576 1575 1574 1573 1573 1571 1569 1568 1568 1567 1567 1566 1565 1564 1562 1561 1560 1558 1557 1556 1556 1556 1554 1551 1548 1546 1546 1545 1544 1543 1543 1542 1540 1540 1539 1538 1537 1537 1535 1534 1533 1533 1532 1531 1531 1531 1530 1530 1529 1528 1527 1525 1525 1524 1523 1521 1521 1520 1519 1517 1516 1515 1515 1514 1513 1512 1511 1510 1510 1508 1507 1507 1507 1507 1506 1506 1506 1507 1510 1525 1535 1549 0 0 0 0 0 0 0 0 2067 2067 2078 2078 2078 2080 2082 2082 2083 2085 2085 2085 2083 2081 2078 2076 2073 2072 2069 2066 2063 2061 2059 2058 2056 2055 2052 2051 2049 2047 2044 2042 2040 2038 2037 2034 2031 2029 2026 2024 2023 2021 2021 2020 2018 2017 2013 2011 2010 2009 2009 2008 2008 2006 2006 2003 2002 2002 2001 2000 2000 1999 1998 1998 1998 1997 1995 1995 1995 1995 1996 1996 1996 1996 1997 1998 1998 1998 1998 1998 1998 1998 1998 1998 1997 1997 1997 1997 1996 1995 1994 1994 1992 1991 1990 1988 1986 1983 1980 1976 1973 1971 1968 1967 1966 1966 1966 1965 1964 1963 1962 1962 1962 1962 1963 1964 1964 1965 1967 1967 1968 1968 1968 1969 1969 1968 1968 1967 1966 1965 1964 1964 1964 1964 1964 1964 1964 1964 1963 1963 1963 1962 1961 1960 1959 1959 1959 1959 1959 1959 1959 1960 1961 1961 1962 1963 1964 1964 1964 1966 1967 1968 1968 1968 1969 1969 1970 1970 1971 1972 1972 1972 1972 1973 1973 1974 1974 1974 1975 1976 1977 1977 1978 1978 1979 1979 1979 1979 1980 1980 1981 1982 1984 1984 1985 1987 1989 1991 1992 1994 1995 1997 1999 1999 1999 1999 1999 1999 1999 1996 1993 1993 1993 1993 1993 1993 1994 1994 1995 1995 1996 1999 2000 2002 2003 2003 2004 2003 2003 2003 2002 2001 2001 2000 2000 1999 1999 1999 2000 2000 2001 2001 2001 2001 1998 1997 1995 1995 1995 1995 1995 1995 1992 1988 1983 1981 1980 1980 1980 1974 1974 1974 1974 1978 1984 1984 1984 1985 1985 1986 1986 1986 1985 1982 1981
0 0 0 0 0 0 0 0 0 2523 2608 2678 2713 2742 2757 2757 2798 2872 2930 2984 2985 2992 3001 3019 3026 3040 3044 3051 3063 3078 3097 3110 3121 3132 3132 3132 3123 3123 3123 3136 3152 3153 3157 3159 3164 3165 3166 3169 3169 3168 3168 3169 3180 3190 3190 3190 3190 3190 3195 3200 3201 3202 3203 3205 3211 3215 3220 3225 3227 3227 3227 3224 3224 3224 3225 3233 3238 3238 3238 3239 3241 3247 3254 3263 3267 3270 3276 3276 3277 3277 3276 3277 3277 3278 3281 3287 3292 3302 3310 3310 3312 3318 3324 3329 3331 3335 3339 3343 3347 3351 3355 3358 3360 3363 3365 3366 3368 3370 3373 3375 3378 3381 3382 3384 3387 3392 3395 3395 3396 3397 3400 3409 3417 3426 3431 3440 3447 3450 3456 3456 3456 3453 3453 3453 3465 3473 3478 3481 3481 3481 3481 3481 3481 3481 3481 3481 3481 3482 3484 3486 3488 3489 3490 3490 3491 3498 3504 3505 3506 3507 3510 3511 3511 3512 3517 3522 3525 3526 3527 3530 3532 3539 3550 3565 3574 3577 3579 3581 3582 3583 3585 3585 3585 3585 3583 3582 3582 3582 3583 3587 3589 3589 3589 3584 3582 3582 3582 3582 3582 3581 3580 3579 3578 3576 3575 3573 3573 3570 3568 3565 3563 3558 3554 3547 3542 3537 3530 3520 3514 3502 3491 3487 3486 3487 3487 3486 3482 3467 3425 3421 3264 2941 2592 0 0 0 0 0 0 1618 1607 1602 1598 1596 1596 1595 1593 1593 1591 1589 1588 1587 1586 1584 1583 1582 1582 1580 1579 1578 1578 1576 1576 1575 1573 1572 1571 1570 1570 1568 1568 1567 1567 1567 1563 1561 1560 1560 1560 1559 1556 1556 1554 1551 1550 1549 1547 1544 1544 1544 1543 1543 1541 1541 1539 1538 1538 1537 1535 1535 1534 1534 1533 1532 1532 1531 1531 1530 1529 1528 1527 1527 1526 1524 1524 1524 1523 1521 1519 1518 1518 1517 1517 1515 1514 1513 1511 1511 1510 1509 1508 1507 1507 1507 1507 1507 1507 1508 1510 1512 1532 1549 0 0 0 0 0 0 2077 2078 2083 2083 2083 2080 2080 2080 2082 2082 2082 2082 2082 2081 2081 2080 2076 2075 2073 2070 2067 2064 2061 2058 2057 2055 2054 2053 2051 2049 2048 2045 2043 2042 2039 2038 2034 2032 2029 2026 2025 2022 2020 2019 2018 2018 2015 2014 2012 2009 2009 2008 2007 2006 2005 2005 2004 2002 2002 2000 2000 2000 1999 1998 1996 1996 1994 1994 1994 1994 1994 1995 1995 1995 1995 1995 1995 1996 1996 1996 1997 1997 1997 1996 1996 1996 1996 1996 1996 1995 1994 1994 1993 1992 1991 1990 1988 1987 1985 1982 1979 1976 1973 1971 1968 1967 1966 1964 1964 1964 1963 1962 1962 1962 1962 1962 1962 1963 1964 1964 1965 1966 1967 1968 1968 1968 1968 1967 1967 1967 1965 1965 1964 1964 1964 1964 1964 1964 1964 1963 1963 1962 1962 1961 1960 1959 1958 1958 1958 1958 1958 1958 1958 1958 1960 1960 1961 1962 1962 1963 1964 1965 1966 1968 1968 1968 1969 1969 1969 1970 1970 1971 1971 1972 1972 1972 1972 1972 1973 1973 1974 1976 1977 1977 1978 1978 1978 1978 1979 1979 1979 1980 1980 1980 1981 1983 1985 1987 1987 1988 1990 1991 1994 1994 1997 1997 1997 1997 1996 1996 1995 1995 1992 1990 1990 1990 1992 1992 1993 1994 1994 1994 1996 1998 1999 2001 2001 2001 2002 2002 2001 2001 2001 2000 1999 1999 1999 1997 1997 1997 1997 1997 1997 1998 1998 1998 1995 1994 1993 1993 1993 1992 1992 1992 1989 1983 1981 1980 1980 1980 1980 1976 1976 1976 1976 1988 1993 1993 1993 1991 1990 1989 1988 1987 1985 1982 1981
0 0 0 0 0 0 0 0 0 2523 2608 2678 2713 2754 2785 2816 2825 2907 2992 2992 2998 3001 3001 3035 3057 3057 3057 3057 3057 3078 3097 3111 3121 3132 3132 3132 3125 3125 3125 3141 3157 3157 3159 3160 3164 3165 3172 3178 3178 3179 3179 3181 3186 3190 3190 3190 3190 3190 3195 3195 3199 3199 3202 3205 3209 3215 3220 3226 3229 3229 3229 3228 3228 3228 3229 3235 3239 3239 3239 3242 3246 3252 3259 3265 3270 3277 3281 3281 3281 3278 3278 3278 3279 3280 3286 3290 3299 3309 3317 3318 3320 3322 3327 3330 3332 3336 3339 3341 3346 3351 3356 3360 3365 3366 3366 3367 3369 3372 3375 3378 3382 3387 3390 3392 3397 3401 3404 3405 3406 3406 3410 3416 3424 3437 3440 3451 3455 3458 3459 3459 3459 3454 3454 3454 3465 3473 3478 3481 3482 3482 3482 3483 3485 3487 3487 3487 3487 3486 3486 3486 3492 3493 3494 3494 3497 3502 3504 3507 3507 3508 3511 3512 3514 3514 3517 3521 3524 3530 3530 3532 3537 3543 3554 3565 3574 3577 3577 3581 3582 3582 3587 3588 3588 3588 3587 3586 3586 3586 3586 3589 3590 3590 3590 3586 3582 3582 3582 3582 3582 3581 3580 3579 3578 3577 3576 3574 3573 3571 3568 3564 3560 3558 3554 3551 3542 3537 3530 3514 3506 3498 3491 3487 3486 3487 3487 3486 3443 3438 3350 3045 2657 0 0 0 0 0 0 0 1624 1614 1605 1600 1598 1596 1596 1596 1593 1593 1591 1590 1588 1587 1586 1585 1584 1583 1582 1582 1581 1580 1578 1577 1577 1576 1573 1573 1573 1572 1572 1570 1570 1569 1569 1569 1566 1563 1561 1561 1561 1560 1558 1556 1555 1553 1553 1551 1549 1544 1544 1544 1544 1544 1543 1542 1540 1539 1538 1537 1537 1536 1535 1534 1533 1532 1532 1532 1531 1531 1530 1530 1529 1528 1528 1525 1525 1525 1524 1522 1520 1519 1518 1518 1518 1516 1515 1514 1512 1511 1510 1510 1509 1508 1507 1507 1507 1507 1509 1510 1510 1511 1530 1543 0 0 0 0 0 2069 2085 2086 2087 2087 2086 2083 2082 2082 2082 2082 2082 2080 2079 2079 2078 2078 2076 2074 2072 2069 2066 2063 2059 2057 2054 2053 2052 2051 2050 2048 2046 2045 2043 2042 2039 2036 2033 2030 2027 2025 2023 2020 2017 2017 2015 2014 2011 2010 2009 2008 2006 2006 2005 2004 2004 2002 2002 2000 2000 1999 1999 1998 1997 1996 1995 1994 1992 1992 1992 1992 1993 1993 1994 1994 1994 1994 1994 1995 1995 1995 1995 1995 1995 1995 1995 1995 1995 1995 1994 1994 1994 1994 1993 1992 1990 1989 1988 1987 1984 1982 1979 1975 1973 1969 1968 1967 1966 1964 1962 1962 1962 1961 1961 1961 1961 1961 1962 1962 1963 1963 1964 1966 1966 1966 1967 1967 1967 1967 1967 1966 1965 1964 1964 1964 1964 1964 1963 1963 1963 1962 1961 1961 1961 1961 1960 1959 1958 1957 1957 1957 1957 1957 1957 1957 1958 1959 1960 1960 1961 1962 1964 1964 1966 1966 1967 1968 1968 1968 1968 1969 1969 1970 1971 1971 1971 1971 1971 1971 1972 1972 1974 1975 1975 1976 1977 1977 1977 1978 1979 1979 1979 1979 1979 1980 1980 1982 1984 1986 1987 1987 1988 1989 1990 1992 1994 1995 1995 1995 1993 1993 1992 1992 1992 1990 1990 1990 1991 1992 1993 1993 1993 1994 1995 1997 1999 2000 2000 2000 2000 2000 2000 2000 1998 1998 1998 1997 1997 1997 1996 1995 1995 1995 1995 1995 1995 1995 1994 1992 1991 1990 1990 1990 1990 1988 1984 1981 1980 1979 1979 1979 1979 1979 1981 1983 1984 1990 1996 1996 1996 1993 1991 1990 1988 1987 1985 1984 1981
0 0 0 0 0 0 0 0 0 2502 2599 2678 2713 2754 2825 2835 2862 2984 2992 2992 2998 3001 3001 3036 3057 3057 3057 3057 3057 3078 3097 3121 3130 3134 3141 3141 3141 3144 3144 3144 3157 3157 3160 3161 3161 3165 3172 3181 3182 3187 3187 3189 3192 3190 3189 3189 3190 3190 3195 3195 3199 3199 3202 3206 3211 3217 3228 3230 3230 3230 3230 3229 3229 3229 3234 3236 3239 3239 3240 3245 3251 3256 3261 3265 3270 3277 3284 3284 3284 3278 3278 3278 3280 3284 3290 3299 3310 3318 3323 3323 3323 3326 3328 3330 3332 3336 3339 3341 3344 3350 3356 3363 3367 3369 3369 3370 3372 3375 3379 3384 3392 3397 3401 3406 3407 3409 3414 3416 3416 3417 3420 3425 3435 3438 3447 3457 3463 3465 3465 3465 3463 3457 3457 3457 3465 3473 3478 3481 3482 3482 3484 3486 3489 3490 3490 3490 3490 3489 3489 3489 3492 3500 3504 3506 3507 3507 3507 3508 3508 3509 3514 3515 3515 3515 3515 3520 3524 3530 3530 3532 3539 3545 3554 3565 3573 3573 3577 3577 3582 3582 3591 3591 3591 3588 3587 3587 3587 3587 3587 3591 3591 3591 3590 3586 3582 3582 3582 3582 3582 3581 3580 3579 3578 3577 3576 3574 3573 3571 3570 3561 3558 3557 3554 3552 3551 3543 3528 3513 3498 3490 3490 3490 3486 3486 3449 3406 3379 3343 2974 2577 0 0 0 0 0 0 0 1619 1610 1602 1602 1600 1598 1596 1596 1595 1594 1593 1592 1590 1589 1588 1587 1585 1585 1584 1584 1582 1582 1581 1579 1578 1578 1577 1575 1575 1575 1575 1575 1575 1573 1572 1571 1571 1568 1565 1563 1563 1562 1561 1559 1558 1556 1556 1555 1554 1551 1548 1548 1548 1548 1548 1546 1543 1541 1540 1539 1539 1537 1536 1535 1535 1535 1533 1533 1533 1531 1531 1530 1530 1530 1529 1528 1527 1526 1525 1525 1523 1521 1521 1520 1519 1518 1517 1515 1514 1513 1512 1511 1510 1509 1509 1508 1507 1507 1507 1509 1510 1510 1511 1516 1526 0 0 0 0 0 2069 2085 2087 2087 2090 2090 2090 2082 2082 2081 2081 2081 2080 2078 2078 2078 2076 2075 2073 2070 2068 2064 2062 2059 2056 2054 2052 2050 2049 2048 2047 2045 2043 2042 2041 2038 2035 2031 2028 2026 2025 2022 2017 2016 2014 2013 2012 2010 2009 2007 2005 2004 2004 2004 2003 2002 2001 2000 2000 1998 1998 1997 1997 1996 1995 1993 1992 1992 1991 1990 1990 1991 1991 1991 1992 1993 1993 1993 1993 1993 1993 1993 1993 1993 1994 1994 1993 1993 1993 1993 1993 1993 1993 1992 1991 1990 1988 1988 1987 1984 1981 1978 1975 1972 1969 1968 1966 1965 1963 1961 1960 1960 1960 1961 1961 1961 1961 1961 1962 1963 1963 1963 1965 1965 1966 1966 1966 1967 1967 1967 1966 1965 1964 1964 1964 1963 1963 1963 1963 1962 1962 1961 1960 1960 1959 1959 1958 1957 1956 1956 1956 1956 1956 1956 1956 1957 1958 1958 1959 1959 1961 1962 1964 1965 1965 1965 1966 1966 1966 1966 1968 1969 1969 1969 1969 1969 1970 1970 1970 1971 1972 1973 1974 1975 1976 1976 1977 1977 1977 1979 1979 1979 1979 1979 1980 1980 1981 1984 1985 1985 1986 1986 1987 1988 1991 1992 1992 1992 1992 1991 1990 1990 1989 1989 1989 1989 1989 1991 1992 1992 1992 1993 1993 1995 1996 1996 1998 1999 1999 1999 1999 1999 1999 1997 1997 1996 1996 1996 1996 1995 1993 1992 1992 1992 1992 1992 1992 1992 1991 1991 1989 1988 1988 1985 1984 1981 1980 1979 1979 1979 1979 1979 1979 1981 1991 2002 2002 2002 2002 1996 1994 1992 1990 1988 1987 1985 1984 1984
0 0 0 0 0 0 0 0 0 2500 2566 2627 2684 2754 2825 2835 2862 2984 2984 2984 2990 2990 2990 3036 3057 3057 3057 3057 3057 3081 3114 3133 3137 3138 3141 3145 3146 3149 3150 3152 3159 3159 3160 3161 3161 3165 3172 3181 3182 3189 3189 3191 3192 3191 3191 3192 3194 3195 3195 3195 3199 3199 3202 3206 3212 3219 3231 3233 3234 3234 3233 3232 3232 3232 3237 3238 3239 3239 3241 3247 3252 3257 3262 3265 3273 3279 3284 3284 3284 3279 3279 3279 3281 3287 3297 3310 3319 3323 3323 3325 3325 3329 3329 3331 3334 3338 3339 3341 3344 3350 3357 3365 3370 3373 3375 3378 3381 3383 3386 3395 3396 3397 3401 3406 3410 3418 3419 3422 3423 3426 3428 3433 3438 3442 3449 3457 3463 3465 3465 3465 3463 3463 3463 3466 3472 3476 3479 3481 3483 3483 3485 3487 3491 3491 3492 3492 3492 3491 3491 3491 3492 3500 3511 3517 3517 3517 3517 3517 3517 3515 3515 3515 3515 3515 3515 3520 3529 3530 3530 3532 3539 3545 3554 3563 3566 3568 3570 3577 3582 3587 3591 3591 3591 3588 3587 3587 3587 3587 3588 3591 3591 3591 3590 3586 3582 3582 3582 3582 3582 3582 3580 3579 3578 3577 3576 3575 3573 3573 3571 3561 3553 3552 3552 3551 3551 3543 3528 3501 3498 3488 3488 3488 3486 3486 3434 3321 3075 2704 0 0 0 0 0 0 0 1618 1610 1607 1603 1602 1602 1601 1598 1596 1596 1595 1594 1593 1592 1590 1589 1588 1587 1586 1586 1584 1584 1583 1582 1581 1581 1579 1579 1578 1577 1576 1576 1577 1576 1576 1575 1574 1572 1571 1569 1566 1565 1564 1564 1562 1561 1559 1557 1557 1556 1555 1553 1551 1551 1550 1549 1549 1548 1544 1542 1541 1540 1540 1539 1538 1537 1536 1535 1535 1534 1534 1532 1531 1531 1531 1531 1530 1529 1529 1529 1527 1527 1524 1522 1521 1521 1520 1519 1518 1516 1514 1513 1512 1511 1510 1510 1509 1508 1508 1508 1508 1509 1510 1511 1511 1512 1512 0 0 0 0 0 2069 2085 2087 2093 2093 2093 2093 2084 2082 2081 2080 2080 2080 2078 2077 2077 2075 2074 2071 2069 2067 2063 2060 2058 2055 2053 2050 2048 2048 2047 2045 2042 2041 2040 2038 2036 2033 2029 2026 2025 2022 2020 2015 2012 2011 2011 2010 2008 2007 2005 2004 2004 2003 2003 2002 2001 2000 1998 1997 1996 1995 1995 1995 1994 1993 1992 1992 1991 1990 1990 1990 1990 1990 1990 1990 1990 1991 1991 1991 1991 1992 1992 1991 1991 1992 1992 1992 1992 1992 1993 1993 1993 1992 1992 1990 1989 1988 1987 1986 1983 1980 1978 1973 1970 1968 1968 1966 1964 1963 1961 1959 1959 1959 1959 1959 1959 1959 1961 1962 1962 1962 1963 1964 1965 1965 1965 1966 1966 1966 1966 1965 1965 1964 1964 1964 1963 1963 1962 1962 1962 1961 1961 1960 1959 1958 1958 1957 1956 1955 1955 1954 1954 1954 1954 1954 1954 1956 1957 1958 1958 1959 1961 1962 1963 1964 1964 1964 1965 1965 1965 1966 1967 1967 1968 1968 1969 1969 1969 1969 1971 1971 1972 1973 1974 1975 1976 1977 1977 1977 1978 1979 1979 1979 1979 1980 1980 1981 1983 1983 1984 1985 1985 1986 1987 1989 1991 1991 1991 1990 1990 1988 1988 1988 1988 1988 1989 1989 1991 1991 1992 1992 1992 1993 1994 1994 1995 1996 1997 1997 1998 1998 1997 1997 1997 1996 1994 1994 1994 1994 1993 1991 1989 1989 1989 1989 1989 1990 1989 1989 1989 1987 1986 1985 1982 1980 1979 1978 1978 1978 1978 1978 1978 1978 1978 1991 2002 2002 2002 2002 1998 1995 1992 1989 1988 1987 1985 1985 1985
0 0 0 0 0 0 0 0 0 2500 2564 2573 2635 2721 2782 2835 2862 2976 2976 2976 2976 2980 2988 3036 3057 3057 3068 3068 3068 3108 3135 3137 3138 3140 3141 3145 3149 3151 3152 3157 3165 3165 3165 3166 3166 3166 3172 3182 3185 3191 3191 3191 3192 3192 3192 3195 3202 3202 3202 3202 3202 3202 3207 3209 3214 3220 3231 3234 3234 3234 3234 3235 3235 3235 3237 3239 3240 3241 3242 3248 3252 3257 3264 3269 3273 3279 3285 3285 3285 3280 3280 3280 3282 3288 3297 3310 3319 3323 3323 3325 3325 3329 3332 3333 3337 3341 3343 3344 3344 3350 3360 3366 3376 3377 3382 3384 3386 3389 3390 3396 3396 3397 3401 3406 3410 3418 3426 3427 3428 3431 3433 3435 3441 3444 3451 3457 3463 3465 3465 3465 3465 3465 3469 3475 3479 3482 3482 3483 3483 3484 3486 3489 3491 3494 3495 3496 3496 3496 3494 3494 3494 3501 3514 3523 3523 3523 3524 3528 3528 3528 3524 3523 3523 3520 3520 3520 3529 3532 3534 3535 3539 3545 3552 3557 3562 3564 3570 3577 3586 3591 3591 3591 3589 3587 3587 3587 3587 3587 3589 3591 3591 3591 3590 3586 3584 3583 3583 3582 3582 3582 3580 3579 3578 3578 3578 3577 3577 3577 3571 3561 3552 3552 3551 3550 3550 3543 3528 3500 3488 3488 3488 3486 3482 3459 3237 2859 2535 0 0 0 0 0 0 1641 1620 1612 1609 1605 1603 1602 1602 1601 1598 1596 1596 1595 1594 1594 1592 1591 1590 1589 1588 1587 1586 1586 1585 1584 1583 1582 1581 1581 1580 1579 1578 1577 1577 1577 1576 1576 1575 1574 1572 1571 1569 1567 1566 1565 1564 1563 1563 1560 1559 1559 1558 1557 1554 1552 1551 1551 1550 1550 1548 1545 1543 1543 1542 1540 1540 1539 1538 1538 1537 1537 1537 1535 1532 1532 1532 1532 1532 1531 1531 1529 1529 1528 1527 1524 1522 1522 1521 1520 1520 1519 1517 1515 1514 1513 1511 1511 1510 1509 1509 1508 1508 1508 1508 1510 1510 1511 1512 1512 0 0 0 0 0 2053 2065 2085 2093 2093 2093 2093 2088 2081 2080 2080 2080 2080 2078 2076 2074 2073 2073 2070 2067 2064 2062 2058 2056 2054 2052 2049 2047 2046 2044 2042 2041 2040 2038 2035 2031 2030 2026 2025 2023 2020 2016 2013 2011 2009 2008 2006 2006 2006 2004 2003 2001 2001 2001 1999 1999 1998 1996 1996 1995 1995 1994 1994 1993 1991 1991 1991 1991 1990 1990 1990 1990 1989 1988 1988 1988 1989 1989 1989 1990 1990 1990 1990 1990 1990 1990 1991 1991 1991 1992 1991 1991 1991 1990 1990 1988 1987 1986 1984 1983 1980 1976 1973 1970 1968 1967 1966 1964 1962 1960 1959 1958 1958 1958 1958 1958 1958 1959 1960 1961 1962 1963 1963 1964 1964 1965 1965 1965 1965 1965 1965 1965 1964 1964 1964 1963 1962 1961 1961 1961 1961 1961 1960 1958 1957 1956 1955 1955 1954 1953 1953 1953 1953 1953 1953 1953 1954 1955 1955 1956 1958 1959 1961 1961 1961 1962 1962 1963 1964 1964 1965 1965 1965 1966 1966 1967 1967 1968 1969 1969 1969 1970 1972 1972 1974 1975 1975 1976 1977 1978 1979 1979 1979 1979 1980 1980 1981 1981 1981 1983 1983 1984 1985 1985 1987 1989 1989 1989 1988 1988 1987 1987 1987 1987 1988 1989 1989 1990 1991 1992 1992 1992 1993 1993 1994 1994 1996 1996 1997 1997 1997 1997 1997 1996 1994 1994 1993 1992 1992 1992 1990 1987 1987 1987 1987 1987 1987 1987 1986 1985 1984 1982 1980 1979 1977 1975 1975 1975 1974 1974 1975 1975 1977 1977 1991 2002 2002 2002 2002 1998 1995 1992 1989 1988 1988 1988 1988 1988
0 0 0 0 0 0 0 0 0 2500 2539 2573 2628 2682 2746 2806 2856 2915 2935 2936 2938 2940 2980 3028 3048 3049 3057 3080 3080 3124 3141 3141 3141 3138 3138 3138 3143 3153 3162 3166 3171 3176 3176 3176 3176 3176 3176 3182 3185 3191 3191 3191 3193 3193 3193 3206 3207 3207 3207 3207 3207 3207 3210 3213 3214 3222 3233 3234 3234 3240 3240 3240 3238 3238 3238 3242 3242 3244 3247 3252 3256 3260 3264 3269 3273 3279 3285 3285 3285 3280 3280 3280 3282 3289 3299 3310 3319 3323 3323 3325 3325 3329 3332 3338 3344 3347 3347 3350 3350 3351 3360 3370 3378 3383 3387 3390 3393 3393 3396 3396 3396 3397 3400 3406 3411 3418 3426 3431 3435 3436 3437 3441 3444 3448 3453 3457 3461 3461 3462 3462 3464 3468 3475 3483 3487 3487 3487 3486 3486 3486 3487 3489 3493 3496 3499 3501 3501 3501 3500 3500 3500 3504 3515 3525 3527 3528 3529 3534 3536 3536 3536 3536 3527 3527 3527 3528 3529 3532 3535 3535 3537 3537 3542 3550 3557 3563 3568 3577 3586 3591 3591 3591 3589 3587 3587 3587 3587 3588 3589 3591 3591 3591 3590 3587 3586 3583 3583 3582 3582 3582 3580 3579 3578 3578 3578 3579 3579 3579 3572 3561 3552 3546 3546 3545 3540 3538 3522 3500 3490 3488 3482 3446 3431 3172 2759 0 0 0 0 0 0 0 1633 1629 1619 1610 1605 1605 1605 1604 1603 1601 1598 1597 1596 1595 1594 1594 1592 1592 1590 1589 1588 1588 1587 1586 1585 1584 1583 1583 1582 1581 1580 1579 1578 1577 1577 1577 1577 1577 1575 1574 1572 1570 1569 1567 1566 1566 1564 1563 1563 1561 1560 1560 1559 1559 1557 1555 1552 1551 1551 1550 1548 1545 1544 1544 1543 1542 1540 1540 1540 1539 1538 1538 1537 1536 1533 1533 1533 1533 1533 1532 1531 1530 1529 1529 1528 1526 1523 1522 1522 1521 1520 1519 1518 1516 1514 1513 1512 1512 1510 1509 1509 1508 1507 1507 1507 1510 1510 1511 1512 1512 0 0 0 0 0 2028 2058 2081 2093 2093 2093 2093 2088 2081 2080 2080 2080 2080 2078 2075 2072 2071 2070 2069 2066 2063 2059 2056 2054 2053 2051 2049 2046 2044 2042 2040 2039 2038 2038 2033 2029 2024 2023 2021 2019 2016 2012 2009 2007 2006 2005 2004 2003 2002 2002 2000 1999 1999 1998 1998 1997 1996 1995 1995 1994 1994 1994 1992 1991 1991 1990 1990 1990 1990 1989 1989 1989 1988 1988 1988 1988 1988 1988 1988 1988 1988 1988 1988 1988 1989 1990 1990 1990 1990 1991 1991 1991 1990 1989 1989 1988 1987 1985 1983 1982 1979 1976 1973 1970 1968 1967 1966 1964 1962 1960 1959 1958 1957 1956 1956 1956 1956 1957 1958 1961 1962 1962 1962 1963 1963 1964 1964 1965 1965 1965 1965 1964 1964 1964 1963 1962 1962 1961 1961 1961 1960 1960 1960 1958 1956 1954 1954 1954 1953 1952 1952 1952 1952 1952 1952 1952 1952 1953 1954 1955 1956 1956 1957 1959 1959 1960 1960 1961 1963 1963 1963 1964 1965 1965 1965 1965 1965 1966 1966 1968 1969 1970 1970 1972 1973 1974 1975 1975 1975 1976 1978 1979 1979 1979 1979 1979 1979 1979 1980 1980 1982 1982 1983 1984 1985 1986 1986 1986 1986 1986 1986 1986 1986 1986 1987 1988 1989 1990 1991 1991 1992 1992 1992 1992 1993 1993 1995 1995 1996 1996 1996 1995 1995 1994 1992 1992 1991 1990 1989 1989 1987 1986 1985 1985 1985 1986 1986 1986 1984 1983 1981 1979 1977 1974 1972 1972 1972 1972 1972 1972 1972 1973 1973 1974 1981 1995 2002 2002 2002 1999 1996 1993 1989 1989 1989 1995 1995 1995
0 0 0 0 0 0 0 0 0 2501 2527 2566 2628 2666 2697 2735 2807 2875 2880 2915 2927 2932 2980 3019 3046 3047 3050 3057 3080 3124 3143 3143 3143 3136 3136 3136 3139 3152 3162 3170 3174 3176 3182 3184 3184 3184 3185 3185 3187 3199 3202 3206 3207 3207 3210 3216 3216 3216 3210 3210 3210 3210 3213 3216 3221 3224 3234 3234 3236 3243 3246 3246 3246 3246 3245 3245 3245 3247 3249 3255 3259 3265 3271 3277 3279 3282 3285 3285 3285 3285 3285 3285 3285 3289 3299 3311 3317 3322 3323 3323 3325 3330 3334 3338 3345 3351 3352 3353 3355 3358 3367 3380 3385 3388 3391 3394 3400 3400 3400 3399 3399 3399 3400 3406 3411 3418 3426 3431 3436 3440 3442 3444 3449 3453 3455 3457 3461 3461 3462 3462 3464 3468 3477 3483 3487 3490 3490 3490 3490 3490 3491 3493 3496 3501 3505 3507 3507 3507 3506 3506 3506 3507 3518 3525 3528 3529 3529 3536 3540 3540 3541 3540 3540 3541 3541 3541 3541 3541 3537 3537 3537 3537 3542 3550 3557 3562 3568 3577 3586 3591 3591 3591 3589 3587 3587 3587 3588 3589 3590 3591 3591 3591 3590 3587 3586 3583 3581 3580 3579 3579 3579 3579 3579 3579 3579 3579 3579 3579 3572 3560 3550 3545 3543 3541 3529 3522 3513 3494 3492 3490 3300 3285 3020 2717 0 0 0 0 0 0 1630 1624 1620 1614 1610 1609 1605 1605 1605 1605 1604 1601 1599 1597 1596 1595 1594 1594 1592 1592 1591 1589 1589 1589 1588 1587 1585 1585 1584 1583 1582 1581 1580 1579 1578 1577 1577 1577 1577 1577 1575 1574 1572 1570 1568 1567 1566 1566 1564 1563 1563 1561 1560 1560 1560 1560 1557 1555 1552 1551 1551 1551 1548 1547 1544 1544 1544 1543 1542 1542 1541 1540 1539 1538 1538 1537 1536 1534 1534 1534 1533 1532 1532 1532 1532 1531 1529 1526 1523 1523 1522 1521 1520 1519 1518 1516 1514 1513 1513 1512 1510 1510 1509 1508 1507 1507 1507 1509 1510 1511 1512 1514 1520 0 0 0 0 0 2058 2080 2081 2084 2089 2089 2089 2085 2078 2078 2077 2077 2077 2075 2071 2069 2068 2066 2064 2061 2057 2054 2052 2050 2049 2045 2044 2041 2040 2038 2036 2035 2034 2028 2022 2020 2020 2018 2014 2010 2007 2005 2004 2004 2003 2002 2001 2000 1999 1997 1997 1996 1996 1996 1995 1995 1994 1993 1993 1992 1992 1992 1991 1990 1990 1989 1989 1988 1988 1988 1988 1987 1987 1986 1986 1986 1986 1986 1986 1987 1987 1987 1987 1988 1988 1990 1990 1990 1990 1990 1989 1989 1989 1988 1987 1986 1985 1983 1981 1979 1976 1973 1970 1968 1967 1966 1964 1962 1960 1958 1958 1956 1955 1954 1954 1954 1955 1957 1959 1960 1960 1960 1961 1962 1963 1964 1964 1964 1964 1964 1963 1963 1963 1963 1962 1961 1961 1960 1960 1960 1959 1959 1957 1956 1954 1953 1953 1952 1951 1951 1951 1951 1952 1952 1952 1952 1952 1953 1954 1954 1954 1956 1957 1957 1959 1959 1959 1961 1962 1962 1963 1963 1964 1964 1964 1964 1965 1965 1966 1967 1968 1969 1970 1972 1972 1973 1973 1974 1974 1976 1977 1978 1978 1978 1978 1978 1978 1978 1979 1980 1981 1982 1983 1984 1984 1984 1985 1985 1985 1985 1985 1985 1985 1986 1986 1987 1988 1988 1988 1989 1991 1991 1992 1993 1993 1994 1994 1994 1993 1993 1993 1993 1993 1988 1988 1987 1987 1987 1986 1985 1984 1984 1984 1984 1985 1985 1985 1982 1980 1978 1977 1974 1971 1971 1971 1970 1971 1971 1972 1972 1973 1973 1974 1981 1995 2001 2001 2001 2000 1999 1993 1990 1990 1990 1998 1998 1998
0 0 0 0 0 0 0 0 2500 2501 2518 2566 2628 2666 2693 2735 2789 2852 2858 2863 2890 2932 2980 3019 3046 3047 3051 3057 3080 3124 3145 3145 3145 3136 3136 3136 3139 3152 3162 3170 3174 3176 3182 3184 3190 3193 3196 3197 3200 3210 3213 3213 3214 3216 3219 3219 3219 3217 3213 3212 3212 3212 3214 3219 3225 3231 3234 3234 3236 3243 3250 3251 3251 3251 3249 3248 3248 3248 3251 3256 3261 3266 3271 3277 3281 3283 3286 3290 3290 3290 3289 3289 3289 3292 3299 3311 3317 3322 3323 3323 3325 3330 3335 3338 3348 3356 3357 3359 3359 3364 3373 3389 3394 3396 3398 3403 3404 3404 3404 3401 3400 3400 3400 3406 3411 3418 3427 3432 3436 3440 3442 3449 3455 3458 3460 3461 3461 3462 3462 3462 3464 3471 3479 3485 3487 3490 3490 3492 3493 3494 3498 3500 3502 3505 3511 3511 3515 3515 3515 3515 3515 3517 3523 3530 3530 3531 3533 3538 3545 3546 3546 3546 3544 3544 3544 3546 3548 3548 3548 3541 3541 3541 3542 3550 3557 3562 3568 3573 3586 3591 3591 3591 3589 3589 3589 3589 3590 3590 3591 3591 3591 3591 3590 3587 3586 3583 3577 3577 3577 3577 3578 3578 3578 3577 3576 3576 3575 3573 3572 3560 3550 3543 3543 3541 3524 3514 3496 3494 3492 3480 3212 2828 2541 0 0 0 0 0 0 1626 1622 1617 1613 1610 1610 1609 1606 1606 1605 1605 1604 1601 1599 1598 1597 1595 1595 1594 1592 1592 1591 1591 1589 1589 1588 1588 1586 1586 1584 1583 1582 1582 1581 1581 1580 1578 1578 1577 1577 1577 1576 1573 1572 1570 1567 1567 1566 1566 1564 1563 1562 1561 1560 1560 1560 1560 1558 1555 1552 1552 1551 1551 1549 1547 1546 1544 1544 1544 1543 1543 1542 1541 1541 1539 1539 1539 1536 1535 1535 1535 1535 1534 1533 1533 1533 1531 1529 1526 1524 1523 1523 1521 1520 1520 1518 1516 1515 1514 1513 1512 1511 1510 1510 1509 1507 1507 1507 1508 1509 1510 1512 1514 1516 1524 0 0 0 0 0 2064 2068 2082 2088 2088 2088 2086 2078 2077 2077 2077 2075 2074 2069 2067 2065 2063 2062 2059 2054 2051 2049 2047 2044 2041 2039 2038 2036 2033 2030 2028 2027 2020 2018 2017 2016 2013 2009 2004 2002 2001 2000 2000 1999 1999 1999 1999 1997 1996 1995 1995 1995 1995 1994 1993 1993 1992 1992 1991 1990 1990 1990 1989 1989 1989 1989 1988 1987 1987 1986 1986 1986 1985 1985 1985 1984 1985 1985 1985 1985 1986 1986 1987 1987 1988 1988 1988 1988 1989 1989 1988 1988 1987 1986 1985 1985 1983 1981 1978 1976 1973 1971 1968 1967 1966 1964 1960 1958 1957 1956 1955 1954 1953 1953 1953 1953 1954 1957 1958 1958 1959 1960 1961 1962 1962 1963 1963 1963 1963 1963 1962 1961 1961 1961 1961 1960 1960 1959 1959 1958 1958 1957 1955 1954 1953 1952 1952 1951 1951 1951 1951 1951 1951 1951 1952 1952 1953 1953 1953 1954 1954 1955 1956 1957 1957 1959 1959 1960 1961 1961 1961 1963 1963 1963 1963 1963 1964 1966 1967 1968 1968 1969 1970 1970 1971 1971 1971 1972 1975 1975 1975 1975 1976 1976 1976 1976 1977 1977 1979 1980 1981 1981 1982 1983 1983 1983 1983 1983 1983 1984 1985 1985 1985 1985 1985 1985 1985 1987 1988 1989 1990 1992 1993 1993 1993 1992 1992 1991 1991 1991 1990 1989 1987 1985 1984 1984 1984 1984 1984 1982 1982 1982 1983 1984 1984 1984 1981 1978 1977 1975 1972 1968 1968 1968 1968 1970 1970 1970 1972 1973 1973 1974 1981 1995 2000 2001 2001 2001 2000 1997 1995 1995 1995 1999 1999 1999
0 0 0 0 0 0 0 0 2473 2501 2508 2567 2628 2666 2693 2735 2789 2830 2844 2863 2890 2932 2986 3019 3047 3048 3051 3057 3079 3111 3143 3143 3143 3140 3139 3139 3140 3149 3160 3166 3171 3173 3182 3184 3190 3193 3197 3204 3210 3213 3213 3215 3216 3216 3220 3221 3221 3221 3216 3216 3216 3218 3220 3221 3226 3231 3234 3234 3236 3246 3250 3252 3252 3252 3252 3250 3250 3250 3251 3256 3261 3266 3271 3277 3281 3284 3288 3292 3297 3297 3297 3298 3298 3298 3303 3311 3317 3322 3323 3323 3327 3333 3336 3342 3349 3356 3361 3363 3363 3367 3377 3389 3394 3396 3398 3403 3404 3404 3404 3404 3403 3403 3403 3409 3413 3418 3427 3434 3437 3442 3448 3457 3459 3460 3462 3463 3464 3464 3464 3467 3470 3474 3480 3488 3490 3491 3492 3494 3497 3504 3506 3507 3510 3512 3516 3516 3516 3517 3519 3520 3523 3527 3532 3535 3535 3536 3539 3542 3548 3548 3548 3549 3549 3549 3549 3551 3556 3556 3556 3552 3550 3550 3550 3556 3560 3562 3568 3573 3577 3584 3589 3589 3589 3589 3589 3589 3590 3592 3592 3592 3591 3590 3588 3585 3583 3580 3576 3575 3575 3575 3575 3576 3576 3576 3574 3568 3566 3563 3559 3558 3549 3539 3530 3527 3520 3505 3492 3487 3485 3117 2736 0 0 0 0 0 0 1629 1617 1617 1616 1616 1613 1610 1610 1609 1607 1606 1606 1606 1605 1602 1600 1598 1597 1596 1595 1594 1593 1592 1592 1592 1591 1590 1589 1588 1586 1586 1585 1584 1583 1582 1582 1581 1580 1578 1578 1578 1577 1577 1576 1573 1572 1570 1567 1567 1566 1566 1564 1563 1562 1561 1560 1560 1560 1560 1558 1555 1552 1552 1551 1551 1550 1548 1547 1546 1546 1545 1545 1545 1545 1544 1542 1541 1541 1540 1539 1539 1539 1538 1538 1537 1536 1534 1533 1531 1529 1526 1524 1524 1524 1523 1521 1520 1518 1516 1515 1515 1514 1512 1511 1511 1510 1510 1508 1508 1508 1508 1509 1510 1512 1514 1515 1523 0 0 0 0 0 2062 2065 2082 2088 2089 2089 2089 2086 2077 2076 2076 2072 2069 2066 2064 2062 2061 2060 2058 2052 2046 2043 2042 2040 2037 2036 2034 2033 2027 2022 2020 2018 2015 2014 2013 2009 2007 2004 2002 2001 1998 1997 1996 1996 1996 1996 1996 1996 1994 1994 1994 1994 1994 1992 1991 1991 1991 1990 1989 1989 1989 1988 1988 1988 1988 1988 1988 1987 1986 1986 1986 1985 1984 1983 1983 1983 1984 1984 1984 1984 1984 1985 1986 1986 1987 1987 1988 1988 1988 1988 1988 1987 1987 1986 1985 1983 1982 1980 1978 1975 1973 1971 1968 1966 1965 1963 1959 1957 1954 1954 1954 1954 1952 1952 1952 1952 1953 1955 1956 1956 1957 1959 1960 1960 1961 1962 1962 1962 1962 1962 1961 1961 1961 1960 1960 1960 1959 1958 1958 1957 1956 1955 1955 1954 1953 1952 1952 1950 1950 1950 1950 1950 1950 1951 1951 1952 1952 1952 1953 1953 1953 1954 1956 1956 1957 1958 1958 1958 1959 1959 1960 1961 1961 1961 1961 1962 1962 1964 1964 1966 1966 1967 1967 1969 1969 1970 1970 1971 1973 1973 1973 1973 1973 1973 1974 1975 1976 1976 1977 1977 1980 1980 1981 1982 1982 1982 1982 1982 1982 1982 1982 1982 1982 1982 1982 1984 1984 1985 1986 1988 1988 1991 1992 1992 1992 1990 1990 1990 1990 1990 1988 1986 1984 1984 1984 1982 1982 1982 1982 1981 1981 1981 1981 1983 1983 1983 1981 1976 1975 1972 1967 1965 1965 1965 1965 1969 1970 1970 1973 1974 1974 1977 1990 1996 2001 2001 2001 2001 2000 1998 1996 1996 1996 1999 1999 1999
0 0 0 0 0 0 0 0 2433 2441 2506 2566 2628 2664 2686 2740 2789 2811 2844 2863 2890 2950 3008 3035 3055 3058 3061 3061 3079 3106 3142 3142 3142 3143 3146 3143 3143 3146 3146 3154 3166 3172 3177 3183 3189 3196 3202 3204 3210 3213 3216 3218 3218 3221 3222 3227 3227 3227 3226 3226 3226 3228 3231 3232 3234 3234 3235 3238 3241 3246 3251 3252 3252 3252 3252 3251 3251 3251 3252 3257 3260 3265 3271 3279 3281 3285 3288 3292 3297 3300 3300 3301 3301 3303 3310 3316 3320 3323 3328 3332 3332 3335 3338 3343 3349 3356 3361 3363 3366 3369 3377 3389 3394 3396 3398 3403 3404 3405 3405 3405 3406 3406 3407 3411 3418 3423 3427 3434 3440 3445 3449 3458 3460 3460 3462 3466 3470 3470 3471 3475 3477 3481 3483 3488 3490 3491 3493 3496 3500 3505 3509 3512 3514 3517 3517 3517 3517 3517 3520 3525 3531 3535 3538 3541 3541 3542 3542 3545 3548 3550 3550 3551 3551 3552 3554 3557 3561 3561 3562 3562 3562 3563 3563 3563 3563 3563 3569 3573 3575 3582 3587 3590 3590 3590 3590 3590 3591 3592 3592 3592 3591 3587 3582 3581 3580 3577 3575 3574 3573 3573 3573 3573 3565 3565 3565 3561 3561 3550 3541 3539 3533 3532 3530 3527 3495 3495 3487 3263 2971 2659 0 0 0 0 0 0 1634 1620 1617 1617 1616 1616 1613 1610 1610 1610 1609 1608 1608 1606 1605 1603 1601 1600 1598 1597 1596 1595 1594 1593 1593 1592 1591 1591 1589 1589 1588 1586 1585 1584 1584 1583 1583 1582 1581 1580 1579 1578 1578 1577 1576 1573 1572 1571 1567 1567 1567 1566 1564 1564 1562 1561 1560 1560 1560 1560 1558 1555 1554 1552 1552 1551 1550 1548 1547 1547 1546 1546 1546 1545 1545 1544 1542 1542 1542 1542 1542 1542 1541 1541 1540 1540 1539 1536 1534 1531 1529 1526 1525 1525 1524 1523 1521 1520 1518 1517 1516 1515 1514 1513 1512 1511 1511 1510 1509 1509 1509 1509 1509 1510 1510 1513 1514 1523 0 0 0 0 0 0 2055 2076 2088 2089 2089 2089 2086 2077 2070 2070 2069 2066 2063 2061 2060 2060 2058 2054 2047 2041 2038 2036 2036 2033 2033 2032 2031 2020 2014 2012 2011 2010 2008 2005 2005 2004 2000 1996 1995 1993 1993 1993 1993 1993 1993 1993 1993 1992 1992 1991 1991 1991 1990 1990 1990 1989 1988 1988 1988 1988 1987 1987 1987 1987 1987 1987 1986 1985 1984 1984 1983 1983 1982 1982 1982 1982 1982 1982 1983 1984 1984 1984 1986 1986 1986 1987 1987 1987 1987 1987 1987 1985 1984 1984 1983 1981 1980 1977 1975 1973 1971 1968 1966 1964 1960 1958 1956 1954 1952 1952 1952 1951 1951 1951 1951 1952 1953 1954 1954 1956 1958 1959 1959 1959 1960 1960 1960 1960 1960 1960 1960 1960 1959 1959 1959 1958 1957 1957 1956 1955 1954 1954 1953 1952 1951 1951 1950 1949 1949 1949 1949 1949 1950 1950 1951 1951 1951 1951 1951 1951 1953 1953 1955 1956 1957 1957 1957 1958 1958 1958 1959 1960 1960 1960 1961 1961 1962 1963 1963 1964 1964 1965 1967 1968 1968 1969 1970 1971 1972 1972 1972 1972 1972 1974 1974 1974 1975 1976 1976 1976 1978 1980 1980 1980 1980 1979 1979 1979 1981 1982 1982 1982 1982 1982 1983 1984 1985 1986 1986 1988 1990 1992 1992 1992 1990 1988 1987 1986 1985 1984 1983 1982 1982 1982 1980 1980 1980 1980 1980 1980 1980 1981 1981 1981 1981 1980 1975 1971 1969 1966 1963 1960 1960 1960 1963 1965 1969 1974 1977 1981 1986 1994 1996 2000 2001 2001 2001 2000 1998 1998 1998 1998 1999 1999 1999
