0 0 0 0 0 2143 2143 2164 2173 2189 2199 2206 2220 2226 2230 2244 2270 2296 2304 2304 2310 2310 2310 2327 2335 2348 2351 2351 2351 2351 2351 2353 2364 2412 2457 2476 2481 2483 2483 2481 2453 2452 2450 2438 2428 0 0 0 0 0 0 0 0 0 0 0 0 0 0 0 0 0 2203 2201 2200 2200 2200 2204 2207 2209 2214 2217 2217 2221 2226 2230 2236 2240 2251 2257 2257 2257 2253 2250 2250 2250 2256 2256 2257 2260 2260 2260 2262 2265 2269 2271 2272 2272 2272 2273 2275 2284 2293 2298 2304 2312 2318 2324 2328 2332 2332 2332 2329 2326 2326 2326 2328 2335 2340 2349 2360 2362 2368 2371 2376 2382 2382 2382 2384 2384 2390 2396 2404 2404 2404 2402 2402 2402 2408 2421 2425 2426 2429 2434 2435 2438 2443 2453 2453 2453 2451 2450 2450 2450 2458 2470 2480 2487 2489 2491 2496 2500 2504 2506 2507 2517 2523 2527 2527 2527 2519 2515 2515 2515 2517 2517 2517 2513 2513 2513 2521 2556 2578 2585 2588 2591 2609 2646 2661 2694 2701 2768 2849 2892 2907 2907 2907 2906 2906 2906 2914 2928 2928 2928 2913 2898 2893 2891 2890 2888 2890 2890 2890 2898 2900 2900 2900 2900 2900 2903 2903 2903 2903 2898 2898 2898 2899 2902 2902 2902 2896 2896 2896 2897 2898 2898 2898 2891 2891 2891 2895 2895 2895 2876 2870 2870 2870 2870 2870 2863 2847 2809 2764 2665 2619 2619 2619 2761 2805 2805 2805 2789 2767 2739 2668 0 0 0 0 0 0 0 0 0 1896 1896 1896 1888 1879 1852 1829 1817 1808 1801 1790 1783 1776 1769 1764 1759 1756 1752 1748 1745 1741 1740 1736 1733 1729 1726 1723 1719 1718 1717 1714 1711 1708 1705 1702 1700 1698 1695 1691 1687 1683 1680 1677 1673 1667 1664 1658 1648 1641 1635 1627 1619 1607 1594 1587 1583 1581 1578 1576 1573 1573 1570 1569 1568 1567 1567 1568 1568 1570 1571 1572 1573 1574 1574 1574 1574 1575 1578 1578 1579 1579 1579 1579 1578 1577 1577 1576 1574 1573 1571 1570 1569 1567 1566 1564 1563 1560 1558 1557 1554 1552 1550 1548 1546 1544 1542 1541 1539 1537 1535 1534 1532 1528 1526 1523 1520 1515 1512 1510 1506 1504 1502 1500 1500 1500 1500 1500 1500 1500 1500 1500 1501 1502 1504 1504 1504 1504 1504 1504 1504 1504 1503 1503 1502 1502 1501 1501 1500 1499 1498 1497 1496 1496 1494 1493 1491 1490 1488 1486 1484 1482 1479 1477 1475 1471 1469 1467 1466 1464 1461 1459 1458 1457 1455 1454 1453 1453 1452 1452 1452 1452 1453 1454 1455 1456 1457 1458 1460 1460 1461 1462 1463 1464 1464 1465 1466 1466 1466 1466 1466 1466 1466 1466 1466 1466 1465 1464 1464 1463 1461 1460 1459 1457 1455 1453 1451 1449 1446 1445 1442 1441 1439 1438 1438 1438 1438 1438 1438 1438 1441 1446 1454 1463 1471 1477 1482 1486 1489 1492 1497 1500 1501 1503 1504 1506 1508 1511 1512 1513 1514 1515 1515 1515 1514 1512 1511 1511 1511 1513 1513 1513 1513 1511 1511 1511 1512 1513 1515 1518 1522 1525 1527 1527 1529 1529 1537 1544 1548 1551 1559 1563 1565 1567 1567 1567 1566 1566 1566 1567 1575 1577 1583 1586 1589 1592 1592 1595 1609 1629 1636 1647 1663 1697 1702 1706 1708 1709 1710 1711 1712 1713 1717 1720 1720 1720 1716 1712 1696 0 0 0 0 0 0 0 0 0 0 0 0 0 0 0 0 0 0 0 0 0 0 0 0 0 0 0 0 0 0 0 0 0 0 0 0 0 0 0 0 0 0 0 0 0 0 0
0 0 0 0 0 2143 2143 2164 2173 2189 2194 2198 2200 2200 2208 2233 2257 2283 2304 2304 2307 2307 2307 2311 2330 2342 2342 2342 2326 2323 2323 2323 2334 2360 0 0 0 0 0 0 0 0 0 0 0 0 0 0 0 0 0 0 0 0 0 0 0 0 2165 2165 2165 2167 2171 2172 2172 2173 2177 2181 2184 2185 2187 2188 2192 2195 2206 2216 2229 2240 2250 2250 2250 2249 2246 2242 2242 2242 2247 2247 2247 2247 2247 2247 2247 2253 2255 2258 2259 2261 2261 2263 2268 2275 2279 2287 2293 2301 2312 2318 2322 2325 2325 2325 2325 2323 2321 2321 2321 2323 2328 2337 2346 2349 2352 2353 2359 2365 2372 2374 2374 2375 2381 2390 2397 2402 2402 2402 2402 2402 2406 2411 2416 2417 2419 2420 2424 2427 2432 2436 2438 2438 2439 2439 2439 2444 2447 2460 2473 2480 2484 2486 2490 2490 2491 2493 2494 2499 2511 2517 2517 2517 2509 2509 2509 2510 2512 2512 2512 2511 2511 2511 2517 2523 2549 2577 2580 2589 2594 2616 2662 2694 2701 2733 2803 2873 2895 2902 2903 2904 2906 2906 2914 2921 2921 2921 2911 2895 2893 2891 2889 2888 2891 2891 2891 2897 2900 2900 2901 2901 2901 2903 2904 2904 2904 2898 2898 2898 2903 2906 2906 2906 2904 2904 2904 2904 2904 2903 2902 2903 2904 2904 2909 2909 2909 2891 2882 2882 2882 2878 2877 2877 2861 2846 2812 2753 2627 2627 2627 2777 2817 2817 2817 2801 2781 2754 2698 2650 0 0 0 0 0 0 0 1902 1902 1902 1896 1888 1879 1852 1829 1815 1808 1796 1787 1780 1772 1766 1762 1756 1754 1751 1747 1742 1738 1736 1733 1730 1727 1724 1721 1719 1716 1714 1712 1709 1707 1704 1702 1700 1698 1694 1690 1687 1683 1680 1677 1675 1670 1665 1661 1656 1649 1641 1636 1628 1615 1603 1594 1587 1582 1580 1578 1575 1573 1570 1569 1567 1566 1565 1565 1565 1567 1567 1569 1569 1570 1570 1570 1571 1572 1573 1574 1575 1576 1576 1576 1576 1575 1574 1573 1572 1572 1570 1569 1566 1565 1564 1562 1561 1558 1556 1554 1553 1551 1548 1547 1545 1543 1541 1539 1537 1536 1534 1532 1531 1528 1526 1523 1520 1515 1513 1510 1506 1504 1502 1500 1499 1498 1498 1498 1498 1498 1499 1499 1500 1501 1502 1502 1503 1503 1503 1503 1503 1502 1502 1502 1502 1501 1501 1500 1499 1499 1498 1497 1496 1496 1495 1493 1492 1490 1489 1486 1484 1483 1481 1478 1475 1473 1470 1468 1467 1464 1462 1460 1459 1457 1456 1454 1453 1453 1452 1452 1452 1452 1453 1453 1454 1455 1457 1458 1459 1460 1461 1462 1463 1464 1465 1465 1466 1466 1467 1467 1467 1467 1467 1467 1467 1466 1466 1465 1464 1463 1462 1462 1460 1459 1457 1454 1452 1450 1448 1446 1444 1441 1440 1438 1438 1438 1438 1438 1438 1438 1440 1446 1453 1457 1468 1475 1480 1485 1489 1492 1497 1500 1502 1504 1505 1507 1511 1513 1514 1515 1515 1518 1518 1518 1518 1518 1518 1518 1518 1518 1518 1518 1518 1518 1518 1518 1520 1520 1524 1529 1532 1535 1537 1540 1542 1546 1553 1557 1566 1570 1575 1575 1576 1577 1578 1578 1581 1581 1581 1581 1583 1592 1599 1599 1599 1601 1606 1612 1624 1642 1653 1662 1682 1698 1701 1702 1704 1705 1706 1707 1708 1709 1710 1713 1713 1713 1710 1707 1693 0 0 0 0 0 0 0 0 0 0 0 0 0 0 0 0 0 0 0 0 0 0 0 0 0 0 0 0 0 0 0 0 0 0 0 0 0 0 0 0 0 0 0 0 0 0 0
0 0 0 0 0 2143 2144 2169 2184 2184 2186 2186 2183 2183 2186 2208 2237 2257 2267 2270 2270 2273 2273 2273 2302 2304 2304 2304 2299 2299 2299 2301 2306 0 0 0 0 0 0 0 0 0 0 0 0 0 0 0 0 0 2128 2128 2128 2140 2145 2146 2148 2149 2150 2150 2151 2155 2156 2157 2157 2158 2161 2165 2170 2170 2170 2171 2173 2176 2187 2205 2223 2234 2234 2234 2232 2232 2232 2230 2230 2230 2235 2239 2239 2239 2237 2237 2237 2244 2246 2251 2252 2254 2255 2257 2261 2265 2271 2277 2282 2288 2297 2304 2308 2310 2313 2316 2319 2319 2319 2319 2319 2321 2327 2333 2339 2341 2343 2343 2346 2350 2354 2359 2361 2363 2371 2378 2384 2390 2390 2393 2394 2397 2403 2407 2408 2409 2409 2409 2410 2414 2418 2421 2421 2421 2421 2423 2425 2433 2443 2450 2457 2464 2470 2475 2477 2480 2480 2480 2485 2485 2493 2500 2500 2500 2499 2499 2499 2505 2506 2508 2509 2509 2510 2511 2516 2522 2546 2569 2570 2574 2592 2600 2661 2687 2697 2713 2760 2819 2866 2889 2903 2904 2905 2908 2911 2917 2917 2917 2908 2888 2888 2888 2889 2890 2890 2890 2892 2897 2900 2900 2901 2901 2901 2903 2904 2904 2904 2901 2901 2901 2907 2907 2907 2907 2904 2904 2904 2904 2906 2906 2907 2910 2911 2915 2915 2915 2909 2891 2882 2882 2882 2882 2882 2881 2869 2854 2840 2815 2783 2783 2783 2825 2825 2825 2821 2811 2787 2761 2698 2650 2593 0 0 0 0 0 0 1906 1905 1905 1896 1891 1879 1854 1829 1815 1807 1795 1783 1778 1770 1765 1761 1756 1752 1749 1745 1741 1737 1734 1730 1727 1724 1722 1719 1717 1715 1713 1710 1708 1706 1704 1701 1699 1697 1694 1690 1688 1684 1680 1678 1675 1671 1667 1662 1660 1655 1649 1641 1634 1627 1613 1601 1594 1590 1585 1581 1579 1574 1570 1569 1567 1564 1563 1563 1563 1564 1564 1565 1565 1565 1565 1566 1566 1568 1570 1571 1571 1572 1572 1573 1573 1573 1572 1571 1570 1570 1569 1568 1566 1564 1562 1561 1560 1557 1555 1552 1551 1549 1547 1545 1544 1541 1539 1538 1536 1535 1533 1531 1529 1528 1526 1522 1520 1515 1513 1510 1507 1504 1502 1500 1499 1498 1497 1496 1496 1496 1496 1497 1498 1498 1500 1500 1501 1502 1502 1502 1502 1502 1501 1501 1501 1500 1500 1500 1499 1499 1498 1497 1497 1496 1495 1493 1492 1491 1489 1487 1485 1483 1481 1479 1477 1474 1472 1470 1468 1466 1463 1461 1459 1457 1456 1454 1453 1453 1452 1452 1452 1452 1452 1453 1454 1455 1456 1458 1459 1460 1461 1462 1462 1463 1465 1465 1466 1466 1467 1467 1467 1467 1467 1467 1467 1467 1466 1465 1464 1464 1463 1462 1462 1460 1458 1456 1454 1452 1449 1447 1446 1443 1441 1439 1439 1438 1438 1438 1438 1438 1440 1444 1449 1455 1464 1472 1479 1485 1489 1492 1495 1500 1502 1504 1505 1508 1513 1516 1516 1518 1520 1521 1521 1522 1522 1523 1523 1523 1522 1521 1521 1521 1523 1524 1524 1524 1530 1534 1534 1535 1541 1546 1551 1553 1555 1559 1562 1566 1578 1580 1584 1586 1586 1587 1587 1590 1590 1591 1594 1594 1596 1603 1607 1608 1610 1614 1620 1628 1640 1652 1663 1675 1693 1699 1700 1700 1703 1704 1704 1705 1705 1705 1705 1706 1706 1705 1703 1696 1692 0 0 0 0 0 0 0 0 0 0 0 0 0 0 0 0 0 0 0 0 0 0 0 0 0 0 0 0 0 0 0 0 0 0 0 0 0 0 0 0 0 0 0 0 0 0 0
0 0 0 0 0 2141 2144 2172 2184 2184 2184 2177 2168 2168 2168 2188 2222 2229 2229 2229 2222 2222 2222 2230 2252 2268 2268 2268 2260 2260 2260 2265 0 0 0 0 0 0 0 0 0 0 0 0 0 2119 2119 2117 2117 2109 2109 2109 2113 2125 2131 2133 2135 2136 2139 2143 2147 2148 2149 2150 2151 2151 2152 2154 2159 2164 2164 2165 2168 2174 2180 2192 2208 2214 2214 2214 2214 2214 2215 2217 2217 2219 2225 2230 2231 2231 2231 2231 2231 2238 2243 2246 2250 2251 2252 2253 2255 2260 2264 2270 2274 2278 2281 2289 2295 2300 2304 2309 2312 2312 2314 2314 2314 2317 2322 2330 2333 2333 2335 2336 2336 2336 2338 2338 2344 2350 2356 2360 2366 2372 2375 2379 2383 2389 2395 2398 2398 2398 2396 2396 2396 2398 2405 2407 2410 2410 2412 2413 2416 2423 2434 2444 2448 2452 2454 2460 2467 2470 2471 2471 2473 2473 2482 2490 2492 2492 2493 2493 2493 2499 2505 2506 2506 2508 2510 2511 2512 2515 2537 2543 2547 2554 2580 2597 2660 2682 2690 2707 2753 2782 2819 2857 2893 2902 2904 2908 2909 2909 2909 2907 2899 2882 2882 2882 2883 2884 2890 2890 2896 2897 2900 2901 2901 2901 2902 2902 2903 2903 2903 2903 2903 2906 2907 2907 2907 2907 2904 2904 2904 2904 2905 2906 2909 2910 2911 2915 2915 2915 2909 2891 2883 2883 2883 2885 2885 2885 2870 2856 2843 2843 2843 2857 2860 2865 2865 2865 2859 2855 2815 2763 2700 2650 2593 0 0 0 0 0 0 1910 1906 1900 1899 1891 1879 1854 1830 1813 1805 1791 1779 1772 1769 1765 1760 1756 1752 1748 1743 1739 1736 1731 1728 1726 1723 1719 1718 1715 1713 1711 1708 1706 1704 1702 1700 1698 1695 1692 1690 1688 1684 1681 1678 1675 1672 1668 1664 1660 1657 1655 1651 1641 1631 1625 1615 1604 1600 1594 1587 1581 1575 1571 1569 1566 1563 1561 1561 1561 1561 1561 1562 1562 1562 1562 1562 1563 1565 1566 1568 1568 1569 1570 1570 1570 1570 1570 1568 1568 1567 1566 1565 1565 1563 1562 1559 1557 1556 1553 1551 1549 1547 1545 1543 1541 1540 1538 1537 1534 1534 1532 1530 1528 1526 1524 1521 1519 1515 1513 1510 1507 1504 1502 1499 1499 1498 1496 1496 1494 1494 1494 1494 1495 1496 1497 1498 1498 1499 1499 1500 1500 1500 1500 1500 1500 1499 1499 1499 1498 1498 1497 1497 1496 1495 1495 1493 1492 1492 1490 1488 1486 1484 1482 1480 1478 1475 1473 1470 1468 1467 1465 1462 1460 1458 1456 1455 1453 1453 1452 1452 1452 1452 1452 1453 1454 1454 1456 1457 1458 1460 1461 1461 1462 1463 1464 1465 1466 1466 1467 1467 1467 1468 1468 1468 1468 1468 1466 1466 1466 1465 1464 1464 1463 1461 1460 1458 1456 1454 1452 1450 1448 1445 1443 1440 1439 1439 1438 1438 1438 1438 1440 1443 1446 1451 1456 1465 1476 1483 1487 1490 1495 1499 1503 1504 1507 1511 1515 1519 1520 1521 1523 1525 1527 1529 1530 1532 1532 1532 1530 1529 1529 1530 1536 1537 1537 1538 1543 1550 1551 1553 1559 1559 1561 1563 1565 1567 1572 1575 1584 1591 1595 1596 1596 1597 1597 1597 1598 1598 1599 1599 1601 1609 1615 1618 1621 1626 1633 1641 1654 1665 1675 1685 1696 1699 1699 1700 1702 1702 1702 1702 1702 1702 1702 1702 1702 1701 1701 1696 1690 0 0 0 0 0 0 0 0 0 0 0 0 0 0 0 0 0 0 0 0 0 0 0 0 0 0 0 0 0 0 0 0 0 0 0 0 0 0 0 0 0 0 0 0 0 0 0
0 0 0 0 0 2139 2144 2175 2184 2184 2184 2174 2158 2158 2158 2165 2190 2196 2196 2196 2177 2177 2177 2186 2197 0 0 0 0 0 0 0 0 0 0 0 0 0 0 0 0 0 0 0 2108 2107 2106 2102 2101 2102 2102 2103 2110 2119 2122 2123 2124 2125 2130 2136 2140 2140 2142 2142 2144 2147 2149 2149 2153 2158 2161 2163 2168 2170 2178 2184 2193 2199 2199 2200 2201 2201 2204 2207 2208 2212 2217 2220 2222 2223 2223 2224 2224 2232 2239 2241 2244 2245 2246 2246 2248 2252 2258 2262 2266 2267 2270 2278 2284 2290 2295 2300 2300 2302 2304 2305 2307 2312 2318 2324 2325 2325 2325 2326 2326 2326 2326 2326 2326 2329 2329 2332 2345 2355 2361 2362 2367 2371 2380 2385 2385 2385 2384 2384 2384 2389 2394 2394 2396 2398 2402 2405 2409 2415 2423 2431 2438 2440 2442 2449 2455 2462 2463 2465 2466 2473 2474 2485 2487 2487 2489 2489 2489 2493 2495 2496 2498 2499 2499 2500 2505 2512 2521 2531 2531 2539 2541 2575 2620 2652 2665 2665 2690 2747 2783 2819 2862 2893 2904 2904 2904 2902 2894 2889 2882 2871 2871 2871 2877 2882 2890 2896 2897 2901 2901 2901 2904 2904 2904 2902 2902 2902 2902 2902 2903 2906 2906 2906 2903 2897 2895 2895 2895 2896 2901 2903 2909 2910 2911 2911 2911 2911 2889 2878 2878 2878 2883 2889 2889 2889 2876 2862 2854 2854 2854 2858 2860 2865 2865 2865 2859 2855 2815 2761 2698 2646 2593 0 0 0 0 0 1918 1906 1905 1900 1899 1891 1879 1854 1830 1811 1801 1788 1779 1770 1768 1763 1759 1754 1750 1746 1741 1738 1733 1730 1726 1723 1720 1718 1715 1713 1711 1709 1706 1705 1702 1701 1699 1697 1694 1691 1690 1687 1684 1681 1678 1675 1674 1671 1666 1661 1659 1656 1652 1647 1640 1630 1625 1618 1608 1602 1595 1584 1576 1571 1568 1564 1562 1560 1560 1559 1559 1559 1559 1559 1559 1559 1560 1560 1561 1563 1565 1565 1567 1567 1567 1567 1567 1567 1566 1565 1564 1563 1563 1562 1561 1560 1557 1556 1554 1552 1550 1548 1546 1543 1541 1540 1538 1536 1535 1534 1532 1531 1528 1527 1524 1522 1520 1517 1515 1512 1510 1507 1505 1502 1499 1498 1497 1495 1494 1494 1493 1493 1493 1493 1494 1494 1495 1496 1497 1498 1498 1498 1498 1498 1498 1498 1498 1498 1498 1498 1498 1497 1496 1496 1495 1494 1493 1492 1492 1490 1488 1486 1485 1482 1481 1478 1476 1474 1472 1470 1467 1466 1463 1461 1460 1457 1455 1454 1453 1452 1452 1452 1452 1452 1452 1454 1454 1455 1457 1458 1459 1461 1461 1462 1463 1464 1465 1466 1466 1467 1467 1468 1468 1468 1468 1468 1468 1468 1468 1466 1466 1465 1465 1463 1462 1461 1460 1457 1456 1454 1452 1449 1447 1445 1442 1440 1439 1439 1439 1439 1439 1440 1443 1446 1450 1454 1460 1469 1480 1484 1489 1493 1498 1502 1507 1509 1513 1515 1519 1522 1525 1527 1529 1530 1532 1535 1537 1540 1541 1542 1542 1542 1544 1546 1547 1549 1554 1558 1562 1566 1566 1567 1567 1567 1571 1576 1580 1586 1591 1596 1601 1604 1606 1606 1606 1605 1605 1605 1605 1609 1609 1611 1614 1621 1629 1636 1640 1642 1651 1659 1670 1679 1692 1696 1698 1699 1700 1701 1701 1701 1702 1701 1701 1701 1700 1700 1696 1696 1696 1692 1682 0 0 0 0 0 0 0 0 0 0 0 0 0 0 0 0 0 0 0 0 0 0 0 0 0 0 0 0 0 0 0 0 0 0 0 0 0 0 0 0 0 0 0 0 0 0
0 0 0 0 0 2134 2146 2172 2172 2172 2157 2152 2144 2144 2144 2144 2161 2161 2161 2153 2146 0 0 0 0 0 0 0 0 0 0 0 0 0 0 0 2090 2091 2093 2095 2095 2093 2088 2088 2088 2090 2098 2098 2098 2098 2098 2101 2109 2109 2110 2110 2110 2110 2117 2128 2130 2130 2133 2133 2133 2141 2142 2146 2148 2151 2156 2159 2165 2167 2171 2175 2180 2186 2190 2192 2192 2193 2197 2200 2200 2204 2209 2215 2215 2215 2216 2216 2220 2223 2227 2229 2229 2229 2230 2230 2236 2241 2247 2253 2258 2260 2263 2267 2273 2277 2282 2286 2289 2291 2293 2297 2302 2306 2310 2314 2314 2314 2317 2318 2318 2318 2316 2316 2315 2315 2316 2320 2331 2342 2347 2350 2350 2354 2365 2371 2371 2371 2371 2371 2373 2378 2384 2385 2386 2388 2394 2399 2403 2409 2413 2417 2421 2427 2435 2443 2445 2454 2457 2457 2459 2465 2473 2474 2477 2478 2480 2480 2481 2483 2486 2486 2486 2487 2487 2488 2494 2504 2509 2514 2519 2526 2532 2547 2568 2588 2608 2628 2636 2674 2748 2777 2826 2852 2868 2875 2875 2875 2867 2863 2853 2853 2853 2861 2871 2881 2890 2896 2897 2901 2901 2901 2904 2904 2904 2901 2901 2901 2902 2902 2903 2903 2903 2903 2898 2893 2885 2885 2885 2889 2901 2903 2904 2904 2904 2903 2902 2894 2877 2871 2871 2871 2883 2892 2892 2892 2883 2879 2864 2858 2858 2858 2860 2865 2865 2865 2859 2855 2815 2754 2696 2636 2593 0 0 0 0 0 1918 1904 1901 1900 1899 1884 1874 1854 1829 1810 1797 1787 1778 1769 1765 1761 1756 1751 1747 1744 1738 1734 1732 1728 1724 1721 1719 1716 1714 1711 1709 1708 1705 1703 1702 1700 1698 1695 1693 1691 1688 1687 1684 1681 1678 1675 1674 1671 1667 1661 1659 1656 1652 1647 1641 1638 1628 1623 1616 1608 1601 1592 1579 1571 1568 1564 1562 1560 1559 1559 1559 1557 1557 1557 1557 1557 1557 1557 1558 1560 1560 1562 1563 1563 1563 1564 1564 1564 1562 1562 1561 1560 1560 1560 1559 1557 1555 1554 1552 1550 1548 1547 1544 1542 1540 1539 1538 1536 1535 1532 1531 1530 1528 1525 1523 1522 1519 1516 1514 1511 1509 1507 1505 1502 1499 1498 1497 1495 1493 1493 1492 1492 1491 1491 1492 1492 1493 1494 1496 1496 1497 1497 1498 1498 1498 1498 1498 1498 1497 1497 1497 1497 1496 1495 1495 1494 1493 1492 1492 1490 1488 1486 1486 1483 1482 1480 1478 1476 1474 1471 1469 1467 1465 1462 1460 1458 1456 1454 1453 1453 1452 1452 1452 1452 1452 1453 1454 1455 1456 1457 1459 1460 1461 1462 1463 1464 1464 1465 1466 1467 1467 1468 1468 1469 1469 1469 1469 1469 1469 1468 1468 1467 1466 1465 1464 1462 1461 1459 1458 1456 1454 1451 1449 1447 1444 1442 1440 1439 1439 1439 1439 1440 1442 1445 1448 1453 1459 1466 1474 1483 1489 1493 1497 1502 1507 1509 1513 1516 1519 1523 1527 1529 1532 1533 1534 1535 1539 1541 1542 1545 1547 1548 1549 1551 1553 1555 1560 1563 1567 1572 1577 1580 1585 1588 1589 1590 1590 1593 1599 1605 1606 1609 1614 1614 1614 1609 1609 1609 1612 1616 1620 1620 1622 1627 1635 1641 1646 1651 1653 1661 1670 1681 1692 1696 1697 1698 1698 1698 1699 1700 1701 1701 1701 1701 1699 1699 1695 1693 1693 1692 1685 0 0 0 0 0 0 0 0 0 0 0 0 0 0 0 0 0 0 0 0 0 0 0 0 0 0 0 0 0 0 0 0 0 0 0 0 0 0 0 0 0 0 0 0 0 0
0 0 0 0 0 2127 2144 2144 2144 2127 2121 2121 2121 2126 2126 2127 2127 0 0 0 0 0 0 0 0 0 0 0 0 2050 2050 2051 2057 2057 2057 2066 2069 2070 2070 2070 2069 2069 2066 2066 2066 2074 2086 2089 2089 2091 2091 2091 2100 2100 2100 2098 2098 2098 2108 2121 2121 2121 2122 2122 2122 2130 2134 2137 2141 2143 2146 2151 2155 2160 2165 2167 2173 2175 2181 2185 2187 2189 2190 2191 2191 2196 2201 2205 2205 2205 2205 2206 2211 2215 2217 2217 2215 2215 2215 2215 2221 2230 2239 2242 2247 2251 2253 2255 2256 2261 2266 2272 2279 2283 2286 2287 2290 2294 2297 2300 2300 2305 2309 2310 2310 2310 2310 2310 2310 2311 2312 2315 2324 2334 2339 2341 2341 2344 2349 2357 2358 2358 2359 2361 2363 2370 2375 2376 2379 2380 2386 2392 2397 2402 2405 2406 2409 2415 2426 2434 2439 2440 2444 2446 2451 2455 2458 2460 2462 2465 2470 2470 2470 2471 2474 2474 2474 2474 2474 2476 2482 2491 2497 2504 2507 2515 2521 2529 2544 2562 2568 2568 2585 2596 2629 2715 2765 2803 2833 2840 2840 2840 2835 2828 2828 2828 2835 2851 2860 2879 2890 2896 2896 2896 2901 2901 2904 2904 2904 2898 2898 2898 2902 2903 2903 2903 2903 2899 2895 2886 2877 2877 2877 2882 2894 2899 2899 2899 2892 2891 2890 2887 2876 2869 2869 2869 2879 2892 2892 2892 2889 2886 2864 2857 2847 2845 2843 2843 2828 2820 2810 2784 2744 2694 2636 2553 0 0 0 0 0 0 1917 1903 1892 1891 1883 1875 1867 1854 1832 1810 1795 1786 1777 1769 1763 1758 1753 1747 1744 1741 1735 1730 1727 1726 1723 1719 1716 1714 1712 1709 1707 1705 1704 1702 1700 1699 1697 1694 1692 1689 1687 1685 1683 1681 1678 1675 1674 1671 1668 1662 1659 1656 1652 1647 1643 1638 1634 1625 1619 1613 1606 1598 1590 1576 1568 1564 1562 1560 1559 1559 1556 1556 1555 1555 1554 1554 1554 1554 1556 1556 1556 1558 1559 1559 1560 1561 1561 1561 1559 1558 1558 1557 1557 1556 1555 1554 1552 1551 1550 1548 1547 1545 1543 1541 1539 1537 1536 1535 1533 1531 1530 1529 1527 1525 1523 1521 1519 1516 1514 1511 1509 1507 1505 1502 1499 1497 1496 1494 1493 1491 1491 1490 1490 1490 1490 1490 1491 1492 1493 1495 1496 1496 1496 1496 1497 1497 1497 1497 1497 1496 1496 1496 1496 1495 1495 1494 1493 1492 1491 1490 1488 1487 1486 1485 1483 1480 1479 1477 1475 1472 1470 1468 1466 1463 1461 1459 1456 1455 1454 1453 1453 1452 1452 1452 1452 1453 1453 1454 1456 1457 1458 1459 1460 1462 1463 1464 1464 1465 1466 1467 1467 1468 1469 1470 1470 1470 1470 1469 1469 1469 1468 1468 1467 1466 1465 1463 1463 1461 1459 1457 1455 1453 1451 1448 1446 1443 1441 1440 1440 1440 1440 1440 1442 1443 1445 1450 1455 1460 1468 1480 1488 1492 1497 1501 1507 1509 1513 1516 1520 1523 1528 1532 1534 1535 1538 1540 1542 1543 1544 1548 1549 1553 1555 1556 1558 1560 1565 1569 1571 1576 1580 1585 1588 1593 1597 1598 1599 1601 1602 1608 1609 1611 1615 1616 1617 1617 1617 1617 1618 1622 1627 1631 1634 1635 1639 1644 1647 1651 1657 1664 1672 1685 1692 1693 1693 1694 1695 1695 1697 1698 1700 1700 1700 1699 1698 1695 1694 1693 1691 1690 1689 0 0 0 0 0 0 0 0 0 0 0 0 0 0 0 0 0 0 0 0 0 0 0 0 0 0 0 0 0 0 0 0 0 0 0 0 0 0 0 0 0 0 0 0 0 0
0 0 0 0 0 2127 2141 2141 2141 2123 2081 2077 2076 0 0 0 0 0 0 0 0 1994 1994 2000 2004 2005 2005 2005 2005 2006 2017 2025 2029 2036 2043 2053 2062 2062 2062 2057 2057 2056 2056 2057 2059 2064 2076 2083 2086 2086 2088 2088 2090 2090 2091 2091 2091 2094 2103 2115 2115 2115 2113 2113 2113 2121 2125 2130 2134 2135 2135 2139 2145 2151 2158 2159 2164 2167 2170 2176 2178 2179 2180 2181 2182 2185 2191 2194 2195 2195 2196 2200 2203 2208 2208 2208 2203 2202 2202 2203 2209 2219 2227 2232 2237 2242 2242 2242 2244 2246 2251 2260 2269 2274 2275 2275 2275 2276 2279 2283 2286 2294 2297 2299 2300 2303 2304 2306 2308 2310 2310 2314 2317 2324 2331 2332 2334 2337 2341 2344 2346 2348 2350 2353 2359 2361 2366 2366 2371 2375 2378 2383 2389 2394 2399 2399 2402 2408 2419 2425 2431 2432 2435 2437 2438 2442 2444 2447 2450 2454 2456 2456 2457 2458 2460 2460 2460 2459 2459 2459 2469 2475 2481 2487 2494 2503 2508 2514 2515 2522 2533 2547 2556 2564 2567 2578 2674 2757 2777 2786 2791 2801 2801 2802 2804 2814 2827 2841 2859 2872 2885 2885 2885 2886 2886 2894 2900 2900 2900 2897 2897 2897 2902 2902 2902 2899 2895 2892 2888 2878 2873 2873 2873 2879 2886 2888 2888 2888 2885 2883 2883 2883 2874 2864 2864 2864 2868 2890 2890 2890 2889 2886 2864 2842 2839 2839 2829 2808 2776 2645 2562 2516 0 0 0 0 0 0 0 0 0 0 1908 1895 1886 1880 1874 1869 1861 1851 1834 1813 1795 1785 1775 1766 1760 1756 1751 1745 1742 1738 1734 1730 1727 1724 1721 1717 1714 1712 1710 1708 1706 1705 1703 1701 1699 1696 1695 1693 1690 1689 1686 1685 1682 1680 1677 1675 1673 1670 1668 1663 1659 1656 1652 1647 1644 1640 1635 1630 1623 1614 1609 1604 1598 1586 1574 1566 1562 1560 1559 1559 1556 1555 1555 1554 1553 1552 1551 1551 1551 1552 1553 1553 1554 1555 1556 1558 1558 1558 1557 1555 1554 1553 1553 1553 1552 1551 1549 1548 1547 1546 1545 1543 1541 1540 1538 1536 1535 1533 1532 1531 1529 1527 1526 1524 1522 1521 1519 1516 1514 1511 1509 1507 1505 1502 1499 1497 1496 1494 1491 1490 1489 1488 1488 1488 1488 1488 1490 1490 1492 1493 1494 1494 1495 1495 1495 1496 1496 1496 1496 1496 1496 1496 1495 1494 1494 1494 1493 1492 1491 1489 1488 1487 1486 1485 1483 1481 1479 1477 1476 1474 1470 1469 1466 1463 1462 1460 1458 1456 1455 1453 1453 1452 1452 1452 1452 1452 1453 1454 1455 1456 1457 1458 1459 1460 1462 1463 1464 1465 1466 1467 1467 1468 1470 1470 1470 1471 1471 1470 1470 1470 1469 1469 1468 1468 1466 1466 1464 1463 1460 1458 1457 1454 1452 1449 1447 1446 1444 1441 1440 1440 1440 1441 1442 1443 1444 1446 1450 1456 1461 1471 1483 1490 1494 1500 1506 1509 1512 1516 1520 1524 1529 1532 1535 1537 1541 1543 1544 1545 1548 1551 1552 1556 1559 1560 1560 1562 1566 1571 1575 1578 1581 1585 1590 1593 1597 1598 1602 1606 1607 1609 1612 1614 1616 1619 1622 1623 1624 1625 1625 1628 1634 1641 1646 1649 1652 1653 1654 1654 1659 1666 1672 1684 1691 1691 1691 1692 1692 1693 1694 1696 1699 1699 1699 1698 1697 1695 1691 1690 1690 1687 1685 1673 0 0 0 0 0 0 0 0 0 0 0 0 0 0 0 0 0 0 0 0 0 0 0 0 0 0 0 0 0 0 0 0 0 0 0 0 0 0 0 0 0 0 0 0 0
0 0 0 0 0 0 2104 2104 2104 2091 2076 2004 2002 1993 1990 1990 1988 1988 1990 1990 1990 1991 1991 1992 1992 1993 1993 1993 1993 1996 2006 2011 2014 2016 2027 2040 2052 2052 2052 2049 2049 2049 2049 2052 2052 2058 2064 2072 2077 2079 2084 2085 2085 2085 2084 2084 2084 2094 2097 2104 2107 2107 2107 2107 2107 2110 2117 2123 2129 2129 2129 2132 2137 2143 2148 2152 2155 2157 2161 2166 2168 2169 2171 2173 2175 2177 2181 2182 2183 2186 2188 2191 2193 2194 2195 2195 2195 2194 2194 2194 2199 2208 2214 2221 2225 2231 2232 2232 2233 2237 2239 2249 2258 2264 2265 2265 2264 2264 2265 2268 2272 2281 2283 2285 2290 2293 2299 2302 2304 2306 2306 2308 2312 2316 2322 2325 2328 2329 2335 2336 2336 2337 2342 2347 2352 2352 2352 2353 2358 2362 2366 2368 2374 2384 2389 2392 2394 2401 2411 2417 2421 2422 2424 2426 2427 2427 2434 2441 2443 2446 2446 2446 2446 2446 2447 2450 2450 2450 2452 2452 2452 2458 2463 2469 2475 2485 2493 2494 2496 2496 2498 2513 2534 2535 2538 2540 2577 2628 2648 2695 2749 2774 2781 2783 2788 2802 2818 2834 2851 2864 2871 2871 2874 2874 2875 2889 2899 2899 2899 2897 2897 2897 2898 2898 2898 2890 2886 2883 2880 2874 2869 2869 2869 2875 2877 2877 2877 2877 2876 2873 2871 2871 2865 2864 2864 2864 2868 2874 2886 2886 2886 2886 2863 2830 2812 2810 2757 2683 0 0 0 0 0 0 0 0 0 0 1964 1964 1948 1935 1908 1890 1882 1871 1866 1862 1856 1848 1829 1814 1797 1785 1771 1762 1758 1754 1750 1745 1740 1737 1733 1730 1726 1723 1720 1716 1713 1710 1709 1707 1705 1703 1701 1699 1696 1694 1693 1691 1689 1687 1684 1683 1681 1679 1677 1674 1672 1670 1668 1664 1659 1656 1653 1649 1646 1640 1637 1633 1630 1621 1615 1608 1604 1595 1584 1572 1566 1564 1561 1559 1556 1555 1554 1552 1552 1551 1550 1549 1548 1547 1547 1547 1548 1551 1553 1554 1554 1554 1554 1552 1552 1550 1550 1550 1549 1548 1547 1546 1545 1544 1542 1541 1539 1538 1536 1535 1533 1532 1531 1529 1528 1527 1525 1523 1522 1520 1518 1516 1513 1511 1509 1507 1504 1502 1499 1497 1495 1492 1491 1489 1487 1487 1486 1486 1486 1487 1487 1488 1489 1491 1492 1493 1493 1494 1494 1494 1494 1495 1495 1495 1495 1495 1495 1494 1494 1493 1493 1492 1490 1489 1488 1487 1486 1485 1484 1481 1480 1478 1476 1475 1472 1469 1468 1466 1463 1460 1458 1456 1455 1455 1453 1453 1452 1452 1452 1452 1452 1453 1454 1455 1456 1457 1458 1459 1461 1462 1463 1465 1466 1467 1468 1469 1470 1471 1471 1471 1471 1471 1471 1471 1471 1470 1469 1468 1467 1466 1465 1463 1462 1460 1458 1456 1454 1451 1448 1446 1445 1444 1442 1441 1441 1441 1442 1443 1444 1446 1449 1451 1456 1465 1475 1486 1491 1497 1504 1509 1512 1515 1520 1524 1529 1532 1536 1539 1541 1544 1546 1548 1550 1552 1554 1558 1561 1563 1565 1567 1569 1572 1576 1580 1583 1586 1590 1594 1597 1600 1603 1607 1612 1612 1615 1616 1617 1621 1623 1623 1626 1629 1631 1634 1639 1643 1649 1651 1657 1659 1660 1661 1666 1672 1676 1684 1690 1690 1690 1690 1690 1691 1692 1693 1696 1696 1696 1695 1694 1693 1687 1687 1685 1683 1683 1673 0 0 0 0 0 0 0 0 0 0 0 0 0 0 0 0 0 0 0 0 0 0 0 0 0 0 0 0 0 0 0 0 0 0 0 0 0 0 0 0 0 0 0 0 0
1938 1945 0 0 0 0 0 0 0 0 2021 1999 1997 1983 1981 1976 1976 1976 1982 1982 1982 1980 1980 1980 1987 1989 1990 1990 1990 1994 2002 2002 2004 2005 2010 2026 2041 2041 2041 2038 2038 2038 2041 2045 2048 2052 2056 2061 2067 2073 2078 2080 2080 2080 2080 2080 2080 2086 2088 2093 2097 2099 2099 2100 2101 2102 2111 2116 2120 2122 2123 2129 2133 2134 2138 2139 2141 2146 2150 2153 2155 2157 2159 2162 2166 2167 2168 2168 2169 2176 2179 2180 2181 2181 2182 2183 2183 2183 2183 2184 2189 2196 2204 2210 2214 2217 2222 2225 2226 2227 2232 2238 2244 2249 2252 2252 2255 2256 2257 2259 2262 2269 2273 2280 2284 2284 2287 2289 2294 2296 2297 2299 2301 2304 2311 2315 2319 2322 2324 2326 2327 2327 2332 2339 2340 2341 2341 2343 2344 2348 2352 2356 2362 2366 2377 2382 2384 2390 2400 2405 2410 2411 2415 2418 2420 2420 2423 2427 2434 2435 2436 2436 2436 2437 2438 2442 2443 2443 2443 2443 2443 2446 2447 2452 2455 2462 2474 2477 2477 2479 2482 2489 2494 2497 2498 2506 2522 2539 2572 2633 2688 2712 2747 2758 2778 2788 2802 2814 2832 2842 2849 2852 2857 2866 2875 2888 2888 2888 2886 2886 2886 2894 2894 2894 2890 2878 2875 2874 2872 2871 2868 2868 2868 2866 2866 2866 2865 2863 2863 2862 2860 2860 2860 2861 2864 2865 2868 2873 2882 2882 2882 2881 2863 2830 2796 2723 2592 0 0 0 0 0 0 0 1857 1872 1902 1932 1942 1942 1942 1928 1907 1884 1873 1864 1862 1858 1852 1844 1829 1817 1797 1784 1771 1758 1755 1751 1749 1745 1739 1735 1730 1727 1724 1722 1718 1715 1711 1709 1707 1705 1704 1701 1699 1696 1694 1693 1691 1690 1687 1685 1684 1682 1680 1678 1676 1674 1672 1669 1667 1664 1659 1656 1653 1651 1647 1643 1639 1635 1634 1630 1623 1618 1609 1602 1593 1582 1573 1568 1565 1562 1558 1555 1554 1552 1552 1549 1549 1547 1546 1546 1545 1545 1545 1546 1548 1550 1551 1551 1551 1550 1550 1550 1549 1548 1547 1545 1545 1544 1544 1542 1540 1539 1537 1536 1534 1533 1533 1531 1529 1528 1527 1525 1523 1522 1521 1519 1516 1515 1513 1511 1508 1506 1503 1501 1499 1496 1494 1492 1490 1488 1487 1485 1485 1485 1485 1485 1486 1486 1488 1489 1490 1491 1492 1492 1493 1493 1493 1494 1494 1494 1494 1494 1494 1493 1493 1493 1492 1491 1490 1489 1488 1487 1486 1485 1484 1482 1480 1479 1477 1475 1473 1470 1469 1466 1465 1462 1460 1458 1456 1455 1453 1453 1452 1452 1452 1452 1452 1453 1453 1454 1455 1456 1458 1459 1460 1462 1463 1464 1466 1467 1468 1469 1470 1471 1471 1471 1472 1472 1472 1472 1471 1470 1470 1469 1469 1467 1466 1464 1463 1461 1459 1458 1456 1453 1451 1448 1446 1445 1444 1442 1442 1442 1443 1443 1444 1446 1449 1451 1454 1460 1467 1478 1487 1496 1501 1507 1512 1515 1519 1524 1529 1532 1536 1540 1543 1544 1547 1549 1552 1554 1556 1559 1562 1564 1566 1569 1571 1574 1577 1580 1584 1588 1590 1594 1598 1601 1604 1607 1613 1615 1616 1619 1621 1621 1623 1625 1628 1630 1633 1635 1640 1644 1649 1652 1657 1660 1663 1664 1666 1672 1676 1684 1687 1687 1687 1687 1687 1688 1689 1691 1693 1693 1693 1691 1691 1690 1684 1683 1683 1680 1680 1673 1623 0 0 0 0 0 0 0 0 0 0 0 0 0 0 0 0 0 0 0 0 0 0 0 0 0 0 0 0 0 0 0 0 0 0 0 0 0 0 0 0 0 0 0 0
1938 1945 1946 0 0 0 0 0 0 1975 1963 1963 1960 1962 1963 1964 1964 1968 1976 1976 1976 1964 1964 1964 1976 1981 1983 1986 1989 1992 1997 1997 2000 2000 2000 2015 2029 2029 2029 2028 2028 2028 2032 2036 2041 2046 2048 2049 2056 2064 2074 2078 2078 2078 2073 2073 2073 2080 2082 2086 2087 2091 2093 2093 2094 2098 2103 2110 2112 2115 2119 2124 2126 2126 2127 2129 2132 2133 2137 2138 2140 2143 2148 2152 2156 2157 2158 2158 2160 2164 2165 2168 2169 2170 2172 2172 2172 2172 2174 2178 2178 2188 2193 2197 2201 2203 2209 2212 2213 2214 2214 2219 2226 2230 2233 2238 2243 2248 2252 2255 2256 2261 2269 2275 2276 2278 2278 2280 2284 2285 2287 2289 2291 2292 2293 2302 2309 2315 2315 2317 2317 2317 2323 2328 2329 2329 2330 2333 2336 2339 2343 2349 2355 2359 2364 2366 2368 2371 2382 2393 2397 2399 2404 2405 2406 2408 2408 2414 2415 2417 2419 2423 2427 2427 2428 2428 2431 2431 2431 2431 2431 2431 2438 2439 2444 2447 2453 2460 2462 2468 2474 2478 2484 2484 2484 2484 2485 2504 2527 2564 2583 2615 2647 2675 2723 2759 2780 2782 2799 2812 2826 2834 2848 2862 2872 2882 2882 2882 2882 2882 2884 2890 2890 2890 2885 2876 2869 2869 2868 2867 2867 2866 2865 2860 2858 2853 2853 2853 2855 2855 2856 2858 2858 2861 2864 2865 2865 2872 2880 2881 2881 2881 2863 2830 2791 2624 2433 0 0 0 0 0 0 1824 1846 1855 1882 1916 1938 1938 1938 1928 1903 1878 1864 1859 1857 1853 1846 1836 1828 1817 1802 1783 1770 1758 1753 1751 1749 1744 1738 1733 1728 1726 1723 1720 1715 1712 1709 1707 1706 1703 1702 1700 1697 1695 1693 1692 1690 1688 1686 1684 1682 1680 1679 1677 1675 1673 1671 1668 1666 1664 1660 1657 1654 1651 1648 1644 1641 1639 1635 1632 1626 1621 1615 1607 1602 1596 1586 1577 1570 1566 1561 1559 1554 1552 1552 1549 1548 1546 1546 1543 1543 1543 1543 1543 1544 1545 1546 1546 1546 1547 1547 1548 1548 1548 1546 1544 1543 1542 1542 1540 1538 1537 1535 1534 1533 1532 1530 1529 1528 1526 1525 1524 1523 1521 1519 1518 1516 1513 1512 1511 1508 1505 1503 1501 1498 1496 1494 1492 1489 1487 1486 1485 1484 1484 1484 1484 1484 1485 1485 1487 1488 1489 1491 1491 1491 1492 1493 1493 1494 1494 1494 1494 1494 1493 1493 1492 1492 1491 1490 1489 1488 1487 1486 1485 1484 1482 1481 1479 1477 1475 1473 1472 1470 1467 1465 1463 1461 1458 1456 1456 1454 1454 1452 1452 1452 1452 1452 1452 1453 1454 1454 1456 1457 1459 1460 1461 1462 1464 1465 1467 1467 1469 1470 1471 1471 1472 1472 1473 1473 1473 1472 1471 1470 1470 1469 1468 1467 1466 1464 1463 1462 1460 1457 1454 1452 1449 1447 1446 1444 1444 1443 1443 1443 1444 1445 1448 1448 1451 1454 1460 1465 1470 1480 1489 1498 1505 1510 1515 1519 1523 1528 1533 1536 1540 1543 1546 1548 1550 1552 1555 1557 1559 1562 1564 1566 1569 1572 1575 1577 1581 1585 1588 1591 1594 1598 1601 1604 1607 1613 1615 1618 1619 1621 1623 1625 1626 1629 1632 1635 1637 1640 1644 1649 1652 1657 1660 1663 1664 1666 1672 1676 1679 1683 1684 1684 1685 1685 1685 1685 1687 1687 1687 1687 1687 1686 1680 1675 1675 1675 1675 1675 1663 1626 1620 0 0 0 0 0 0 0 0 0 0 0 0 0 0 0 0 0 0 0 0 0 0 0 0 0 0 0 0 0 0 0 0 0 0 0 0 0 0 0 0 0 0 0
1901 1905 1906 1907 0 0 0 0 1957 1940 1940 1940 1949 1952 1952 1954 1955 1957 1963 1963 1963 1954 1954 1954 1963 1967 1970 1974 1982 1984 1992 1992 1995 1995 1995 2004 2012 2014 2015 2016 2016 2020 2025 2029 2035 2039 2040 2044 2048 2055 2064 2072 2072 2072 2068 2068 2068 2076 2079 2081 2085 2086 2087 2087 2087 2093 2099 2104 2106 2109 2114 2117 2117 2118 2118 2118 2120 2121 2123 2125 2129 2132 2136 2142 2150 2153 2154 2157 2157 2157 2158 2158 2160 2162 2162 2162 2163 2163 2163 2167 2174 2176 2181 2181 2183 2187 2193 2198 2199 2200 2201 2208 2213 2218 2219 2225 2231 2238 2246 2251 2252 2255 2263 2264 2266 2266 2266 2266 2273 2274 2276 2284 2284 2284 2285 2286 2295 2300 2300 2300 2300 2300 2308 2313 2314 2314 2316 2323 2334 2336 2336 2340 2345 2350 2354 2355 2355 2358 2363 2365 2372 2376 2379 2382 2386 2390 2397 2401 2402 2403 2409 2409 2409 2409 2411 2412 2412 2418 2421 2422 2423 2425 2429 2434 2439 2444 2449 2452 2456 2460 2466 2469 2473 2476 2477 2477 2479 2489 2507 2520 2540 2561 2567 2571 2594 2619 2710 2743 2756 2769 2797 2819 2834 2848 2865 2869 2870 2871 2871 2875 2884 2885 2885 2885 2875 2871 2868 2868 2867 2867 2867 2865 2858 2854 2853 2853 2853 2853 2853 2855 2856 2858 2858 2859 2864 2865 2865 2868 2880 2881 2881 2881 2881 2852 2791 2624 2433 0 0 0 0 0 1822 1822 1822 1838 1849 1883 1932 1932 1932 1928 1903 1875 1859 1855 1849 1837 1830 1827 1824 1817 1802 1783 1770 1758 1752 1751 1748 1744 1738 1732 1726 1722 1721 1718 1714 1711 1708 1706 1704 1702 1700 1699 1697 1693 1692 1690 1687 1686 1685 1683 1681 1679 1677 1676 1674 1672 1670 1668 1666 1664 1660 1657 1654 1651 1650 1647 1642 1639 1637 1634 1629 1624 1618 1614 1608 1603 1597 1590 1576 1569 1566 1564 1558 1555 1552 1549 1548 1546 1543 1541 1540 1540 1539 1539 1539 1541 1542 1542 1542 1542 1543 1543 1543 1543 1543 1542 1541 1540 1539 1538 1536 1536 1534 1533 1532 1531 1529 1527 1526 1524 1524 1522 1521 1519 1517 1516 1515 1513 1511 1509 1507 1504 1502 1500 1498 1495 1494 1492 1489 1487 1485 1484 1483 1482 1482 1482 1483 1483 1484 1485 1486 1488 1488 1489 1490 1490 1491 1492 1492 1492 1493 1493 1493 1493 1492 1492 1491 1491 1490 1489 1488 1487 1486 1485 1484 1483 1481 1480 1478 1476 1474 1472 1472 1470 1467 1464 1462 1460 1458 1457 1456 1454 1453 1452 1452 1452 1452 1452 1453 1453 1454 1455 1457 1458 1459 1461 1462 1463 1464 1466 1467 1469 1470 1471 1471 1472 1472 1473 1473 1473 1472 1472 1471 1471 1470 1469 1468 1466 1465 1465 1463 1462 1459 1456 1454 1451 1449 1448 1446 1446 1445 1445 1445 1445 1446 1448 1448 1450 1451 1457 1464 1467 1471 1483 1496 1504 1508 1514 1518 1521 1528 1533 1536 1540 1544 1547 1548 1551 1553 1555 1558 1560 1562 1564 1567 1569 1572 1576 1579 1583 1586 1588 1591 1595 1598 1603 1604 1607 1613 1616 1619 1620 1622 1624 1625 1627 1631 1634 1637 1639 1642 1646 1650 1652 1657 1660 1663 1664 1666 1668 1671 1674 1677 1679 1681 1681 1681 1682 1682 1682 1682 1682 1683 1681 1681 1679 1671 1671 1671 1671 1665 1652 1641 1622 0 0 0 0 0 0 0 0 0 0 0 0 0 0 0 0 0 0 0 0 0 0 0 0 0 0 0 0 0 0 0 0 0 0 0 0 0 0 0 0 0 0 0
1893 1893 1897 1898 1904 1923 1933 1933 1933 1924 1924 1924 1929 1936 1939 1939 1942 1943 1951 1951 1951 1943 1943 1943 1949 1953 1954 1959 1967 1970 1979 1984 1985 1986 1990 1993 1998 1998 1999 2002 2009 2016 2021 2024 2031 2033 2034 2035 2039 2043 2051 2058 2061 2061 2063 2063 2063 2069 2076 2077 2082 2084 2084 2086 2086 2088 2095 2100 2102 2104 2109 2114 2114 2114 2111 2111 2111 2111 2112 2115 2118 2124 2132 2138 2146 2151 2154 2154 2154 2154 2154 2154 2155 2156 2156 2156 2156 2156 2156 2158 2164 2166 2167 2170 2170 2170 2176 2183 2185 2189 2193 2199 2204 2204 2208 2214 2217 2222 2235 2244 2245 2246 2256 2256 2256 2254 2254 2254 2257 2262 2271 2276 2276 2278 2281 2281 2281 2281 2281 2281 2281 2283 2290 2294 2297 2297 2302 2311 2322 2330 2330 2330 2331 2331 2332 2338 2344 2349 2352 2353 2356 2361 2365 2368 2370 2373 2376 2384 2391 2393 2394 2394 2394 2394 2394 2394 2397 2400 2403 2410 2414 2419 2422 2427 2430 2438 2444 2446 2450 2452 2455 2458 2460 2465 2469 2470 2471 2477 2492 2503 2511 2518 2518 2518 2517 2517 2517 2577 2617 2709 2784 2801 2806 2820 2829 2836 2842 2852 2858 2868 2884 2884 2884 2884 2870 2866 2863 2863 2866 2862 2862 2858 2854 2853 2853 2853 2853 2853 2853 2855 2856 2856 2859 2859 2861 2862 2864 2868 2876 2887 2889 2889 2889 2887 2791 0 0 0 0 0 0 0 0 1819 1819 1819 1825 1856 1876 1902 1902 1902 1882 1868 1855 1852 1841 1832 1825 1821 1817 1813 1802 1783 1771 1759 1751 1750 1746 1742 1736 1730 1724 1720 1719 1716 1714 1711 1707 1704 1702 1701 1700 1698 1696 1693 1690 1688 1687 1684 1683 1681 1680 1678 1676 1674 1673 1672 1670 1667 1665 1663 1660 1657 1654 1651 1650 1647 1642 1640 1637 1634 1631 1628 1623 1618 1613 1608 1601 1595 1589 1578 1571 1568 1564 1559 1555 1551 1548 1546 1543 1540 1539 1539 1538 1536 1536 1536 1537 1537 1538 1538 1539 1539 1540 1540 1540 1539 1538 1537 1537 1535 1534 1533 1532 1531 1529 1528 1528 1526 1526 1524 1522 1521 1519 1517 1516 1514 1514 1512 1510 1509 1506 1503 1501 1499 1498 1495 1493 1491 1489 1487 1485 1484 1482 1481 1481 1481 1481 1481 1482 1483 1484 1485 1487 1488 1489 1489 1490 1491 1492 1492 1492 1492 1492 1492 1491 1491 1490 1490 1489 1488 1487 1486 1486 1485 1484 1483 1481 1480 1479 1477 1476 1474 1473 1470 1469 1466 1463 1461 1460 1458 1456 1455 1454 1453 1452 1452 1452 1452 1453 1453 1454 1455 1455 1457 1459 1461 1462 1463 1464 1465 1467 1468 1470 1471 1471 1472 1472 1473 1473 1473 1472 1472 1472 1471 1470 1470 1469 1467 1466 1465 1464 1464 1462 1458 1456 1454 1452 1450 1448 1447 1447 1447 1446 1446 1446 1448 1448 1450 1450 1452 1458 1461 1466 1478 1489 1498 1505 1510 1518 1521 1527 1532 1536 1540 1544 1547 1549 1551 1553 1555 1558 1560 1562 1564 1567 1569 1573 1576 1580 1583 1586 1588 1591 1595 1599 1603 1605 1608 1613 1616 1619 1621 1622 1624 1626 1628 1631 1634 1638 1640 1644 1647 1650 1652 1657 1658 1658 1661 1663 1665 1666 1670 1673 1676 1677 1678 1678 1678 1678 1678 1678 1678 1679 1679 1678 1677 1670 1668 1668 1666 1660 1649 1641 0 0 0 0 0 0 0 0 0 0 0 0 0 0 0 0 0 0 0 0 0 0 0 0 0 0 0 0 0 0 0 0 0 0 0 0 0 0 0 0 0 0 0 0
1883 1885 1894 1898 1904 1913 1918 1918 1918 1914 1914 1914 1918 1922 1924 1924 1926 1936 1938 1938 1938 1937 1937 1937 1938 1940 1941 1945 1955 1958 1967 1972 1974 1976 1977 1984 1985 1986 1986 1989 1998 2009 2016 2018 2021 2023 2026 2029 2032 2036 2040 2044 2046 2046 2049 2052 2059 2065 2068 2074 2076 2077 2077 2079 2079 2081 2089 2093 2097 2098 2103 2110 2110 2110 2107 2101 2101 2101 2103 2106 2111 2120 2129 2138 2143 2147 2149 2149 2149 2149 2149 2150 2153 2154 2154 2154 2154 2152 2152 2152 2155 2158 2158 2158 2161 2163 2164 2169 2170 2177 2182 2189 2193 2194 2196 2198 2202 2207 2220 2229 2230 2231 2237 2239 2239 2239 2239 2239 2240 2247 2253 2267 2273 2273 2273 2273 2272 2272 2271 2270 2270 2270 2273 2278 2282 2285 2289 2297 2307 2318 2318 2318 2321 2321 2321 2325 2329 2335 2342 2343 2343 2346 2354 2359 2360 2361 2365 2369 2378 2383 2383 2383 2380 2380 2380 2382 2390 2395 2397 2398 2402 2405 2408 2415 2421 2426 2432 2436 2440 2444 2445 2445 2447 2451 2458 2460 2464 2467 2480 2483 2483 2486 2488 2492 2492 2492 2492 2492 2512 2568 2668 2719 2758 2788 2790 2791 2798 2812 2828 2868 2881 2883 2883 2883 2868 2856 2851 2851 2851 2857 2857 2857 2854 2854 2854 2861 2861 2861 2857 2857 2857 2858 2859 2859 2859 2860 2861 2865 2871 2882 2889 2894 2894 2894 2833 2709 0 0 0 0 0 0 0 0 1803 1803 1803 1830 1833 1890 1890 1890 1869 1856 1849 1846 1834 1824 1819 1815 1812 1807 1799 1783 1772 1761 1751 1748 1744 1739 1733 1728 1724 1720 1718 1715 1713 1710 1706 1703 1702 1700 1699 1697 1693 1691 1688 1687 1685 1683 1682 1680 1679 1677 1675 1673 1672 1670 1669 1666 1664 1662 1660 1656 1653 1651 1650 1647 1643 1640 1637 1634 1632 1629 1625 1621 1615 1609 1605 1601 1594 1591 1584 1577 1570 1562 1558 1553 1548 1546 1543 1540 1539 1538 1537 1535 1534 1534 1534 1534 1534 1534 1535 1537 1537 1537 1536 1536 1535 1533 1533 1531 1531 1530 1529 1528 1526 1526 1526 1525 1524 1523 1521 1520 1518 1516 1515 1513 1512 1511 1509 1508 1505 1503 1500 1498 1497 1495 1493 1491 1488 1486 1484 1483 1481 1480 1480 1480 1480 1480 1480 1481 1482 1484 1485 1486 1487 1488 1489 1489 1490 1491 1491 1491 1491 1491 1490 1490 1490 1489 1489 1488 1487 1486 1486 1485 1483 1483 1481 1481 1479 1478 1477 1476 1474 1472 1470 1467 1464 1462 1461 1459 1457 1455 1454 1453 1452 1452 1452 1452 1452 1453 1453 1454 1455 1457 1458 1459 1461 1462 1463 1465 1466 1468 1469 1471 1471 1472 1472 1472 1472 1472 1472 1472 1472 1471 1471 1470 1469 1468 1467 1466 1465 1465 1463 1461 1458 1456 1454 1452 1451 1450 1448 1448 1447 1447 1447 1448 1448 1450 1450 1451 1453 1459 1465 1472 1478 1489 1499 1506 1512 1521 1527 1532 1536 1540 1544 1547 1549 1551 1553 1555 1558 1560 1562 1564 1566 1570 1573 1577 1580 1583 1586 1588 1591 1595 1599 1603 1605 1608 1612 1616 1619 1621 1622 1624 1626 1628 1631 1635 1639 1642 1644 1648 1650 1653 1656 1657 1658 1660 1662 1662 1665 1667 1670 1672 1673 1673 1673 1674 1674 1674 1674 1674 1674 1673 1672 1672 1669 1668 1666 1666 1658 1648 1641 0 0 0 0 0 0 0 0 0 0 0 0 0 0 0 0 0 0 0 0 0 0 0 0 0 0 0 0 0 0 0 0 0 0 0 0 0 0 0 0 0 0 0 0
1881 1884 1891 1892 1902 1903 1903 1903 1900 1900 1900 1905 1910 1911 1911 1914 1915 1925 1928 1928 1928 1925 1925 1925 1931 1936 1937 1940 1950 1957 1959 1959 1960 1962 1968 1975 1975 1977 1979 1979 1986 1996 2004 2007 2011 2012 2015 2020 2024 2028 2032 2033 2034 2034 2037 2044 2054 2058 2063 2064 2066 2068 2068 2068 2069 2072 2079 2085 2090 2093 2096 2100 2100 2100 2100 2096 2095 2095 2095 2098 2103 2113 2121 2128 2132 2136 2136 2136 2136 2136 2138 2143 2147 2147 2148 2148 2148 2147 2145 2145 2145 2148 2149 2150 2151 2154 2157 2161 2162 2167 2168 2168 2173 2176 2182 2187 2193 2194 2203 2209 2211 2217 2225 2225 2225 2213 2208 2208 2208 2215 2228 2245 2268 2268 2268 2266 2265 2265 2263 2262 2262 2262 2266 2270 2274 2278 2282 2289 2296 2307 2310 2311 2313 2314 2316 2316 2316 2322 2328 2331 2332 2335 2341 2351 2355 2357 2360 2365 2366 2368 2368 2374 2374 2374 2376 2376 2383 2388 2388 2388 2388 2388 2392 2398 2404 2411 2419 2424 2427 2432 2433 2434 2435 2435 2442 2450 2457 2462 2467 2467 2467 2468 2468 2468 2475 2477 2479 2481 2488 2504 2531 2583 2651 2721 2733 2734 2747 2771 2798 2843 2866 2873 2873 2873 2866 2850 2849 2849 2849 2857 2857 2857 2857 2857 2864 2870 2870 2870 2861 2859 2859 2859 2859 2859 2859 2860 2861 2863 2865 2871 2879 2894 2894 2894 2883 2800 2623 0 0 0 0 0 0 0 0 1787 1787 1811 1833 1866 1866 1866 1863 1853 1847 1836 1826 1819 1813 1810 1807 1802 1796 1783 1774 1763 1753 1748 1740 1736 1731 1727 1724 1720 1717 1714 1711 1709 1706 1703 1701 1699 1697 1695 1693 1690 1688 1686 1684 1682 1681 1679 1678 1676 1674 1673 1670 1669 1667 1666 1663 1660 1658 1655 1653 1650 1647 1646 1643 1640 1637 1634 1633 1630 1626 1621 1617 1613 1611 1607 1601 1597 1594 1590 1574 1565 1560 1558 1550 1548 1543 1540 1539 1538 1535 1534 1533 1532 1531 1531 1531 1532 1533 1533 1533 1533 1532 1532 1532 1531 1530 1528 1528 1527 1527 1526 1525 1524 1523 1522 1522 1520 1519 1517 1516 1515 1513 1511 1511 1509 1508 1506 1504 1502 1499 1498 1495 1494 1492 1490 1488 1485 1484 1482 1480 1479 1479 1478 1478 1478 1478 1479 1481 1482 1484 1485 1486 1487 1487 1487 1488 1489 1490 1490 1490 1490 1490 1489 1488 1488 1488 1487 1487 1486 1486 1485 1483 1483 1482 1481 1480 1479 1478 1476 1475 1474 1471 1469 1467 1464 1461 1460 1458 1457 1454 1453 1453 1452 1452 1452 1452 1452 1453 1454 1455 1456 1457 1459 1459 1461 1463 1465 1466 1468 1469 1470 1470 1471 1472 1472 1472 1472 1472 1472 1472 1472 1472 1471 1470 1469 1468 1467 1467 1465 1464 1462 1461 1458 1457 1454 1453 1452 1450 1449 1448 1448 1448 1448 1448 1450 1450 1451 1452 1459 1462 1466 1470 1479 1492 1502 1511 1519 1526 1531 1535 1540 1544 1547 1548 1550 1553 1555 1558 1560 1561 1563 1566 1569 1573 1577 1580 1582 1585 1587 1591 1595 1599 1603 1605 1608 1611 1615 1619 1621 1622 1624 1626 1628 1631 1635 1639 1642 1644 1648 1650 1652 1655 1657 1658 1659 1661 1662 1663 1665 1668 1668 1670 1670 1670 1670 1670 1670 1669 1667 1665 1665 1665 1665 1666 1666 1666 1663 1651 1646 1628 0 0 0 0 0 0 0 0 0 0 0 0 0 0 0 0 0 0 0 0 0 0 0 0 0 0 0 0 0 0 0 0 0 0 0 0 0 0 0 0 0 0 0 0
1877 1884 1891 1892 1899 1899 1899 1892 1892 1892 1895 1900 1903 1903 1904 1904 1907 1914 1922 1922 1922 1920 1920 1920 1926 1930 1931 1937 1944 1949 1949 1951 1952 1953 1960 1967 1967 1968 1968 1968 1975 1984 1993 1995 1998 1999 2001 2007 2014 2021 2023 2024 2024 2026 2031 2039 2047 2051 2053 2053 2055 2057 2058 2058 2058 2061 2067 2074 2081 2082 2083 2085 2086 2086 2086 2086 2084 2084 2084 2087 2090 2100 2107 2112 2114 2119 2119 2119 2119 2119 2125 2131 2136 2136 2137 2137 2137 2137 2137 2137 2139 2142 2144 2145 2147 2150 2153 2157 2157 2157 2153 2149 2149 2149 2162 2169 2185 2193 2197 2199 2200 2201 2200 0 0 0 0 2179 2195 2198 2211 2230 2251 2256 2257 2257 2257 2260 2260 2261 2261 2262 2263 2265 2270 2274 2280 2283 2285 2292 2301 2304 2306 2306 2307 2307 2307 2311 2319 2323 2324 2324 2329 2337 2350 2356 2356 2357 2357 2357 2362 2364 2365 2366 2366 2367 2374 2377 2377 2377 2377 2377 2380 2385 2388 2392 2399 2408 2417 2424 2424 2424 2425 2426 2428 2439 2449 2452 2452 2452 2447 2447 2447 2455 2466 2474 2476 2476 2481 2486 2488 2511 2546 2579 2622 2668 2688 2716 2773 2815 2831 2848 2859 2859 2859 2847 2847 2847 2848 2855 2856 2857 2858 2864 2874 2875 2875 2875 2866 2864 2860 2860 2860 2860 2860 2860 2860 2860 2859 2860 2860 2868 2882 2882 2882 2860 2725 2599 0 0 0 0 0 0 0 1798 1798 1811 1833 1863 1863 1863 1859 1852 1844 1833 1824 1814 1808 1803 1801 1798 1792 1783 1774 1767 1756 1747 1740 1734 1729 1726 1722 1719 1717 1714 1711 1707 1705 1702 1700 1698 1695 1694 1692 1690 1686 1685 1682 1681 1680 1678 1676 1675 1673 1671 1670 1669 1666 1664 1662 1660 1657 1655 1652 1650 1647 1645 1643 1640 1637 1634 1633 1630 1626 1622 1617 1615 1613 1610 1606 1604 1597 1593 1589 1580 1570 1563 1555 1553 1547 1543 1540 1538 1535 1534 1532 1530 1529 1529 1529 1530 1531 1531 1531 1531 1530 1530 1529 1528 1526 1525 1525 1525 1525 1524 1522 1521 1520 1518 1518 1517 1516 1515 1513 1513 1511 1510 1509 1508 1507 1505 1503 1500 1499 1497 1494 1493 1492 1489 1487 1485 1483 1481 1480 1479 1478 1478 1477 1477 1477 1478 1479 1480 1481 1483 1484 1485 1485 1486 1487 1488 1488 1489 1489 1489 1489 1488 1488 1487 1487 1487 1486 1486 1485 1484 1483 1483 1482 1481 1480 1479 1478 1477 1476 1474 1472 1470 1468 1465 1463 1461 1458 1457 1454 1453 1453 1452 1452 1452 1452 1452 1452 1453 1454 1455 1457 1458 1459 1460 1461 1464 1465 1467 1468 1469 1470 1471 1472 1472 1472 1472 1472 1472 1472 1472 1472 1471 1471 1470 1470 1468 1468 1467 1466 1463 1462 1460 1458 1457 1455 1454 1452 1451 1450 1450 1449 1449 1449 1450 1450 1450 1451 1456 1461 1464 1467 1471 1478 1491 1504 1516 1521 1527 1533 1539 1543 1545 1548 1549 1552 1554 1556 1559 1560 1563 1566 1569 1573 1577 1579 1581 1583 1587 1590 1595 1598 1602 1604 1607 1609 1613 1617 1619 1622 1623 1626 1628 1630 1634 1639 1642 1644 1647 1650 1652 1655 1656 1656 1657 1660 1662 1662 1663 1665 1665 1665 1666 1666 1666 1666 1665 1663 1661 1661 1660 1660 1660 1662 1662 1662 1651 1640 1637 1626 0 0 0 0 0 0 0 0 0 0 0 0 0 0 0 0 0 0 0 0 0 0 0 0 0 0 0 0 0 0 0 0 0 0 0 0 0 0 0 0 0 0 0 0
1877 1884 1888 1888 1888 1888 1886 1886 1886 1892 1895 1898 1898 1898 1900 1901 1906 1908 1911 1911 1912 1914 1914 1919 1924 1925 1927 1932 1938 1940 1943 1943 1944 1947 1954 1962 1963 1964 1964 1966 1969 1977 1980 1980 1980 1982 1985 1991 2002 2012 2017 2018 2019 2020 2025 2029 2036 2038 2039 2040 2043 2044 2045 2045 2045 2048 2051 2060 2066 2068 2068 2068 2069 2072 2075 2075 2076 2076 2076 2078 2080 2083 2089 2094 2099 2101 2104 2106 2106 2109 2114 2117 2120 2120 2122 2124 2125 2125 2126 2128 2133 2135 2136 2138 2143 2147 2147 2147 2147 2144 2137 2127 2124 2124 2124 2142 0 0 0 0 0 0 0 0 0 0 0 0 0 0 0 0 2216 2236 2237 2238 2251 2256 2260 2260 2260 2262 2262 2263 2265 2270 2273 2275 2279 2282 2290 2295 2296 2296 2296 2296 2296 2303 2306 2309 2310 2312 2312 2328 2339 2349 2350 2352 2352 2352 2355 2357 2357 2359 2359 2361 2365 2365 2365 2365 2365 2367 2372 2376 2379 2380 2383 2391 2402 2414 2415 2415 2418 2419 2420 2428 2433 2433 2433 2434 2434 2438 2443 2448 2459 2463 2466 2466 2467 2467 2467 2474 2491 2516 2535 2536 2542 2586 2661 2747 2795 2812 2828 2833 2833 2838 2838 2838 2847 2855 2855 2855 2858 2864 2874 2875 2875 2875 2866 2864 2862 2861 2861 2860 2860 2860 2858 2858 2856 2847 2847 2847 2855 2860 2860 2860 2850 2748 2603 0 0 0 0 0 0 1811 1811 1811 1843 1861 1861 1861 1859 1852 1841 1832 1822 1811 1802 1798 1796 1793 1789 1783 1774 1767 1758 1747 1739 1732 1728 1726 1722 1718 1715 1713 1710 1707 1704 1701 1699 1696 1694 1692 1691 1687 1685 1683 1681 1679 1678 1676 1675 1674 1672 1670 1669 1667 1665 1664 1660 1659 1656 1653 1651 1649 1647 1645 1643 1640 1637 1634 1633 1630 1627 1622 1618 1616 1613 1610 1609 1606 1603 1599 1594 1589 1585 1572 1570 1559 1552 1551 1545 1540 1535 1534 1532 1530 1528 1527 1527 1527 1527 1527 1527 1528 1527 1526 1526 1525 1523 1522 1522 1522 1522 1521 1519 1518 1517 1516 1515 1514 1514 1512 1511 1510 1509 1508 1507 1506 1505 1504 1502 1499 1497 1495 1494 1492 1490 1489 1486 1484 1482 1481 1479 1478 1477 1476 1476 1476 1476 1476 1477 1478 1480 1481 1482 1483 1483 1484 1486 1486 1487 1487 1488 1488 1488 1487 1487 1487 1487 1487 1485 1485 1484 1484 1483 1482 1482 1481 1480 1479 1478 1477 1477 1475 1473 1471 1469 1466 1464 1462 1460 1458 1456 1454 1453 1452 1452 1451 1451 1451 1452 1452 1454 1455 1456 1457 1459 1460 1461 1463 1464 1466 1467 1468 1469 1470 1471 1471 1472 1472 1472 1472 1472 1472 1472 1472 1471 1471 1470 1470 1469 1468 1467 1465 1463 1461 1460 1458 1457 1456 1454 1453 1452 1450 1450 1450 1450 1450 1450 1450 1451 1452 1456 1462 1465 1469 1473 1481 1494 1507 1519 1522 1527 1533 1539 1542 1544 1547 1549 1552 1555 1557 1560 1562 1566 1569 1571 1574 1577 1579 1583 1586 1589 1594 1596 1599 1601 1605 1607 1611 1614 1616 1619 1622 1625 1628 1630 1634 1638 1640 1644 1647 1649 1652 1654 1654 1654 1655 1659 1660 1661 1662 1662 1662 1662 1662 1662 1662 1661 1658 1657 1657 1655 1655 1655 1655 1659 1659 1659 1642 1639 1619 1618 0 0 0 0 0 0 0 0 0 0 0 0 0 0 0 0 0 0 0 0 0 0 0 0 0 0 0 0 0 0 0 0 0 0 0 0 0 0 0 0 0 0 0 0
1870 1876 1876 1876 1876 1876 1877 1878 1885 1891 1891 1893 1894 1895 1895 1898 1901 1904 1904 1906 1907 1908 1911 1915 1919 1922 1924 1928 1931 1935 1936 1938 1942 1946 1952 1956 1961 1962 1962 1963 1967 1968 1968 1970 1970 1970 1971 1979 1990 2002 2010 2012 2013 2014 2018 2020 2023 2023 2025 2026 2031 2032 2032 2036 2038 2038 2040 2043 2048 2050 2054 2054 2058 2061 2066 2069 2069 2070 2071 2072 2073 2075 2078 2081 2085 2088 2093 2096 2099 2102 2105 2105 2106 2107 2110 2112 2115 2116 2116 2118 2120 2121 2124 2128 2134 2141 2142 2142 2142 2130 2122 2113 2112 0 0 0 0 0 0 0 0 0 0 0 0 0 0 0 0 0 0 0 0 2229 2229 2229 2237 2245 2257 2257 2260 2260 2260 2262 2262 2262 2267 2271 2273 2276 2280 2282 2285 2285 2286 2286 2289 2289 2294 2296 2296 2299 2299 2307 2325 2336 2341 2343 2343 2344 2345 2345 2345 2345 2345 2352 2352 2352 2347 2347 2347 2359 2363 2365 2367 2368 2371 2377 2387 2400 2410 2413 2413 2414 2414 2417 2417 2417 2422 2422 2426 2431 2435 2440 2447 2452 2452 2452 2450 2450 2450 2455 2459 2459 2471 2480 2490 2526 2571 2618 2696 2733 2765 2791 2800 2802 2807 2808 2830 2843 2850 2855 2858 2864 2874 2875 2875 2875 2866 2864 2862 2861 2861 2860 2860 2860 2856 2854 2852 2839 2832 2832 2832 2842 2850 2850 2850 2834 2719 2581 0 0 0 0 0 1845 1845 1845 1861 1863 1863 1861 1858 1852 1840 1832 1820 1807 1799 1793 1792 1791 1787 1780 1773 1767 1758 1747 1738 1731 1728 1725 1721 1717 1715 1712 1709 1706 1703 1700 1697 1695 1693 1691 1688 1686 1684 1682 1679 1678 1677 1675 1674 1672 1671 1669 1667 1666 1664 1662 1660 1656 1654 1652 1649 1648 1646 1643 1641 1638 1636 1634 1633 1630 1627 1623 1621 1617 1615 1612 1610 1606 1605 1601 1596 1592 1585 1580 1578 1566 1562 1561 1553 1544 1541 1535 1532 1530 1528 1527 1527 1526 1526 1525 1525 1524 1524 1523 1523 1522 1521 1519 1519 1519 1518 1518 1517 1515 1514 1514 1513 1512 1511 1510 1508 1507 1507 1506 1506 1505 1503 1502 1500 1498 1496 1494 1492 1491 1489 1488 1485 1484 1482 1481 1479 1477 1477 1475 1475 1475 1475 1475 1475 1477 1478 1480 1480 1480 1482 1482 1483 1484 1485 1486 1486 1487 1487 1486 1486 1486 1486 1485 1485 1485 1484 1484 1483 1482 1481 1481 1480 1479 1478 1478 1477 1475 1474 1472 1470 1468 1466 1462 1461 1459 1457 1455 1454 1453 1452 1451 1451 1451 1452 1452 1454 1454 1455 1457 1458 1459 1461 1463 1464 1466 1466 1468 1468 1469 1471 1471 1471 1472 1472 1472 1472 1472 1472 1472 1472 1472 1471 1471 1470 1469 1469 1467 1465 1464 1462 1459 1458 1457 1456 1455 1453 1452 1451 1451 1450 1450 1450 1450 1451 1451 1453 1458 1462 1467 1472 1479 1487 1497 1510 1518 1523 1530 1532 1540 1542 1546 1549 1550 1553 1554 1557 1560 1563 1567 1571 1573 1576 1578 1581 1584 1588 1591 1594 1597 1600 1603 1606 1609 1612 1614 1617 1620 1623 1626 1629 1633 1637 1639 1642 1644 1646 1649 1650 1650 1651 1652 1655 1657 1658 1658 1658 1658 1658 1659 1659 1659 1656 1653 1652 1651 1651 1650 1650 1650 1652 1652 1652 1637 1623 1598 0 0 0 0 0 0 0 0 0 0 0 0 0 0 0 0 0 0 0 0 0 0 0 0 0 0 0 0 0 0 0 0 0 0 0 0 0 0 0 0 0 0 0 0 0
1860 1871 1871 1871 1872 1872 1873 1877 1884 1888 1890 1892 1892 1894 1895 1896 1901 1901 1901 1903 1904 1908 1911 1914 1917 1918 1919 1922 1926 1932 1936 1938 1942 1945 1948 1949 1951 1956 1957 1958 1959 1959 1959 1958 1958 1958 1961 1969 1978 1989 1999 2004 2007 2008 2009 2011 2011 2012 2014 2017 2022 2023 2025 2025 2025 2026 2031 2034 2035 2038 2042 2047 2051 2056 2060 2065 2067 2067 2068 2067 2067 2068 2070 2072 2074 2077 2080 2085 2091 2095 2095 2095 2096 2096 2098 2101 2105 2106 2106 2106 2108 2111 2112 2117 2127 2136 2136 2136 2130 2125 2117 0 0 0 0 0 0 0 0 0 0 0 0 0 0 0 0 0 0 0 0 0 0 0 2191 2192 2200 2217 2244 2257 2257 2257 2256 2255 2255 2255 2262 2265 2272 2275 2275 2276 2278 2278 2279 2280 2281 2281 2283 2285 2287 2289 2290 2293 2301 2312 2323 2330 2331 2331 2332 2332 2332 2335 2338 2340 2341 2341 2341 2341 2341 2352 2355 2355 2357 2357 2359 2367 2378 2389 2399 2408 2408 2408 2408 2406 2406 2406 2409 2414 2417 2421 2426 2431 2434 2436 2436 2436 2436 2438 2438 2438 2438 2439 2439 2446 2477 2486 2499 2524 2546 2563 2577 2641 2707 2745 2773 2778 2799 2814 2826 2835 2847 2862 2869 2871 2871 2871 2865 2862 2861 2860 2860 2859 2859 2854 2849 2846 2834 2825 2820 2820 2820 2830 2839 2839 2839 2834 2807 2697 2543 0 0 0 0 1866 1866 1878 1878 1878 1863 1861 1857 1848 1840 1832 1819 1806 1798 1791 1786 1786 1782 1775 1769 1763 1758 1747 1737 1730 1726 1724 1719 1716 1713 1710 1708 1705 1702 1699 1697 1694 1691 1689 1687 1685 1683 1681 1679 1677 1676 1674 1674 1671 1670 1668 1666 1664 1662 1661 1658 1656 1652 1651 1649 1646 1645 1643 1640 1638 1635 1633 1632 1630 1627 1625 1622 1620 1617 1614 1610 1607 1605 1602 1600 1596 1590 1584 1581 1579 1573 1562 1558 1554 1545 1537 1533 1530 1528 1527 1527 1526 1526 1524 1523 1522 1520 1520 1520 1520 1519 1518 1517 1515 1515 1515 1514 1514 1512 1511 1511 1509 1508 1507 1506 1505 1504 1504 1503 1503 1502 1500 1498 1497 1494 1493 1491 1490 1488 1487 1485 1483 1481 1479 1478 1477 1476 1475 1474 1474 1474 1474 1475 1476 1476 1478 1478 1479 1480 1480 1481 1483 1484 1484 1485 1485 1485 1485 1485 1485 1485 1484 1484 1484 1484 1484 1483 1482 1481 1481 1480 1479 1478 1478 1477 1475 1474 1473 1471 1469 1467 1465 1462 1460 1459 1456 1454 1454 1453 1451 1451 1451 1452 1452 1453 1454 1455 1456 1457 1459 1460 1462 1463 1465 1466 1468 1468 1469 1470 1471 1471 1472 1472 1472 1472 1472 1472 1472 1472 1472 1472 1472 1471 1470 1469 1469 1467 1465 1464 1461 1461 1459 1458 1456 1454 1454 1452 1452 1451 1450 1450 1450 1451 1451 1453 1455 1458 1463 1468 1474 1481 1489 1501 1511 1518 1526 1529 1534 1540 1543 1548 1550 1552 1553 1555 1559 1562 1566 1569 1572 1575 1578 1580 1583 1586 1589 1592 1596 1599 1602 1605 1608 1610 1613 1617 1618 1621 1624 1627 1631 1635 1637 1639 1641 1643 1644 1645 1646 1646 1648 1652 1653 1653 1653 1653 1653 1653 1654 1654 1654 1652 1649 1648 1647 1647 1647 1647 1647 1647 1646 1638 1627 1603 1580 0 0 0 0 0 0 0 0 0 0 0 0 0 0 0 0 0 0 0 0 0 0 0 0 0 0 0 0 0 0 0 0 0 0 0 0 0 0 0 0 0 0 0 0 0
1852 1871 1871 1871 1871 1871 1871 1877 1884 1888 1890 1892 1892 1892 1892 1892 1897 1899 1899 1901 1903 1908 1911 1913 1914 1914 1915 1920 1925 1931 1934 1937 1940 1940 1941 1943 1943 1946 1950 1951 1953 1953 1953 1952 1952 1952 1955 1962 1973 1980 1987 1993 1999 2002 2002 2002 2002 2004 2004 2008 2011 2012 2013 2014 2014 2020 2023 2027 2027 2029 2036 2039 2044 2049 2055 2058 2062 2062 2062 2059 2059 2059 2059 2061 2063 2066 2070 2074 2077 2081 2084 2084 2085 2088 2088 2091 2094 2097 2097 2097 2099 2101 2102 2107 2117 2127 2127 2127 2122 2116 2109 0 0 0 0 0 0 0 0 0 0 0 0 0 0 0 0 0 0 0 0 0 0 0 0 2132 2134 2169 2215 2238 2247 2248 2248 2248 2248 2251 2256 2261 2268 2271 2271 2271 2269 2269 2269 2269 2269 2270 2271 2275 2280 2282 2282 2283 2289 2297 2308 2316 2316 2316 2316 2316 2320 2325 2326 2327 2328 2328 2330 2333 2333 2348 2348 2348 2349 2349 2350 2358 2366 2376 2385 2395 2400 2400 2400 2396 2396 2396 2400 2406 2409 2414 2419 2425 2425 2426 2426 2428 2428 2431 2431 2431 2429 2429 2429 2437 2461 2467 2468 2473 2475 2497 2518 2561 2593 2628 2682 2710 2751 2778 2799 2812 2821 2831 2844 2862 2862 2862 2862 2860 2859 2859 2859 2859 2852 2843 2834 2828 2820 2814 2814 2814 2816 2819 2828 2834 2834 2834 2807 2774 2687 2553 0 0 0 0 1891 1881 1881 1881 1862 1860 1856 1844 1837 1829 1819 1804 1795 1789 1784 1779 1775 1770 1765 1762 1755 1746 1737 1730 1726 1724 1719 1715 1712 1709 1707 1703 1701 1699 1696 1694 1691 1689 1686 1685 1683 1681 1679 1677 1676 1674 1673 1671 1669 1667 1665 1664 1661 1659 1657 1655 1651 1649 1647 1646 1644 1642 1639 1637 1634 1633 1632 1629 1627 1625 1622 1621 1618 1616 1611 1608 1606 1603 1601 1599 1595 1593 1588 1584 1583 1577 1566 1557 1549 1541 1539 1535 1532 1527 1527 1526 1526 1524 1522 1522 1520 1518 1517 1516 1516 1515 1513 1512 1512 1511 1510 1510 1510 1508 1508 1506 1505 1505 1505 1503 1503 1501 1501 1500 1500 1498 1497 1495 1493 1492 1490 1489 1488 1486 1484 1482 1480 1479 1478 1476 1474 1474 1474 1473 1473 1473 1473 1474 1474 1476 1477 1477 1478 1478 1479 1480 1482 1482 1482 1483 1483 1483 1484 1483 1483 1483 1483 1483 1483 1483 1482 1482 1481 1481 1480 1479 1478 1478 1477 1476 1474 1473 1471 1470 1467 1465 1463 1461 1459 1457 1456 1454 1453 1452 1452 1452 1452 1452 1452 1453 1454 1456 1456 1458 1460 1462 1462 1464 1465 1467 1467 1469 1469 1470 1471 1471 1471 1471 1472 1472 1472 1473 1473 1473 1473 1472 1472 1472 1471 1470 1469 1467 1466 1464 1463 1461 1460 1458 1456 1454 1453 1452 1452 1450 1450 1450 1451 1451 1452 1454 1456 1460 1465 1470 1475 1483 1493 1503 1511 1514 1522 1528 1534 1539 1545 1548 1550 1553 1555 1557 1562 1566 1568 1570 1572 1575 1579 1583 1586 1589 1592 1595 1599 1601 1605 1608 1609 1612 1615 1617 1619 1623 1626 1629 1632 1636 1637 1638 1638 1639 1640 1640 1641 1644 1648 1649 1649 1649 1649 1649 1649 1649 1649 1649 1648 1647 1645 1645 1645 1644 1644 1642 1642 1642 1630 1618 1602 1580 0 0 0 0 0 0 0 0 0 0 0 0 0 0 0 0 0 0 0 0 0 0 0 0 0 0 0 0 0 0 0 0 0 0 0 0 0 0 0 0 0 0 0 0 0
1852 1867 1868 1868 1870 1870 1871 1871 1873 1876 1881 1888 1888 1888 1891 1891 1891 1896 1898 1898 1901 1906 1909 1911 1911 1912 1912 1915 1922 1928 1933 1934 1934 1934 1933 1933 1933 1937 1943 1945 1946 1946 1947 1948 1948 1950 1954 1961 1967 1971 1976 1982 1989 1995 1995 1995 1995 1996 1996 1997 1999 1999 2001 2001 2004 2009 2018 2022 2023 2025 2029 2033 2038 2041 2046 2049 2053 2053 2053 2051 2050 2050 2050 2050 2053 2057 2061 2062 2066 2070 2073 2074 2074 2074 2077 2081 2083 2089 2090 2091 2092 2094 2099 2101 2109 2119 2119 2119 2114 2107 2080 0 0 0 0 0 0 0 0 0 0 0 0 0 0 0 0 0 0 0 0 0 0 0 0 2110 2129 2138 2179 2204 2211 2228 2240 2243 2246 2248 2251 2256 2261 2262 2262 2262 2259 2258 2258 2258 2258 2258 2258 2264 2269 2274 2275 2275 2278 2285 2292 2298 2300 2301 2301 2305 2311 2314 2316 2317 2319 2319 2320 2321 2322 2334 2336 2338 2342 2342 2342 2348 2354 2363 2372 2380 2384 2384 2384 2384 2384 2389 2391 2395 2398 2400 2405 2412 2415 2416 2417 2421 2423 2425 2429 2429 2429 2429 2429 2437 2453 2456 2458 2458 2466 2474 2487 2497 2508 2531 2547 2575 2625 2728 2763 2769 2773 2787 2806 2828 2846 2846 2846 2847 2847 2847 2849 2849 2849 2839 2832 2828 2820 2814 2814 2814 2815 2818 2825 2825 2825 2823 2807 2774 2729 2659 0 0 0 0 0 0 1907 1881 1858 1857 1850 1837 1831 1824 1812 1800 1794 1787 1780 1775 1769 1767 1763 1759 1754 1744 1736 1730 1725 1722 1718 1713 1710 1707 1704 1702 1699 1697 1694 1693 1690 1689 1686 1684 1682 1680 1678 1676 1674 1673 1672 1670 1668 1666 1665 1663 1660 1658 1656 1653 1650 1649 1646 1644 1643 1640 1638 1636 1634 1632 1631 1629 1626 1625 1623 1621 1618 1616 1613 1610 1608 1606 1604 1602 1599 1596 1594 1590 1588 1585 1579 1573 1560 1553 1547 1544 1540 1533 1531 1529 1526 1524 1522 1521 1519 1516 1515 1514 1513 1512 1510 1509 1508 1507 1507 1507 1506 1505 1505 1504 1503 1503 1503 1501 1501 1500 1498 1498 1496 1496 1495 1494 1491 1491 1489 1488 1486 1485 1483 1481 1480 1479 1477 1475 1474 1474 1473 1472 1472 1472 1472 1473 1473 1474 1475 1476 1476 1477 1478 1478 1479 1480 1480 1481 1481 1481 1482 1482 1482 1482 1482 1482 1482 1482 1482 1481 1481 1481 1480 1479 1478 1478 1477 1476 1474 1473 1472 1470 1468 1466 1463 1462 1460 1458 1457 1455 1453 1453 1451 1451 1451 1452 1452 1453 1454 1456 1456 1457 1459 1460 1462 1463 1465 1466 1467 1469 1469 1470 1470 1471 1471 1471 1472 1472 1473 1473 1473 1473 1473 1473 1473 1473 1472 1471 1470 1468 1467 1466 1464 1462 1460 1459 1457 1455 1454 1453 1453 1452 1452 1452 1452 1452 1453 1454 1454 1457 1460 1466 1470 1475 1486 1496 1500 1503 1511 1520 1524 1530 1539 1544 1548 1552 1554 1557 1561 1564 1566 1568 1571 1574 1578 1582 1586 1588 1592 1595 1598 1601 1603 1605 1608 1611 1612 1614 1617 1620 1624 1627 1631 1633 1634 1634 1634 1634 1634 1634 1634 1640 1643 1643 1643 1643 1643 1645 1645 1646 1646 1646 1645 1644 1643 1643 1642 1642 1641 1638 1637 1636 1630 1618 1601 1575 0 0 0 0 0 0 0 0 0 0 0 0 0 0 0 0 0 0 0 0 0 0 0 0 0 0 0 0 0 0 0 0 0 0 0 0 0 0 0 0 0 0 0 0 0
1851 1864 1864 1864 1861 1861 1861 1863 1863 1868 1875 1883 1883 1883 1883 1883 1883 1889 1890 1892 1892 1898 1902 1903 1907 1910 1912 1915 1920 1925 1926 1926 1926 1925 1924 1924 1924 1929 1934 1937 1937 1938 1939 1941 1944 1949 1952 1956 1961 1963 1965 1970 1978 1986 1987 1987 1987 1987 1987 1987 1988 1990 1992 1994 1999 2002 2010 2016 2018 2019 2022 2024 2028 2033 2038 2040 2043 2043 2043 2042 2042 2040 2040 2042 2044 2050 2054 2056 2059 2061 2063 2063 2063 2064 2066 2071 2075 2079 2083 2087 2087 2089 2093 2094 2099 2107 2107 2107 2106 2097 2063 0 0 1935 1935 1968 0 0 0 0 0 0 0 0 0 0 0 0 0 0 0 0 0 0 0 0 2117 2122 2148 2157 2179 2204 2223 2233 2241 2243 2245 2247 2250 2251 2251 2251 2249 2248 2248 2248 2248 2248 2251 2255 2261 2264 2264 2265 2269 2275 2280 2286 2287 2288 2289 2296 2302 2306 2307 2310 2311 2311 2311 2312 2312 2317 2327 2329 2329 2331 2335 2339 2344 2351 2361 2367 2368 2368 2369 2369 2369 2376 2381 2383 2383 2385 2388 2394 2400 2405 2410 2415 2418 2421 2427 2427 2427 2428 2428 2434 2440 2443 2444 2444 2449 2457 2468 2474 2477 2479 2488 2508 2531 2571 2641 2693 2718 2729 2755 2785 2801 2811 2811 2814 2818 2819 2824 2827 2830 2830 2830 2824 2816 2812 2812 2812 2815 2818 2823 2823 2823 2822 2803 2774 2729 2664 2582 0 0 0 0 0 1908 1881 1852 1846 1840 1828 1825 1820 1810 1797 1791 1784 1777 1773 1768 1765 1761 1756 1751 1744 1736 1729 1725 1719 1716 1713 1710 1706 1703 1700 1698 1696 1693 1691 1689 1687 1685 1684 1681 1679 1677 1675 1673 1672 1670 1668 1667 1665 1663 1661 1659 1657 1654 1652 1650 1648 1645 1643 1642 1640 1637 1636 1633 1632 1630 1628 1626 1625 1623 1621 1619 1617 1614 1612 1610 1609 1605 1603 1600 1599 1596 1594 1592 1590 1585 1579 1574 1567 1558 1552 1545 1536 1532 1532 1531 1525 1522 1521 1519 1516 1515 1513 1513 1511 1510 1508 1508 1506 1505 1505 1504 1503 1502 1502 1501 1501 1500 1499 1499 1497 1497 1496 1495 1494 1492 1491 1490 1489 1488 1487 1486 1483 1482 1481 1479 1478 1476 1475 1473 1473 1472 1471 1471 1471 1471 1471 1472 1473 1473 1474 1474 1474 1476 1477 1478 1478 1479 1479 1479 1480 1480 1481 1481 1481 1481 1481 1481 1481 1481 1481 1481 1479 1479 1479 1478 1478 1477 1476 1474 1473 1472 1470 1468 1466 1465 1462 1461 1459 1457 1456 1454 1453 1452 1451 1451 1451 1452 1453 1454 1455 1456 1457 1458 1459 1462 1463 1464 1465 1467 1468 1469 1469 1470 1471 1471 1471 1472 1472 1473 1473 1473 1473 1473 1473 1473 1473 1472 1471 1470 1469 1469 1467 1465 1464 1462 1460 1459 1457 1456 1455 1454 1454 1454 1453 1453 1453 1453 1454 1454 1455 1457 1461 1464 1469 1477 1486 1489 1496 1500 1508 1516 1522 1530 1538 1545 1549 1551 1554 1559 1561 1564 1567 1570 1573 1577 1582 1584 1588 1590 1593 1597 1600 1602 1604 1606 1608 1609 1611 1613 1616 1620 1625 1628 1631 1631 1631 1631 1631 1630 1630 1630 1632 1638 1638 1638 1639 1639 1639 1640 1641 1643 1643 1643 1640 1640 1640 1639 1639 1638 1636 1636 1634 1630 1618 1601 0 0 0 0 0 0 0 0 0 0 0 0 0 0 0 0 0 0 0 0 0 0 0 0 0 0 0 0 0 0 0 0 0 0 0 0 0 0 0 0 0 0 0 0 0 0
1845 1851 1857 1857 1857 1846 1846 1846 1847 1852 1859 1872 1872 1875 1877 1877 1881 1882 1883 1884 1886 1888 1892 1899 1904 1906 1909 1911 1915 1918 1918 1918 1915 1914 1914 1915 1915 1918 1922 1924 1927 1927 1930 1934 1940 1944 1949 1952 1952 1953 1953 1957 1963 1974 1977 1977 1977 1977 1976 1976 1976 1981 1986 1989 1995 1997 2003 2007 2011 2014 2015 2016 2022 2027 2030 2033 2033 2033 2033 2033 2032 2032 2032 2034 2036 2043 2045 2048 2050 2052 2053 2054 2055 2056 2060 2066 2070 2073 2077 2079 2081 2083 2088 2089 2091 2093 2095 2095 2095 2081 2042 1968 1952 1952 1952 1968 1968 1968 0 0 0 0 0 0 0 0 0 0 0 0 0 0 0 0 0 0 0 2117 2117 2146 2173 2203 2218 2221 2228 2228 2234 2237 2239 2242 2243 2243 2243 2242 2241 2241 2241 2243 2245 2248 2252 2254 2254 2255 2261 2267 2274 2277 2278 2280 2282 2287 2293 2298 2301 2303 2307 2307 2307 2305 2305 2305 2316 2321 2321 2325 2328 2331 2333 2340 2348 2355 2357 2357 2359 2359 2359 2364 2368 2370 2371 2372 2375 2382 2386 2392 2400 2407 2412 2415 2417 2419 2421 2421 2422 2425 2431 2431 2431 2433 2433 2437 2445 2453 2458 2461 2462 2469 2483 2501 2528 2551 2559 2592 2635 2715 2743 2760 2765 2774 2779 2779 2785 2790 2805 2820 2820 2820 2815 2812 2812 2812 2815 2818 2823 2823 2823 2813 2797 2767 2729 2664 2582 0 0 0 0 0 1905 1874 1842 1836 1829 1823 1822 1817 1808 1797 1789 1779 1775 1770 1766 1763 1758 1752 1749 1742 1735 1729 1725 1719 1716 1713 1709 1706 1702 1699 1697 1694 1692 1691 1688 1686 1684 1682 1680 1678 1676 1674 1672 1671 1670 1668 1666 1664 1663 1661 1658 1657 1654 1652 1650 1647 1644 1643 1641 1639 1636 1634 1633 1631 1629 1628 1626 1625 1623 1621 1619 1617 1615 1614 1612 1610 1607 1603 1602 1599 1598 1596 1593 1591 1588 1584 1580 1576 1571 1565 1558 1548 1537 1534 1532 1528 1522 1521 1519 1516 1515 1513 1512 1510 1509 1507 1506 1506 1504 1504 1502 1502 1501 1501 1500 1499 1498 1498 1497 1496 1495 1494 1493 1492 1490 1489 1488 1487 1486 1484 1483 1482 1481 1479 1477 1476 1475 1473 1473 1472 1471 1471 1470 1470 1470 1470 1470 1471 1472 1472 1473 1474 1475 1476 1476 1476 1477 1477 1478 1479 1479 1479 1479 1480 1481 1481 1481 1480 1480 1480 1480 1479 1479 1479 1478 1477 1477 1476 1474 1474 1472 1471 1468 1466 1465 1463 1461 1460 1458 1456 1454 1453 1452 1452 1452 1452 1452 1452 1453 1453 1455 1456 1457 1459 1460 1462 1464 1465 1465 1467 1468 1469 1470 1471 1471 1471 1472 1473 1473 1473 1473 1474 1474 1473 1473 1473 1473 1471 1471 1470 1469 1469 1467 1464 1463 1462 1459 1458 1457 1457 1456 1456 1455 1454 1454 1454 1454 1454 1454 1455 1457 1459 1462 1464 1469 1476 1479 1487 1495 1502 1508 1518 1524 1532 1536 1542 1548 1552 1555 1559 1562 1564 1568 1571 1576 1578 1582 1586 1589 1591 1594 1597 1599 1601 1604 1604 1606 1607 1610 1613 1616 1621 1623 1625 1627 1627 1627 1627 1624 1624 1624 1627 1628 1631 1631 1632 1632 1633 1634 1636 1639 1639 1639 1637 1637 1637 1637 1636 1636 1635 1635 1634 1633 1618 1601 0 0 0 0 0 0 0 0 0 0 0 0 0 0 0 0 0 0 0 0 0 0 0 0 0 0 0 0 0 0 0 0 0 0 0 0 0 0 0 0 0 0 0 0 0 0
0 0 0 0 1829 1828 1824 1822 1822 1822 1836 1852 1854 1859 1860 1870 1875 1876 1877 1877 1877 1880 1887 1895 1900 1903 1904 1904 1904 1908 1909 1909 1909 1906 1906 1906 1907 1910 1910 1914 1915 1918 1921 1926 1931 1935 1941 1943 1945 1945 1947 1952 1961 1967 1968 1968 1968 1968 1968 1968 1968 1971 1979 1987 1990 1995 1996 1997 1999 2007 2009 2012 2016 2019 2024 2024 2025 2026 2026 2026 2026 2026 2027 2027 2029 2033 2036 2039 2041 2044 2046 2047 2047 2050 2055 2060 2062 2063 2066 2068 2070 2072 2073 2077 2078 2080 2080 2080 2080 2053 2021 1959 1952 1952 1952 1968 1968 1968 1963 0 0 0 0 0 0 0 0 0 0 0 0 0 0 0 0 0 0 0 0 0 0 0 2207 2207 2216 2217 2227 2237 2237 2238 2238 2237 2236 2234 2234 2234 2235 2238 2241 2242 2243 2244 2246 2249 2256 2262 2267 2272 2272 2273 2273 2278 2283 2288 2293 2300 2304 2304 2304 2301 2301 2301 2304 2314 2315 2317 2321 2324 2329 2329 2336 2344 2349 2349 2350 2350 2350 2355 2359 2359 2359 2360 2364 2370 2374 2381 2389 2396 2400 2401 2407 2409 2412 2412 2413 2414 2421 2421 2421 2419 2419 2419 2425 2430 2435 2439 2443 2445 2454 2456 2470 2484 2492 2493 2497 2531 2611 2685 2707 2724 2736 2738 2740 2751 2769 2793 2804 2809 2809 2812 2812 2812 2815 2815 2815 2808 2806 2800 2784 2756 2714 2664 2582 0 0 0 0 0 1905 1872 1833 1827 1824 1823 1818 1813 1806 1796 1785 1777 1771 1767 1764 1760 1754 1750 1745 1739 1733 1729 1725 1718 1715 1711 1708 1705 1702 1698 1696 1694 1692 1689 1686 1685 1683 1682 1679 1678 1675 1673 1672 1670 1668 1666 1664 1663 1661 1659 1657 1655 1653 1650 1647 1646 1644 1642 1640 1637 1636 1634 1633 1630 1629 1628 1626 1625 1623 1621 1619 1617 1615 1614 1612 1610 1607 1604 1602 1600 1598 1597 1596 1593 1591 1589 1584 1579 1576 1572 1567 1564 1551 1540 1532 1530 1527 1524 1522 1518 1515 1513 1512 1510 1508 1507 1505 1503 1503 1503 1502 1500 1499 1499 1498 1497 1496 1495 1495 1494 1493 1492 1492 1490 1489 1488 1487 1486 1485 1484 1482 1481 1479 1477 1476 1474 1473 1472 1471 1471 1470 1469 1469 1469 1469 1469 1470 1470 1471 1471 1471 1472 1473 1474 1475 1475 1476 1476 1477 1478 1478 1478 1479 1479 1479 1480 1480 1480 1480 1479 1479 1479 1479 1478 1477 1477 1476 1476 1474 1474 1472 1471 1469 1467 1466 1464 1462 1461 1459 1456 1454 1453 1452 1452 1452 1452 1452 1452 1453 1453 1454 1456 1457 1458 1460 1461 1462 1464 1465 1466 1468 1468 1469 1470 1471 1471 1471 1472 1473 1473 1473 1474 1474 1474 1473 1473 1473 1472 1471 1471 1470 1469 1468 1466 1465 1464 1462 1461 1460 1459 1459 1458 1456 1455 1454 1454 1454 1454 1455 1455 1457 1459 1462 1464 1466 1469 1474 1480 1489 1497 1503 1510 1518 1524 1530 1538 1542 1545 1550 1555 1558 1561 1564 1567 1569 1575 1581 1584 1587 1589 1592 1595 1596 1598 1601 1602 1604 1605 1607 1609 1612 1614 1618 1620 1622 1622 1622 1621 1620 1620 1620 1620 1621 1622 1625 1625 1625 1628 1629 1630 1635 1635 1635 1635 1634 1634 1634 1634 1634 1634 1633 1633 1633 1617 0 0 0 0 0 0 0 0 0 0 0 0 0 0 0 0 0 0 0 0 0 0 0 0 0 0 0 0 0 0 0 0 0 0 0 0 0 0 0 0 0 0 0 0 0 0 0
0 0 0 0 0 0 0 0 1787 1810 1815 1838 1843 1844 1852 1859 1867 1868 1868 1871 1871 1876 1887 1895 1897 1897 1897 1897 1897 1897 1899 1900 1901 1900 1900 1901 1901 1901 1902 1903 1906 1910 1915 1920 1923 1928 1933 1936 1939 1939 1945 1949 1955 1959 1959 1959 1960 1960 1960 1961 1962 1963 1972 1981 1984 1988 1988 1990 1990 1990 2002 2007 2011 2014 2014 2015 2015 2016 2017 2020 2020 2021 2021 2022 2024 2026 2028 2030 2034 2036 2041 2042 2043 2045 2049 2052 2053 2055 2055 2060 2061 2063 2063 2066 2067 2067 2067 2065 2061 2047 2021 1959 1952 1952 1952 1963 1966 1966 1966 0 0 0 0 0 0 0 0 0 0 0 0 0 0 0 0 0 0 0 0 0 0 0 0 2192 2199 2204 2221 2228 2228 2228 2228 2227 2224 2224 2224 2225 2232 2235 2235 2236 2236 2236 2240 2246 2252 2256 2262 2264 2266 2267 2267 2269 2276 2280 2286 2294 2294 2296 2296 2295 2295 2296 2299 2304 2308 2311 2314 2317 2319 2324 2331 2332 2336 2338 2339 2340 2344 2349 2353 2353 2353 2354 2357 2364 2368 2372 2379 2386 2388 2389 2390 2394 2396 2400 2406 2407 2408 2408 2408 2408 2408 2408 2413 2413 2413 2415 2415 2425 2435 2437 2440 2462 2480 2489 2491 2491 2497 2537 2540 2561 2606 2660 2675 2690 2718 2753 2769 2774 2785 2793 2805 2811 2813 2813 2813 2805 2796 2788 2772 2733 2674 2633 2566 0 0 0 0 0 1901 1870 1833 1827 1824 1822 1818 1811 1802 1792 1781 1775 1770 1767 1763 1758 1752 1747 1742 1736 1731 1727 1721 1717 1713 1710 1707 1704 1701 1697 1695 1693 1691 1689 1686 1684 1682 1680 1679 1677 1674 1673 1671 1670 1668 1665 1664 1661 1660 1657 1655 1653 1651 1649 1646 1645 1643 1641 1639 1636 1635 1633 1632 1630 1629 1627 1626 1625 1623 1621 1619 1617 1615 1614 1613 1611 1608 1605 1604 1601 1600 1599 1598 1596 1594 1592 1589 1584 1580 1575 1572 1568 1564 1558 1543 1534 1529 1527 1525 1521 1518 1514 1512 1510 1508 1507 1505 1503 1502 1501 1500 1499 1498 1497 1496 1496 1495 1494 1494 1492 1492 1491 1490 1489 1487 1486 1486 1485 1484 1482 1480 1479 1477 1476 1474 1473 1473 1471 1471 1470 1469 1468 1468 1468 1468 1469 1469 1469 1470 1470 1470 1471 1473 1474 1474 1474 1475 1475 1475 1476 1477 1477 1477 1478 1478 1479 1479 1479 1478 1478 1478 1478 1478 1477 1477 1476 1476 1474 1474 1473 1472 1471 1469 1468 1466 1464 1463 1462 1459 1457 1456 1454 1453 1452 1452 1451 1451 1451 1452 1453 1454 1455 1456 1457 1459 1461 1462 1463 1464 1465 1466 1468 1469 1470 1471 1471 1471 1472 1472 1473 1473 1474 1474 1474 1474 1473 1473 1472 1472 1472 1471 1470 1469 1468 1467 1466 1464 1463 1462 1461 1460 1459 1457 1456 1456 1455 1455 1455 1456 1456 1457 1459 1462 1464 1466 1468 1473 1475 1481 1489 1495 1500 1507 1518 1526 1529 1532 1536 1542 1548 1553 1557 1560 1562 1565 1572 1576 1580 1582 1584 1587 1588 1591 1594 1596 1598 1600 1601 1602 1603 1606 1610 1613 1615 1617 1617 1617 1617 1615 1615 1615 1613 1613 1613 1618 1619 1620 1622 1623 1626 1630 1632 1632 1632 1628 1628 1628 1628 1628 1628 1631 1631 1631 1614 0 0 0 0 0 0 0 0 0 0 0 0 0 0 0 0 0 0 0 0 0 0 0 0 0 0 0 0 0 0 0 0 0 0 0 0 0 0 0 0 0 0 0 0 0 0 0
0 0 0 0 0 0 0 0 0 0 1812 1830 1836 1839 1839 1849 1858 1860 1860 1860 1862 1872 1886 1894 1894 1894 1888 1884 1884 1884 1884 1890 1890 1892 1893 1893 1894 1894 1894 1895 1896 1902 1909 1914 1918 1921 1924 1929 1931 1936 1940 1943 1945 1947 1949 1949 1949 1950 1951 1953 1954 1959 1967 1975 1983 1984 1984 1985 1988 1989 1998 2003 2007 2007 2007 2007 2007 2007 2009 2012 2013 2014 2014 2015 2016 2019 2023 2026 2028 2031 2034 2037 2038 2040 2041 2043 2045 2046 2049 2051 2051 2051 2056 2056 2061 2061 2061 2056 2048 2046 2021 1959 1945 1944 1944 1945 1963 1963 1963 0 0 0 0 0 0 0 0 0 0 0 0 0 0 0 0 0 0 0 0 0 0 0 0 0 2198 2204 2215 2221 2221 2221 2212 2211 2211 2212 2213 2221 2231 2231 2231 2232 2232 2232 2235 2242 2247 2253 2256 2256 2256 2258 2259 2259 2266 2272 2277 2281 2286 2286 2287 2287 2287 2288 2291 2293 2297 2303 2305 2308 2310 2312 2318 2320 2322 2322 2322 2327 2333 2340 2344 2346 2348 2350 2353 2357 2360 2364 2368 2372 2376 2376 2377 2381 2385 2391 2395 2397 2397 2398 2401 2403 2403 2404 2406 2406 2406 2400 2400 2400 2415 2426 2434 2451 2466 2466 2466 2456 2455 0 0 0 2502 2549 2574 2586 2663 2706 2733 2751 2766 2783 2792 2806 2808 2808 2808 2795 2788 2775 2750 2712 2671 2623 2532 0 0 0 0 1918 1895 1870 1833 1826 1823 1820 1815 1809 1799 1788 1777 1773 1770 1766 1761 1757 1750 1746 1740 1736 1730 1726 1721 1717 1712 1708 1705 1703 1700 1697 1693 1691 1689 1688 1685 1683 1681 1679 1677 1676 1673 1673 1670 1668 1667 1664 1662 1660 1658 1656 1655 1653 1650 1649 1646 1644 1643 1641 1638 1636 1634 1632 1631 1630 1629 1627 1626 1624 1623 1621 1620 1618 1615 1614 1613 1611 1608 1607 1604 1602 1601 1601 1600 1598 1597 1595 1592 1589 1584 1580 1576 1573 1569 1567 1564 1551 1539 1533 1526 1522 1520 1518 1516 1510 1508 1507 1505 1503 1502 1501 1500 1498 1496 1495 1495 1494 1494 1493 1493 1492 1490 1490 1488 1488 1486 1486 1484 1483 1482 1480 1480 1478 1476 1474 1473 1472 1472 1471 1469 1468 1468 1468 1467 1467 1467 1468 1468 1468 1468 1468 1470 1470 1471 1472 1472 1473 1473 1474 1474 1476 1476 1476 1477 1477 1477 1477 1478 1478 1478 1478 1477 1477 1477 1477 1477 1476 1475 1474 1473 1472 1471 1471 1469 1468 1466 1465 1464 1462 1461 1458 1456 1454 1453 1452 1452 1451 1451 1451 1452 1453 1454 1455 1456 1457 1459 1460 1461 1463 1464 1465 1466 1467 1468 1469 1470 1471 1471 1472 1472 1473 1473 1474 1474 1474 1474 1474 1473 1473 1473 1472 1472 1471 1470 1469 1468 1468 1466 1465 1464 1463 1462 1462 1460 1458 1458 1458 1457 1457 1457 1457 1457 1460 1463 1464 1466 1467 1473 1475 1477 1482 1487 1493 1504 1514 1518 1521 1525 1529 1534 1542 1547 1552 1553 1556 1561 1566 1570 1573 1576 1579 1582 1584 1586 1587 1590 1593 1595 1597 1597 1598 1601 1606 1609 1611 1611 1611 1611 1611 1611 1611 1610 1608 1608 1608 1609 1614 1617 1619 1619 1621 1624 1624 1624 1624 1624 1623 1623 1622 1622 1621 1622 1621 1621 1605 0 0 0 0 0 0 0 0 0 0 0 0 0 0 0 0 0 0 0 0 0 0 0 0 0 0 0 0 0 0 0 0 0 0 0 0 0 0 0 0 0 0 0 0 0 0 0
0 0 0 0 0 0 0 0 0 0 0 0 0 0 1824 1832 1839 1846 1850 1854 1860 1866 1879 1887 1887 1887 1880 1872 1871 1871 1871 1876 1881 1885 1886 1889 1889 1889 1889 1889 1889 1894 1903 1908 1911 1913 1918 1922 1927 1929 1931 1931 1933 1935 1937 1939 1941 1942 1946 1946 1947 1953 1959 1966 1975 1977 1979 1979 1981 1985 1992 1998 2001 2001 2001 1999 1999 1999 2001 2004 2004 2004 2005 2005 2005 2008 2014 2018 2020 2023 2025 2027 2029 2031 2034 2037 2040 2042 2043 2046 2046 2046 2048 2049 2052 2052 2052 2050 2043 2041 2021 1976 1945 1945 1945 1945 1956 1956 1956 0 0 0 0 0 0 0 0 0 0 0 0 0 0 0 0 0 0 0 0 0 0 0 0 0 0 0 2201 2207 2207 2204 2201 2200 2200 2200 2206 2214 2222 2225 2225 2226 2228 2230 2231 2233 2238 2244 2244 2244 2246 2246 2248 2252 2256 2262 2267 2270 2274 2275 2276 2277 2278 2281 2281 2282 2286 2290 2294 2298 2299 2300 2304 2311 2311 2314 2315 2317 2322 2329 2334 2338 2342 2342 2343 2344 2348 2353 2355 2359 2365 2368 2373 2373 2374 2379 2383 2384 2385 2387 2390 2396 2397 2402 2403 2403 2403 2398 2394 2394 2394 2410 2426 2445 2445 2445 2443 2431 2421 0 0 0 0 0 2505 2543 2599 2675 2715 2741 2754 2764 2775 2779 2784 2784 2784 2784 2775 2754 2716 2677 2643 2595 0 0 0 0 1927 1911 1886 1870 1840 1826 1821 1815 1810 1806 1796 1785 1777 1771 1767 1763 1757 1753 1748 1744 1740 1736 1730 1725 1720 1715 1712 1707 1704 1702 1700 1697 1693 1691 1689 1686 1684 1683 1680 1678 1676 1674 1673 1672 1669 1667 1666 1664 1661 1660 1657 1655 1653 1652 1649 1647 1645 1644 1642 1641 1638 1636 1633 1632 1631 1629 1628 1627 1625 1624 1623 1621 1620 1618 1616 1614 1613 1611 1609 1608 1606 1604 1602 1601 1601 1599 1597 1596 1595 1592 1588 1585 1583 1580 1578 1575 1570 1566 1561 1544 1536 1529 1523 1522 1522 1518 1511 1509 1509 1508 1502 1501 1500 1498 1496 1495 1494 1493 1493 1493 1493 1492 1490 1489 1488 1486 1486 1485 1483 1482 1482 1480 1479 1477 1475 1473 1472 1472 1471 1470 1468 1468 1467 1467 1466 1466 1466 1467 1467 1467 1467 1468 1468 1470 1470 1470 1471 1472 1472 1473 1473 1474 1474 1475 1475 1476 1476 1476 1476 1476 1476 1476 1476 1476 1476 1476 1476 1475 1474 1474 1473 1471 1471 1471 1469 1468 1466 1465 1464 1463 1461 1458 1457 1455 1454 1452 1452 1452 1452 1452 1452 1452 1453 1454 1455 1457 1459 1459 1461 1462 1464 1464 1465 1466 1467 1469 1470 1470 1471 1472 1472 1473 1473 1474 1474 1474 1474 1474 1473 1473 1473 1472 1472 1472 1471 1471 1470 1469 1467 1466 1465 1465 1464 1464 1461 1460 1460 1459 1459 1459 1458 1458 1458 1461 1463 1464 1466 1467 1469 1472 1476 1480 1482 1489 1498 1508 1515 1518 1522 1526 1530 1536 1542 1545 1549 1552 1556 1560 1564 1568 1571 1574 1576 1579 1580 1581 1583 1587 1591 1593 1593 1594 1597 1603 1606 1608 1608 1608 1607 1607 1607 1606 1604 1604 1604 1606 1608 1610 1614 1615 1615 1615 1621 1621 1623 1623 1622 1621 1622 1620 1618 1618 1618 1618 1616 1576 0 0 0 0 0 0 0 0 0 0 0 0 0 0 0 0 0 0 0 0 0 0 0 0 0 0 0 0 0 0 0 0 0 0 0 0 0 0 0 0 0 0 0 0 0 0 0
0 0 0 0 0 0 0 0 0 0 0 0 0 0 0 0 1813 1833 1843 1850 1859 1863 1873 1876 1876 1876 1866 1862 1861 1861 1861 1861 1870 1876 1879 1881 1882 1882 1882 1882 1886 1890 1895 1903 1907 1909 1911 1914 1919 1921 1921 1921 1922 1924 1928 1931 1931 1934 1937 1940 1943 1946 1950 1956 1964 1967 1972 1974 1974 1977 1981 1988 1988 1988 1989 1988 1988 1989 1992 1994 1994 1994 1992 1992 1992 1996 2002 2006 2010 2012 2015 2017 2020 2021 2025 2029 2034 2037 2039 2040 2041 2043 2043 2043 2044 2046 2046 2046 2037 2027 2021 1984 1950 1945 1945 1945 1945 1941 0 0 0 0 0 0 0 0 0 0 0 0 0 0 0 0 0 0 0 0 0 0 0 0 0 0 0 0 0 2182 2182 2183 2180 2180 2183 2191 2197 2205 2209 2210 2211 2216 2221 2224 2224 2225 2227 2229 2230 2231 2233 2235 2238 2242 2244 2249 2252 2257 2261 2261 2263 2265 2268 2268 2268 2269 2270 2277 2281 2284 2287 2288 2292 2296 2301 2301 2303 2308 2309 2316 2323 2329 2331 2331 2334 2335 2336 2340 2346 2351 2355 2361 2364 2365 2365 2365 2371 2373 2376 2378 2382 2386 2389 2393 2396 2397 2397 2397 2394 2394 2394 2402 2416 2434 2434 2434 2431 2421 2413 0 0 0 0 0 0 2513 2580 2649 2715 2734 2743 2745 2750 2753 2753 2754 2753 2753 2747 2716 2677 2639 2596 2533 0 0 0 1933 1914 1900 1886 1869 1842 1826 1820 1814 1809 1799 1791 1782 1775 1769 1766 1760 1755 1751 1746 1742 1739 1734 1730 1725 1720 1715 1711 1707 1704 1701 1699 1697 1693 1690 1688 1686 1683 1681 1679 1678 1675 1673 1672 1670 1668 1666 1665 1662 1660 1658 1655 1654 1652 1649 1648 1647 1645 1643 1642 1640 1638 1635 1633 1632 1631 1629 1628 1627 1625 1624 1623 1621 1620 1618 1616 1615 1613 1611 1610 1608 1606 1605 1604 1602 1601 1599 1598 1596 1595 1593 1589 1589 1587 1586 1583 1581 1577 1572 1567 1560 1554 1543 1537 1528 1523 1523 1516 1510 1510 1509 1505 1501 1500 1498 1496 1495 1494 1493 1493 1493 1492 1491 1489 1489 1488 1486 1485 1484 1482 1482 1480 1478 1478 1475 1474 1473 1472 1471 1469 1468 1467 1467 1467 1466 1466 1466 1465 1465 1465 1466 1466 1466 1467 1468 1469 1469 1470 1470 1471 1471 1472 1473 1473 1474 1474 1474 1475 1475 1475 1475 1475 1475 1475 1475 1475 1475 1474 1474 1473 1473 1472 1471 1470 1470 1469 1468 1467 1465 1464 1463 1461 1458 1457 1455 1454 1453 1452 1452 1451 1451 1451 1452 1453 1453 1455 1456 1457 1458 1460 1462 1463 1464 1465 1466 1467 1468 1469 1469 1470 1471 1472 1472 1473 1473 1474 1474 1474 1474 1474 1473 1473 1472 1472 1472 1472 1471 1471 1470 1468 1467 1467 1466 1466 1466 1464 1463 1462 1461 1460 1460 1460 1460 1460 1461 1463 1464 1465 1467 1467 1470 1475 1478 1480 1483 1490 1500 1508 1514 1516 1521 1526 1530 1535 1538 1543 1548 1552 1556 1560 1564 1566 1570 1571 1572 1574 1576 1579 1582 1585 1589 1592 1594 1596 1599 1604 1604 1605 1605 1604 1604 1603 1603 1601 1601 1601 1604 1607 1608 1610 1612 1612 1614 1616 1618 1618 1618 1618 1620 1620 1616 1615 1613 1609 1608 1591 1552 0 0 0 0 0 0 0 0 0 0 0 0 0 0 0 0 0 0 0 0 0 0 0 0 0 0 0 0 0 0 0 0 0 0 0 0 0 0 0 0 0 0 0 0 0 0 0
0 0 0 0 0 0 0 0 0 0 0 0 0 0 0 0 0 0 0 1845 1855 1862 1867 1867 1867 1857 1855 1855 1851 1851 1851 1851 1863 1874 1876 1876 1876 1876 1876 1878 1883 1889 1895 1899 1903 1906 1906 1908 1909 1911 1912 1913 1915 1918 1921 1921 1922 1923 1929 1935 1939 1942 1944 1947 1952 1959 1961 1965 1966 1966 1969 1974 1974 1974 1975 1975 1975 1981 1985 1985 1985 1982 1982 1982 1984 1986 1991 1995 1998 2002 2005 2009 2012 2012 2015 2019 2024 2028 2032 2034 2035 2036 2038 2039 2040 2040 2040 2040 2027 2014 2006 1989 1960 1931 1931 1931 1926 0 0 0 0 0 0 0 0 0 0 0 0 0 0 0 0 0 0 0 0 0 0 0 0 0 0 0 0 0 0 0 2166 2166 2159 2159 2159 2179 2189 2196 2197 2198 2198 2204 2211 2218 2218 2219 2220 2220 2220 2221 2222 2225 2228 2228 2232 2236 2239 2243 2246 2247 2248 2250 2252 2254 2255 2256 2258 2261 2266 2269 2272 2274 2278 2285 2289 2291 2294 2298 2304 2310 2310 2319 2322 2322 2323 2324 2324 2330 2338 2343 2349 2354 2354 2354 2356 2356 2361 2364 2366 2370 2373 2375 2376 2379 2383 2389 2394 2394 2394 2394 2394 2398 2408 2422 2422 2422 2416 2413 2409 0 0 0 0 0 0 0 2576 2643 2682 2708 2727 2727 2727 2724 2721 2721 2719 2719 2710 2674 2617 2572 2538 0 0 0 0 1923 1911 1898 1882 1867 1842 1825 1817 1808 1800 1792 1784 1778 1775 1768 1763 1757 1753 1748 1744 1739 1735 1733 1729 1724 1719 1715 1711 1707 1704 1701 1698 1696 1692 1688 1686 1684 1682 1680 1679 1677 1674 1673 1670 1669 1667 1665 1664 1661 1660 1658 1655 1654 1651 1649 1647 1645 1644 1643 1642 1639 1637 1635 1633 1631 1630 1629 1628 1627 1625 1624 1622 1621 1620 1618 1616 1615 1613 1611 1610 1608 1607 1605 1604 1603 1601 1600 1598 1598 1595 1594 1592 1592 1592 1590 1587 1585 1582 1578 1573 1565 1562 1560 1554 1544 1533 1526 1524 1520 1514 1510 1505 1503 1500 1500 1496 1495 1494 1493 1493 1493 1491 1490 1489 1488 1487 1486 1485 1484 1482 1481 1480 1478 1477 1475 1474 1472 1471 1470 1468 1468 1467 1466 1466 1466 1465 1465 1465 1465 1465 1465 1466 1466 1466 1467 1467 1468 1469 1470 1470 1471 1471 1472 1472 1472 1472 1473 1473 1473 1474 1474 1474 1474 1474 1474 1474 1474 1474 1473 1473 1472 1471 1470 1470 1470 1469 1468 1467 1465 1464 1463 1461 1459 1457 1455 1454 1453 1452 1452 1451 1451 1451 1451 1452 1452 1454 1456 1457 1458 1459 1461 1461 1463 1464 1465 1467 1468 1469 1469 1470 1471 1471 1472 1472 1473 1473 1473 1473 1473 1473 1473 1473 1473 1473 1472 1472 1472 1471 1471 1469 1468 1468 1468 1467 1467 1466 1464 1463 1463 1462 1462 1462 1462 1462 1463 1463 1464 1465 1466 1467 1467 1473 1475 1478 1481 1485 1493 1501 1507 1511 1516 1521 1525 1530 1533 1537 1543 1547 1552 1556 1559 1562 1563 1565 1566 1568 1571 1575 1577 1582 1585 1587 1588 1590 1594 1598 1598 1598 1598 1598 1598 1598 1597 1597 1597 1598 1601 1604 1605 1608 1609 1609 1610 1611 1613 1613 1613 1613 1614 1613 1613 1613 1611 1604 1602 1584 0 0 0 0 0 0 0 0 0 0 0 0 0 0 0 0 0 0 0 0 0 0 0 0 0 0 0 0 0 0 0 0 0 0 0 0 0 0 0 0 0 0 0 0 0 0 0 0
0 0 0 0 0 0 0 0 0 0 0 0 0 0 0 0 0 0 0 0 1849 1851 1851 1851 1850 1847 1846 1843 1844 1846 1846 1851 1862 1873 1873 1874 1874 1874 1874 1877 1882 1889 1895 1897 1900 1901 1902 1902 1902 1904 1907 1909 1911 1912 1913 1914 1914 1916 1922 1931 1939 1940 1941 1942 1944 1947 1949 1950 1952 1954 1956 1961 1961 1961 1961 1961 1964 1970 1976 1976 1976 1975 1975 1975 1978 1980 1986 1988 1990 1993 1997 2000 2004 2004 2006 2010 2014 2018 2023 2026 2028 2030 2032 2035 2035 2035 2033 2032 2022 2011 2001 1989 1960 1926 1926 1915 0 0 0 0 0 0 0 0 0 0 1818 1818 0 0 0 0 0 0 0 0 0 0 0 0 0 0 0 0 0 0 0 0 0 0 2142 2142 2142 2150 2179 2183 2185 2186 2186 2192 2201 2206 2208 2210 2211 2212 2212 2212 2212 2214 2215 2216 2219 2223 2226 2229 2233 2236 2237 2238 2241 2242 2244 2247 2249 2251 2255 2261 2262 2263 2269 2273 2278 2281 2284 2287 2292 2298 2305 2314 2314 2314 2314 2314 2316 2323 2331 2338 2345 2345 2345 2345 2345 2345 2350 2354 2357 2359 2360 2361 2362 2363 2370 2379 2387 2392 2393 2394 2394 2398 2401 2407 2407 2407 2400 2396 0 0 0 0 0 0 0 0 0 0 2550 2650 2697 2708 2708 2708 2690 2685 2684 2683 2667 2612 2556 2511 0 0 0 0 1923 1912 1903 1893 1878 1865 1842 1820 1814 1805 1797 1788 1778 1771 1770 1767 1761 1755 1750 1746 1742 1737 1733 1730 1726 1722 1718 1714 1711 1707 1704 1700 1698 1695 1692 1688 1685 1683 1681 1678 1677 1675 1673 1671 1669 1667 1665 1663 1662 1660 1658 1656 1654 1652 1650 1648 1647 1645 1644 1642 1640 1639 1636 1634 1632 1631 1629 1628 1627 1625 1624 1624 1622 1621 1619 1618 1616 1615 1613 1611 1610 1608 1607 1606 1604 1603 1602 1600 1600 1598 1597 1596 1594 1594 1594 1592 1590 1586 1584 1581 1578 1574 1569 1567 1565 1562 1556 1545 1537 1531 1526 1517 1508 1507 1507 1505 1502 1496 1496 1495 1493 1493 1491 1490 1489 1487 1486 1485 1485 1484 1482 1481 1479 1477 1476 1474 1473 1471 1469 1468 1468 1467 1467 1466 1465 1464 1464 1464 1464 1464 1464 1464 1464 1465 1466 1467 1467 1468 1468 1469 1469 1469 1470 1471 1471 1471 1471 1472 1472 1472 1472 1472 1472 1472 1472 1472 1472 1472 1472 1472 1472 1471 1471 1470 1470 1470 1469 1468 1467 1466 1464 1463 1461 1460 1458 1456 1454 1454 1453 1452 1451 1451 1451 1451 1452 1452 1453 1455 1456 1457 1459 1460 1461 1463 1463 1465 1466 1467 1468 1469 1469 1470 1471 1471 1472 1473 1473 1473 1473 1473 1473 1473 1473 1472 1472 1472 1472 1472 1471 1471 1471 1469 1469 1469 1469 1468 1467 1466 1465 1464 1464 1464 1463 1463 1463 1463 1463 1464 1465 1466 1467 1467 1469 1474 1477 1480 1483 1488 1497 1501 1504 1510 1514 1519 1523 1526 1531 1537 1543 1547 1551 1555 1557 1558 1560 1561 1563 1567 1571 1573 1576 1578 1581 1582 1585 1589 1592 1594 1594 1594 1592 1592 1592 1594 1594 1595 1596 1597 1601 1602 1604 1604 1605 1606 1608 1610 1610 1610 1610 1609 1606 1606 1602 1601 1601 1600 0 0 0 0 0 0 0 0 0 0 0 0 0 0 0 0 0 0 0 0 0 0 0 0 0 0 0 0 0 0 0 0 0 0 0 0 0 0 0 0 0 0 0 0 0 0 0 0 0
0 0 0 0 0 0 0 0 0 0 0 0 0 0 0 0 0 0 0 0 0 0 1832 1832 1832 1832 1832 1833 1835 1835 1842 1851 1862 1868 1872 1872 1872 1873 1874 1877 1882 1887 1892 1895 1895 1895 1896 1896 1896 1899 1901 1904 1907 1908 1908 1908 1909 1913 1919 1931 1936 1936 1937 1937 1937 1938 1942 1944 1946 1947 1948 1949 1950 1950 1950 1950 1953 1960 1965 1970 1970 1970 1971 1973 1977 1979 1981 1982 1984 1987 1990 1994 1996 1998 2002 2005 2009 2014 2016 2019 2021 2023 2024 2026 2026 2026 2023 2019 2018 2010 2001 1984 1960 1926 0 0 0 0 0 0 0 0 0 0 0 1818 1818 1818 1818 0 0 0 0 0 0 0 0 0 0 0 0 0 0 0 0 0 0 0 0 0 0 0 2125 2125 2161 2169 2173 2178 2182 2183 2188 2191 2191 2193 2194 2200 2201 2202 2202 2204 2205 2207 2211 2215 2217 2218 2222 2224 2228 2228 2232 2235 2238 2240 2242 2244 2246 2249 2251 2252 2259 2266 2268 2272 2273 2276 2282 2287 2295 2303 2307 2307 2307 2307 2307 2314 2323 2333 2336 2336 2336 2335 2335 2335 2340 2344 2346 2347 2347 2349 2349 2350 2360 2370 2379 2385 2390 2392 2393 2394 2395 2400 2400 2400 2400 2391 0 0 0 0 0 0 0 0 0 0 0 2502 2609 2636 2636 2636 2628 2628 2606 2606 2592 2524 0 0 0 0 0 0 1910 1903 1900 1889 1874 1861 1842 1820 1812 1804 1794 1784 1774 1768 1765 1762 1760 1754 1749 1745 1740 1736 1731 1729 1725 1722 1718 1714 1711 1708 1704 1700 1697 1693 1690 1687 1685 1682 1680 1678 1676 1674 1673 1670 1668 1666 1663 1662 1661 1659 1657 1655 1653 1651 1649 1647 1645 1644 1642 1642 1640 1639 1636 1633 1632 1630 1628 1628 1627 1625 1624 1623 1622 1621 1619 1617 1616 1614 1613 1611 1609 1608 1607 1606 1605 1603 1602 1601 1600 1600 1598 1597 1596 1595 1595 1594 1591 1588 1586 1583 1580 1576 1576 1573 1569 1567 1564 1559 1557 1551 1538 1527 1519 1517 1516 1514 1510 1506 1500 1498 1497 1494 1491 1490 1489 1487 1486 1485 1485 1484 1482 1481 1479 1477 1475 1474 1472 1471 1469 1468 1467 1467 1466 1465 1464 1464 1464 1463 1463 1463 1463 1464 1464 1464 1465 1466 1466 1467 1467 1468 1468 1468 1469 1469 1470 1470 1471 1471 1471 1471 1471 1471 1471 1471 1471 1471 1471 1471 1471 1471 1471 1471 1470 1470 1470 1470 1468 1468 1467 1466 1464 1463 1461 1460 1458 1456 1455 1454 1453 1452 1451 1451 1451 1451 1451 1452 1453 1454 1455 1456 1458 1459 1461 1461 1463 1464 1465 1466 1467 1469 1469 1470 1470 1471 1472 1472 1473 1473 1473 1473 1473 1473 1473 1473 1473 1473 1472 1472 1472 1472 1471 1471 1470 1470 1470 1469 1468 1468 1466 1466 1465 1465 1464 1464 1464 1464 1464 1464 1465 1465 1466 1467 1468 1471 1474 1477 1479 1483 1489 1494 1497 1504 1510 1513 1516 1520 1525 1531 1536 1541 1545 1548 1549 1552 1553 1555 1559 1562 1566 1567 1570 1573 1576 1577 1579 1583 1586 1589 1590 1590 1590 1590 1590 1590 1591 1592 1594 1595 1597 1599 1599 1600 1601 1604 1607 1607 1607 1607 1603 1601 1600 1600 1599 1595 1594 1579 0 0 0 0 0 0 0 0 0 0 0 0 0 0 0 0 0 0 0 0 0 0 0 0 0 0 0 0 0 0 0 0 0 0 0 0 0 0 0 0 0 0 0 0 0 0 0 0 0
0 0 0 0 0 0 0 0 0 0 0 0 0 0 0 0 0 0 0 0 0 0 0 1800 1812 1818 1819 1820 1827 1832 1840 1851 1861 1864 1867 1868 1869 1870 1871 1876 1882 1886 1891 1891 1893 1893 1891 1891 1893 1893 1897 1899 1904 1904 1906 1906 1906 1909 1918 1924 1928 1928 1929 1929 1930 1935 1939 1942 1942 1942 1942 1942 1942 1942 1942 1944 1948 1952 1956 1959 1963 1965 1966 1968 1970 1972 1973 1975 1977 1979 1984 1987 1989 1991 1996 2002 2006 2011 2011 2012 2012 2015 2016 2016 2016 2015 2014 2014 2013 2007 1991 1974 0 0 0 0 0 0 0 0 0 0 0 0 0 1826 1809 1809 1809 1838 0 0 0 0 0 0 0 0 0 0 0 0 0 0 0 0 0 0 0 0 0 0 0 0 0 0 0 2158 2176 2176 2176 2175 2174 2174 2174 2181 2188 2192 2197 2199 2199 2200 2204 2204 2204 2206 2208 2214 2219 2220 2223 2225 2229 2231 2232 2235 2238 2240 2241 2245 2255 2259 2260 2263 2264 2268 2274 2280 2288 2296 2299 2302 2302 2302 2303 2303 2312 2325 2329 2329 2329 2328 2328 2328 2332 2338 2339 2339 2339 2339 2339 2343 2351 2360 2367 2374 2380 2383 2386 2387 2389 2398 2400 2400 2400 2391 0 0 0 0 0 0 0 0 0 0 0 0 0 0 0 0 0 0 2506 2506 2506 0 0 0 0 0 0 1918 1909 1903 1896 1885 1868 1852 1839 1820 1811 1804 1794 1784 1773 1768 1763 1760 1756 1753 1748 1745 1740 1736 1730 1726 1723 1720 1717 1713 1710 1708 1704 1700 1696 1692 1689 1686 1683 1681 1679 1677 1674 1673 1671 1668 1666 1664 1662 1661 1659 1658 1656 1654 1652 1651 1649 1647 1645 1644 1642 1641 1640 1638 1635 1633 1632 1630 1628 1627 1626 1625 1624 1623 1621 1619 1618 1617 1615 1614 1612 1611 1609 1608 1607 1606 1605 1603 1602 1601 1600 1600 1598 1598 1597 1596 1595 1594 1592 1589 1587 1585 1581 1578 1576 1575 1573 1569 1566 1563 1563 1561 1556 1546 1539 1530 1522 1518 1515 1511 1506 1501 1498 1498 1495 1491 1489 1487 1486 1485 1484 1484 1482 1480 1479 1477 1475 1473 1472 1470 1469 1467 1467 1466 1465 1465 1464 1464 1463 1463 1463 1463 1463 1463 1463 1464 1465 1465 1465 1466 1466 1467 1468 1468 1468 1469 1469 1469 1469 1470 1470 1470 1470 1470 1470 1470 1470 1471 1471 1470 1470 1470 1470 1470 1470 1469 1469 1469 1468 1467 1467 1465 1464 1463 1462 1460 1458 1457 1455 1454 1453 1452 1451 1451 1451 1451 1451 1451 1452 1453 1455 1455 1457 1458 1460 1461 1461 1463 1464 1466 1467 1468 1469 1470 1470 1471 1471 1472 1472 1472 1472 1473 1473 1473 1473 1473 1473 1473 1472 1472 1472 1472 1471 1471 1471 1471 1471 1470 1470 1469 1467 1467 1467 1465 1465 1465 1465 1464 1464 1465 1465 1465 1466 1467 1468 1470 1473 1474 1477 1479 1484 1488 1493 1497 1505 1508 1511 1515 1519 1527 1531 1535 1537 1540 1542 1546 1548 1551 1556 1559 1561 1561 1565 1569 1571 1573 1575 1577 1580 1582 1584 1585 1587 1587 1588 1588 1589 1589 1591 1592 1593 1594 1596 1596 1599 1602 1603 1603 1603 1601 1600 1600 1600 1600 1596 1594 1591 1578 0 0 0 0 0 0 0 0 0 0 0 0 0 0 0 0 0 0 0 0 0 0 0 0 0 0 0 0 0 0 0 0 0 0 0 0 0 0 0 0 0 0 0 0 0 0 0 0 0
