1640 1640 1637 1637 1636 1637 1637 1638 1639 1639 1643 1644 1646 1646 1646 1645 1642 1640 1640 1640 1640 1640 1641 1644 1644 1644 1642 1639 1638 1638 1638 1638 1638 1638 1637 1632 1632 1625 1620 1615 1615 1615 1616 1616 1618 1618 1618 1618 1620 1623 1624 1624 1624 1618 1618 1618 1619 1622 1624 1624 1624 1624 1624 1624 1625 1626 1626 1627 1627 1627 1628 1631 1631 1631 1631 1630 1630 1630 1630 1630 1627 1627 1626 1621 1621 1621 1622 1622 1623 1624 1624 1625 1625 1625 1627 1630 1633 1635 1635 1635 1635 1635 1642 1656 1658 1667 1685 1698 1712 1746 1769 1792 1792 1792 1788 1757 0 0 0 0 0 0 0 0 0 0 0 0 0 0 0 0 0 0 0 0 0 0 0 0 0 0 0 0 0 0 0 0 2108 2136 2148 2154 2158 2166 2173 2177 2177 2177 2155 2155 2155 2156 2159 2160 2162 2167 2171 2178 2185 2196 2213 2216 2221 2276 2322 2331 2351 2355 2361 2370 2382 2391 2392 2393 2394 2400 2407 2415 2419 2427 2432 2433 2436 2444 2458 2458 2458 2449 2449 2449 2458 2463 2468 2470 2470 2472 2476 2477 2477 2482 2483 2491 2491 2491 2487 2484 2480 2480 2478 2474 2458 2458 2455 2454 2431 0 0 0 0 0 0 0 0 0 0 0 0 0 0 0 0 0 0 0 0 0 0 2315 2331 2348 2353 2353 2352 2350 2350 2329 2301 2291 2276 2257 2240 2231 2231 2231 2243 2243 2243 2244 2244 2244 2253 2263 2264 2265 2269 2269 2269 2257 2251 2251 2251 2257 2258 2258 2258 2253 2245 2231 2229 2229 2229 2235 2245 2245 2245 0 0 0 0 0 0 0 0 0 0 0 0 0 0 0 0 0 0 0 0 0 0 0 0 0 0 0 0 0 0 0 0 0 0 0 0 0 0 0 0 0 0 0 0 0 0 0 0 0 0 0 0 0 0 0 0 0 0 0 0 0 0 0 0 0 0 0 0 0 2321 2321 2299 2276 2255 2229 2229 2219 2211 2199 2193 2186 2180 2169 2160 2148 2138 2129 2124 2117 2111 2106 2102 2099 2094 2091 2086 2078 2071 2065 2061 2056 2051 2046 2040 2037 2034 2030 2027 2024 2020 2017 2014 2010 2008 2005 2002 2000 1997 1994 1990 1988 1985 1983 1982 1979 1976 1973 1971 1968 1967 1965 1963 1961 1960 1960 1959 1957 1956 1956 1955 1954 1951 1950 1948 1946 1945 1943 1941 1940 1940 1939 1938 1937 1936 1935 1934 1933 1932 1931 1930 1929 1929 1929 1928 1927 1927 1926 1925 1924 1923 1922 1921 1920 1919 1918 1915 1914 1913 1912 1911 1911 1910 1909 1908 1907 1906 1904 1904 1903 1903 1902 1902 1901 1901 1901 1900 1899 1898 1898 1897 1897 1896 1896 1894 1894 1893 1892 1892 1891 1891 1890 1889 1889 1889 1887 1885 1885 1885 1884 1883 1883 1882 1881 1880 1879 1877 1877 1876 1875 1874 1873 1872 1872 1872 1871 1871 1870 1870 1870 1870 1870 1871 1871 1871 1872 1873 1873 1873 1873 1873 1874 1875 1875 1876 1877 1878 1878 1879 1880 1882 1884 1885 1887 1888 1888 1889 1891 1893 1895 1897 1898 1899 1900 1900 1900 1900 1900 1900 1900 1901 1902 1902 1902 1902 1903 1903 1904 1906 1909 1910 1910 1911 1913 1916 1918 1918 1918 1920 1922 1925 1925 1925 1925 1925 1925 1927 1927 1927 1928 1929 1929 1929 1932 1934 1935 1936 1936 1936 1936 1936 1936 1934 1932 1929 1928 1928 1926 1926 1923 1926 1923 1923 1920 1915 0 0 0 0
1640 1640 1637 1637 1636 1636 1637 1637 1638 1639 1641 1641 1643 1644 1644 1644 1642 1639 1636 1636 1636 1638 1639 1640 1640 1640 1638 1636 1631 1631 1631 1632 1632 1632 1628 1624 1622 1618 1613 1609 1609 1609 1612 1613 1613 1613 1614 1615 1615 1616 1616 1616 1613 1612 1612 1612 1613 1614 1616 1616 1617 1617 1617 1619 1619 1619 1619 1619 1620 1621 1621 1623 1625 1625 1625 1624 1624 1624 1624 1624 1624 1624 1623 1618 1618 1618 1618 1619 1619 1619 1619 1619 1619 1621 1622 1624 1627 1631 1631 1631 1632 1632 1632 1646 1655 1664 1674 1686 1708 1746 1769 1790 1790 1790 1788 1759 0 0 0 0 0 0 0 0 0 0 0 0 0 0 0 0 0 0 0 0 0 0 0 0 0 0 0 0 0 0 0 0 2082 2094 2102 2102 2102 2111 2159 2159 2159 2148 2147 2147 2147 2148 2152 2155 2156 2158 2169 2172 2185 2191 2195 2197 2210 2240 2264 2304 2328 2351 2357 2370 2379 2386 2390 2393 2393 2399 2404 2408 2419 2424 2430 2430 2432 2442 2442 2442 2441 2438 2438 2438 2448 2457 2460 2460 2461 2466 2468 2469 2471 2473 2482 2483 2483 2483 2481 2471 2464 2459 2458 2455 2458 2459 2459 2466 2468 2468 0 0 0 0 0 0 0 0 0 0 0 0 0 0 0 0 0 0 0 0 0 2327 2343 2353 2354 2365 2354 2353 2351 2334 2309 2291 2276 2257 2237 2231 2231 2231 2240 2240 2240 2229 2229 2229 2248 2254 2257 2261 2264 2264 2264 2248 2246 2246 2246 2255 2257 2257 2257 2252 2245 2231 2229 2229 2229 2234 2239 2250 2250 0 0 0 0 0 0 0 0 0 0 0 0 0 0 0 0 0 0 0 0 0 0 0 0 0 0 0 0 0 0 0 0 0 0 0 0 0 0 0 0 0 0 0 0 0 0 0 0 0 0 0 0 0 0 0 0 0 0 0 0 0 0 0 0 0 0 0 0 0 2321 2321 2296 2282 2261 2235 2229 2219 2211 2199 2187 2181 2174 2164 2156 2146 2136 2129 2124 2120 2114 2110 2106 2099 2093 2089 2084 2077 2071 2066 2061 2056 2050 2044 2038 2035 2030 2026 2023 2021 2020 2017 2014 2010 2007 2004 2002 1998 1997 1994 1990 1987 1985 1983 1981 1979 1976 1973 1971 1968 1966 1965 1963 1961 1960 1959 1958 1957 1956 1955 1955 1954 1952 1950 1948 1946 1945 1942 1941 1940 1940 1939 1938 1936 1935 1935 1934 1933 1932 1930 1930 1929 1929 1929 1928 1927 1926 1925 1924 1924 1923 1921 1921 1920 1918 1917 1915 1914 1913 1912 1910 1910 1910 1908 1908 1907 1906 1904 1904 1903 1903 1903 1902 1902 1901 1901 1900 1899 1899 1898 1898 1897 1896 1896 1894 1894 1894 1892 1892 1891 1891 1890 1889 1889 1889 1888 1887 1885 1885 1885 1884 1883 1882 1881 1880 1879 1877 1877 1876 1875 1874 1873 1872 1872 1872 1871 1871 1870 1870 1870 1870 1870 1870 1870 1870 1871 1872 1873 1873 1873 1873 1873 1874 1875 1876 1877 1878 1878 1878 1880 1881 1884 1885 1887 1888 1888 1889 1891 1893 1895 1897 1898 1899 1899 1899 1900 1900 1900 1900 1900 1900 1901 1901 1902 1902 1903 1903 1904 1906 1908 1908 1910 1911 1912 1913 1915 1918 1920 1920 1922 1924 1924 1924 1924 1924 1924 1924 1924 1926 1928 1929 1929 1929 1933 1935 1935 1936 1936 1936 1941 1941 1943 1943 1943 1932 1932 1932 1932 1932 1927 1922 1921 1913 0 0 0 0 0 0
1640 1640 1637 1637 1635 1635 1637 1637 1638 1638 1640 1640 1641 1642 1642 1642 1639 1637 1635 1635 1635 1636 1636 1636 1636 1636 1635 1633 1629 1626 1626 1626 1626 1626 1624 1616 1613 1612 1608 1604 1604 1604 1606 1608 1609 1609 1609 1610 1609 1609 1609 1607 1606 1606 1606 1605 1606 1606 1607 1608 1610 1611 1611 1613 1613 1613 1613 1613 1613 1613 1614 1615 1617 1617 1617 1616 1615 1615 1615 1618 1619 1619 1619 1618 1615 1615 1615 1615 1616 1616 1616 1616 1616 1616 1616 1618 1622 1626 1627 1628 1628 1628 1632 1642 1651 1664 1667 1683 1695 1707 1742 1760 1788 1788 1788 1785 0 0 0 0 0 0 0 0 0 0 0 0 0 0 0 0 0 0 0 0 0 0 0 0 0 0 0 0 0 0 0 0 2069 2076 2082 2092 2102 2111 2127 2131 2131 2132 2132 2132 2139 2140 2142 2146 2149 2156 2161 2172 2182 2185 2186 2188 2195 2201 2239 2278 2296 2335 2356 2369 2378 2386 2390 2393 2393 2396 2399 2407 2414 2423 2425 2427 2431 2437 2437 2437 2435 2430 2430 2430 2436 2444 2450 2452 2455 2462 2462 2463 2464 2464 2471 2474 2474 2474 2470 2459 2449 2443 2443 2443 2446 2452 2459 2471 2480 2495 2495 0 0 0 0 0 0 0 0 0 0 0 0 0 0 0 0 0 0 0 0 2349 2386 2386 2386 2376 2365 2354 2351 2341 2316 2295 2276 2257 2236 2236 2236 2242 2242 2242 2240 2224 2224 2224 2235 2242 2247 2253 2253 2253 2250 2239 2239 2239 2240 2249 2255 2255 2255 2250 2243 2231 2229 2229 2229 2229 2239 2250 2250 0 0 0 0 0 0 0 0 0 0 0 0 0 0 0 0 0 0 0 0 0 0 0 0 0 0 0 0 0 0 0 0 0 0 0 0 0 0 0 0 0 0 0 0 0 0 0 0 0 0 0 0 0 0 0 0 0 0 0 0 0 0 0 0 0 0 0 0 0 2321 2321 2296 2282 2261 2235 2229 2219 2211 2195 2180 2172 2169 2159 2151 2142 2135 2129 2124 2120 2115 2111 2106 2099 2092 2087 2082 2077 2072 2066 2061 2056 2049 2042 2035 2031 2027 2025 2022 2019 2017 2016 2013 2010 2006 2003 2001 1998 1995 1993 1990 1987 1985 1983 1981 1979 1975 1973 1970 1968 1966 1964 1962 1961 1960 1959 1958 1956 1955 1955 1955 1954 1952 1950 1948 1946 1944 1942 1941 1940 1939 1937 1936 1935 1934 1934 1933 1932 1932 1930 1930 1929 1929 1928 1928 1927 1926 1925 1924 1923 1922 1921 1920 1919 1918 1916 1915 1914 1913 1911 1910 1909 1909 1908 1907 1907 1906 1905 1905 1904 1903 1903 1903 1903 1902 1901 1901 1900 1899 1898 1898 1897 1896 1896 1895 1894 1894 1893 1892 1891 1891 1890 1890 1889 1889 1889 1888 1887 1886 1885 1885 1884 1883 1881 1880 1879 1877 1877 1876 1875 1874 1874 1873 1873 1872 1872 1871 1870 1870 1870 1870 1870 1870 1870 1870 1870 1872 1873 1873 1873 1873 1873 1874 1875 1875 1877 1877 1878 1878 1880 1881 1883 1885 1887 1887 1888 1889 1891 1892 1895 1898 1898 1899 1899 1899 1900 1900 1900 1900 1900 1900 1900 1900 1901 1902 1903 1903 1904 1906 1907 1908 1910 1911 1911 1912 1914 1918 1920 1920 1921 1921 1923 1924 1924 1924 1924 1924 1924 1925 1927 1929 1930 1934 1935 1935 1935 1933 1933 1933 1941 1943 1943 1943 1943 1932 1932 1932 1932 1932 0 0 0 0 0 0 0 0 0 0
1643 1643 1638 1638 1637 1637 1636 1636 1636 1638 1638 1638 1639 1638 1637 1637 1635 1633 1633 1633 1633 1632 1630 1630 1630 1630 1630 1629 1625 1623 1623 1621 1621 1620 1616 1612 1607 1606 1602 1600 1600 1600 1601 1603 1603 1603 1603 1603 1603 1603 1604 1604 1604 1602 1602 1601 1600 1600 1600 1602 1604 1605 1606 1607 1607 1607 1608 1608 1607 1607 1607 1607 1607 1607 1607 1607 1607 1607 1607 1607 1610 1611 1612 1612 1612 1612 1612 1612 1612 1611 1611 1611 1611 1611 1611 1612 1617 1621 1624 1625 1625 1628 1632 1640 1650 1659 1666 1675 1690 1698 1710 1736 1761 1788 1798 1798 1798 0 0 0 0 0 0 0 0 0 0 0 0 0 0 0 0 0 0 0 0 0 0 0 0 0 0 0 0 0 0 0 2044 2052 2077 2087 2099 2111 2118 2120 2120 2125 2125 2125 2129 2132 2136 2138 2148 2153 2160 2166 2167 2180 2182 2184 2187 2198 2212 2247 2274 2310 2340 2362 2376 2385 2390 2392 2393 2395 2399 2405 2411 2415 2416 2420 2424 2424 2425 2425 2422 2422 2424 2424 2426 2432 2436 2443 2447 2455 2455 2455 2449 2448 2448 2448 2453 2453 2453 2447 2437 2437 2437 2437 2444 2448 2457 2471 2481 2495 2495 2495 0 0 0 0 0 0 0 0 0 0 0 0 0 0 0 0 0 0 0 2397 2397 2397 2391 2387 2372 2365 2351 2341 2316 2295 2270 2248 2236 2236 2236 2243 2243 2243 2240 2221 2221 2221 2223 2228 2236 2242 2242 2242 2239 2233 2229 2229 2229 2239 2244 2247 2247 2247 2243 2232 2231 2231 2231 2232 2234 2250 2250 0 0 0 0 0 0 0 0 0 0 0 0 0 0 0 0 0 0 0 0 0 0 0 0 0 0 0 0 0 0 0 0 0 0 0 0 0 0 0 0 0 0 0 0 0 0 0 0 0 0 0 0 0 0 0 0 0 0 0 0 0 0 0 0 0 0 0 0 0 2321 2321 2295 2282 2261 2235 2225 2215 2204 2189 2172 2164 2156 2153 2145 2138 2133 2128 2123 2120 2115 2111 2106 2099 2091 2085 2082 2077 2072 2066 2060 2054 2048 2042 2035 2031 2027 2025 2021 2018 2015 2012 2010 2009 2006 2003 2001 1997 1994 1993 1989 1986 1984 1982 1979 1976 1975 1973 1970 1967 1966 1964 1962 1961 1960 1958 1957 1956 1955 1955 1954 1954 1952 1950 1948 1946 1944 1943 1941 1940 1939 1937 1936 1935 1934 1934 1933 1932 1932 1930 1930 1929 1929 1928 1927 1926 1925 1925 1924 1923 1922 1921 1919 1919 1917 1916 1915 1913 1912 1911 1910 1909 1908 1908 1907 1907 1907 1906 1905 1904 1904 1904 1903 1903 1902 1901 1901 1900 1899 1899 1898 1897 1896 1895 1895 1894 1894 1893 1892 1891 1891 1890 1890 1890 1890 1890 1890 1890 1889 1888 1886 1885 1883 1882 1880 1879 1878 1877 1876 1875 1874 1874 1873 1873 1872 1871 1870 1870 1869 1869 1869 1869 1869 1869 1869 1869 1871 1872 1872 1873 1874 1874 1874 1874 1875 1876 1877 1877 1878 1880 1881 1884 1885 1886 1887 1887 1888 1890 1892 1894 1897 1898 1899 1899 1899 1900 1900 1901 1901 1901 1900 1900 1900 1900 1902 1904 1904 1904 1906 1907 1908 1910 1911 1911 1912 1914 1918 1920 1920 1920 1921 1923 1924 1924 1924 1924 1924 1924 1925 1927 1929 1932 1934 1936 1936 1936 1931 1931 1931 1941 1943 1943 1943 1943 1929 1929 1929 1929 1929 0 0 0 0 0 0 0 0 0 0
1643 1643 1642 1640 1638 1635 1635 1635 1636 1636 1636 1635 1634 1633 1632 1631 1628 1627 1627 1627 1627 1625 1622 1622 1622 1622 1621 1620 1618 1617 1616 1616 1615 1612 1609 1606 1602 1598 1597 1596 1595 1595 1595 1599 1600 1600 1600 1598 1598 1598 1598 1598 1599 1599 1598 1598 1595 1595 1595 1595 1597 1599 1600 1602 1602 1602 1602 1602 1602 1601 1599 1597 1597 1597 1598 1599 1599 1599 1599 1599 1600 1602 1605 1607 1608 1608 1608 1608 1608 1608 1608 1607 1607 1607 1607 1609 1612 1617 1620 1621 1622 1628 1630 1640 1650 1659 1666 1670 1680 1686 1698 1716 1759 1782 1803 1817 1817 0 0 0 0 0 0 0 0 0 0 0 0 0 0 0 0 0 0 0 0 0 0 0 0 0 0 0 0 0 0 0 2041 2041 2066 2087 2099 2111 2115 2117 2117 2117 2116 2117 2117 2117 2130 2132 2147 2149 2150 2153 2154 2161 2167 2173 2178 2189 2212 2225 2238 2281 2324 2347 2362 2376 2387 2390 2391 2393 2397 2404 2406 2406 2410 2414 2417 2417 2417 2415 2415 2415 2415 2417 2421 2427 2431 2431 2437 2445 2445 2445 2433 2428 2428 2428 2432 2432 2433 2433 2432 2432 2433 2434 2442 2446 2454 2471 2481 2495 2495 2495 2479 2471 2463 0 0 0 0 0 0 0 0 0 0 0 0 0 0 0 0 2397 2397 2397 2391 2387 2386 2381 2366 2352 2333 2295 2270 2237 2236 2236 2236 2245 2245 2245 2238 2223 2222 2220 2220 2220 2230 2236 2236 2236 2233 2229 2224 2224 2224 2226 2231 2233 2237 2237 2237 2232 2232 2231 2232 2232 2234 2250 2250 0 0 0 0 0 0 0 0 0 0 0 0 0 0 0 0 0 0 0 0 0 0 0 0 0 0 0 0 0 0 0 0 0 0 0 0 0 0 0 0 0 0 0 0 0 0 0 0 0 0 0 0 0 0 0 0 0 0 0 0 0 0 0 0 0 0 0 0 0 2321 2321 2294 2278 2254 2235 2219 2208 2197 2189 2172 2162 2156 2149 2138 2136 2131 2127 2123 2119 2115 2111 2105 2098 2091 2085 2080 2077 2072 2064 2060 2054 2048 2042 2035 2031 2027 2024 2021 2018 2014 2010 2008 2006 2005 2002 1999 1995 1992 1989 1987 1984 1982 1978 1976 1974 1972 1970 1969 1967 1966 1964 1962 1960 1959 1958 1957 1956 1955 1955 1954 1954 1952 1951 1948 1946 1944 1943 1941 1940 1939 1937 1936 1935 1934 1934 1933 1932 1932 1930 1930 1929 1929 1928 1926 1926 1925 1925 1923 1922 1921 1920 1919 1918 1916 1915 1914 1913 1912 1911 1910 1909 1908 1908 1907 1907 1907 1906 1905 1904 1904 1904 1903 1903 1902 1901 1901 1899 1899 1899 1898 1896 1896 1896 1895 1894 1894 1893 1892 1891 1891 1890 1890 1890 1890 1890 1890 1890 1889 1888 1886 1885 1883 1883 1880 1879 1878 1877 1876 1875 1875 1874 1873 1873 1872 1871 1870 1869 1869 1869 1869 1869 1869 1868 1868 1868 1869 1871 1872 1873 1874 1874 1874 1874 1875 1876 1877 1877 1878 1880 1881 1884 1884 1886 1887 1888 1889 1890 1892 1895 1898 1898 1899 1899 1899 1900 1901 1901 1901 1901 1900 1900 1900 1900 1902 1904 1904 1904 1907 1907 1908 1910 1911 1911 1912 1914 1920 1920 1920 1920 1921 1923 1928 1928 1928 1928 1928 1927 1927 1927 1929 1932 1934 1936 1936 1936 1931 1931 1931 1939 1939 1939 1938 1927 1919 1919 1919 1924 1924 0 0 0 0 0 0 0 0 0 0
1642 1643 1642 1642 1638 1634 1632 1632 1632 1633 1633 1633 1627 1626 1625 1623 1620 1618 1618 1617 1617 1617 1616 1614 1614 1611 1611 1611 1610 1608 1606 1606 1605 1605 1603 1601 1598 1595 1595 1592 1592 1592 1593 1594 1595 1595 1595 1593 1593 1593 1594 1595 1595 1595 1595 1595 1593 1591 1590 1590 1590 1591 1594 1596 1597 1597 1597 1596 1596 1595 1595 1592 1592 1592 1592 1593 1593 1593 1593 1593 1593 1595 1598 1600 1601 1602 1603 1603 1604 1604 1604 1604 1604 1604 1604 1607 1609 1611 1614 1616 1619 1626 1629 1640 1649 1655 1662 1666 1672 1684 1689 1708 1753 1781 1803 1828 1828 0 0 0 0 0 0 0 0 0 0 0 0 0 0 0 0 0 0 0 0 0 0 0 0 0 0 0 0 0 0 0 2030 2034 2066 2087 2099 2111 2114 2114 2115 2115 2114 2115 2116 2116 2124 2128 2139 2142 2142 2146 2146 2149 2158 2169 2172 2181 2189 2199 2203 2233 2275 2308 2334 2355 2373 2386 2388 2391 2391 2398 2401 2404 2409 2413 2413 2413 2413 2410 2409 2409 2409 2412 2414 2416 2419 2427 2432 2432 2432 2432 2420 2414 2414 2414 2418 2425 2425 2427 2429 2429 2432 2434 2440 2446 2450 2470 2481 2484 2484 2484 2479 2471 2463 2449 0 0 0 0 0 0 0 0 0 0 0 0 0 0 0 2397 2397 2397 2393 2393 2389 2389 2376 2372 2348 2304 2270 2237 2236 2236 2236 2245 2245 2245 2238 2223 2222 2219 2219 2219 2227 2230 2231 2231 2231 2228 2222 2220 2220 2220 2224 2227 2228 2231 2231 2232 2233 2232 2233 2234 2234 2242 2242 0 0 0 0 0 0 0 0 0 0 0 0 0 0 0 0 0 0 0 0 0 0 0 0 0 0 0 0 0 0 0 0 0 0 0 0 0 0 0 0 0 0 0 0 0 0 0 0 0 0 0 0 0 0 0 0 0 0 0 0 0 0 0 0 0 0 0 0 0 2321 2321 2294 2266 2253 2235 2219 2208 2197 2189 2172 2162 2155 2147 2138 2131 2129 2126 2123 2118 2112 2109 2102 2097 2090 2084 2079 2075 2070 2064 2060 2054 2048 2044 2037 2032 2027 2024 2021 2018 2014 2010 2008 2004 2002 2000 1997 1994 1991 1988 1984 1981 1979 1977 1975 1973 1971 1969 1967 1966 1965 1963 1961 1960 1959 1958 1956 1956 1955 1955 1954 1953 1952 1951 1948 1947 1945 1943 1941 1940 1939 1937 1936 1935 1934 1934 1933 1933 1932 1931 1930 1929 1929 1928 1926 1926 1925 1924 1923 1922 1921 1920 1918 1918 1916 1915 1913 1913 1911 1911 1910 1909 1908 1908 1907 1907 1907 1906 1905 1904 1904 1904 1903 1903 1902 1901 1901 1899 1899 1899 1897 1896 1896 1896 1895 1894 1894 1893 1892 1891 1891 1890 1890 1890 1890 1890 1890 1890 1889 1888 1886 1885 1884 1883 1882 1880 1878 1878 1876 1875 1875 1875 1874 1873 1872 1871 1870 1869 1869 1869 1868 1868 1868 1868 1868 1868 1869 1871 1872 1873 1874 1874 1874 1874 1874 1876 1877 1877 1878 1880 1882 1884 1884 1887 1888 1888 1889 1890 1892 1895 1898 1899 1900 1902 1902 1903 1903 1902 1902 1902 1902 1902 1902 1903 1903 1906 1906 1906 1907 1907 1908 1911 1912 1912 1913 1918 1918 1919 1920 1920 1924 1930 1932 1932 1932 1932 1930 1927 1927 1927 1929 1932 1934 1935 1937 1937 1937 1936 1936 1936 1936 1936 1931 1923 1919 1919 1919 1923 0 0 0 0 0 0 0 0 0 0 0
1631 1639 1639 1639 1637 1632 1632 1631 1630 1630 1630 1628 1624 1618 1616 1613 1609 1608 1608 1608 1608 1608 1608 1605 1605 1602 1602 1601 1600 1597 1597 1597 1597 1597 1597 1595 1594 1591 1589 1589 1589 1590 1591 1591 1591 1591 1591 1591 1591 1591 1591 1590 1590 1590 1591 1591 1591 1589 1585 1585 1585 1585 1586 1589 1590 1591 1591 1591 1589 1589 1588 1588 1588 1588 1588 1589 1589 1589 1589 1589 1589 1591 1592 1592 1593 1594 1596 1597 1598 1600 1600 1600 1599 1599 1599 1602 1604 1607 1608 1610 1614 1621 1629 1635 1644 1651 1658 1665 1667 1675 1682 1693 1734 1773 1803 1828 0 0 0 0 0 0 0 0 0 0 0 0 0 0 0 0 0 0 0 0 0 0 0 0 0 0 0 0 0 0 0 0 2028 2033 2062 2082 2094 2103 2103 2106 2106 2106 2106 2107 2108 2111 2116 2120 2121 2134 2135 2140 2141 2141 2157 2166 2168 2170 2178 2186 2194 2215 2251 2279 2293 2321 2361 2383 2387 2387 2388 2391 2397 2404 2409 2411 2411 2411 2407 2403 2402 2402 2402 2404 2409 2410 2415 2419 2423 2427 2427 2427 2420 2411 2410 2410 2410 2417 2420 2422 2426 2428 2429 2433 2437 2438 2443 2451 2466 2471 2471 2471 2471 2471 2463 2449 2420 0 0 0 0 0 0 0 0 0 0 0 0 0 0 0 2395 2395 2395 2393 2392 2392 2383 2373 2348 2304 2270 2237 2236 2236 2236 2245 2245 2245 2238 2223 2222 2216 2216 2216 2221 2223 2224 2226 2226 2226 2220 2217 2217 2217 2221 2227 2227 2231 2231 2233 2234 2236 2236 2237 2238 2242 2242 0 0 0 0 0 0 0 0 0 0 0 0 0 0 0 0 0 0 0 0 0 0 0 0 0 0 0 0 0 0 0 0 0 0 0 0 0 0 0 0 0 0 0 0 0 0 0 0 0 0 0 0 0 0 0 0 0 0 0 0 0 0 0 0 0 0 0 0 0 2314 2314 2275 2266 2250 2233 2219 2208 2197 2188 2177 2162 2154 2145 2136 2131 2129 2126 2123 2117 2112 2108 2102 2096 2090 2084 2079 2075 2069 2064 2060 2056 2051 2045 2037 2032 2027 2024 2020 2018 2014 2010 2008 2004 2002 1999 1996 1993 1990 1986 1982 1980 1978 1976 1975 1973 1970 1969 1967 1966 1965 1963 1961 1960 1958 1957 1956 1955 1954 1954 1953 1953 1952 1950 1948 1947 1946 1945 1942 1940 1939 1937 1936 1936 1934 1934 1933 1933 1932 1932 1931 1930 1929 1928 1926 1926 1925 1924 1923 1922 1920 1919 1918 1917 1916 1915 1913 1912 1911 1911 1910 1909 1908 1908 1908 1908 1907 1906 1905 1905 1905 1904 1903 1903 1902 1901 1900 1899 1899 1899 1897 1896 1896 1896 1895 1894 1894 1893 1892 1892 1891 1890 1890 1890 1890 1890 1890 1889 1889 1888 1886 1885 1884 1883 1882 1881 1880 1878 1877 1876 1876 1876 1874 1873 1872 1871 1870 1869 1869 1869 1868 1868 1868 1868 1868 1868 1869 1871 1872 1874 1874 1874 1874 1875 1875 1876 1877 1878 1881 1882 1884 1884 1884 1887 1890 1890 1892 1893 1896 1897 1899 1901 1903 1906 1907 1907 1907 1905 1903 1903 1903 1903 1904 1906 1908 1908 1908 1908 1908 1908 1910 1912 1912 1914 1916 1918 1918 1919 1920 1920 1925 1930 1935 1935 1935 1934 1933 1930 1929 1929 1929 1933 1934 1934 1937 1937 1937 1927 1927 1926 1921 1920 1920 1917 1913 1903 1895 0 0 0 0 0 0 0 0 0 0 0 0
1627 1633 1635 1635 1635 1627 1627 1627 1627 1627 1625 1624 1615 1608 1606 1604 1601 1601 1601 1601 1601 1601 1601 1600 1597 1597 1597 1595 1591 1587 1586 1586 1586 1590 1590 1590 1590 1588 1587 1587 1587 1587 1587 1587 1587 1587 1587 1587 1587 1587 1586 1585 1585 1585 1585 1585 1585 1585 1582 1581 1581 1581 1582 1583 1585 1585 1585 1585 1582 1582 1582 1582 1583 1583 1583 1584 1584 1584 1584 1584 1584 1585 1585 1585 1586 1586 1588 1589 1591 1593 1593 1594 1594 1594 1594 1598 1600 1603 1604 1606 1610 1615 1620 1625 1633 1640 1645 1659 1666 1666 1672 1678 1706 1734 1766 0 0 0 0 0 0 0 0 0 0 0 0 0 0 0 0 0 0 0 0 0 0 0 0 0 0 0 0 0 0 0 0 2008 2024 2033 2059 2075 2087 2094 2094 2094 2092 2092 2092 2094 2095 2101 2103 2108 2113 2114 2121 2130 2132 2132 2144 2153 2155 2161 2161 2177 2186 2199 2205 2246 2267 2274 2327 2364 2367 2367 2376 2385 2393 2399 2405 2405 2405 2405 2399 2399 2399 2400 2400 2402 2402 2407 2412 2418 2419 2420 2420 2419 2417 2410 2408 2408 2408 2408 2413 2418 2421 2422 2426 2429 2430 2430 2432 2441 2448 2458 2462 2464 2464 2462 2462 2443 2420 2399 0 0 0 0 0 0 0 0 0 0 0 0 0 0 2392 2395 2395 2395 2395 2395 2386 2373 2348 2304 2270 2253 2247 2245 2242 2240 2239 2237 2231 2216 2216 2214 2214 2214 2216 2217 2217 2218 2218 2218 2213 2211 2211 2211 2221 2227 2227 2231 2231 2233 2234 2237 2237 2237 2236 2236 2236 2235 0 0 0 0 0 0 0 0 0 0 0 0 0 0 0 0 0 0 0 0 0 0 0 0 0 0 0 0 0 0 0 0 0 0 0 0 0 0 0 0 0 0 0 0 0 0 0 0 0 0 0 0 0 0 0 0 0 0 0 0 0 0 0 0 0 0 0 2269 2269 2269 2261 2260 2249 2233 2222 2209 2197 2188 2177 2162 2154 2147 2136 2130 2127 2124 2123 2117 2112 2106 2101 2096 2090 2084 2079 2074 2069 2064 2060 2056 2051 2045 2038 2032 2027 2024 2020 2017 2013 2011 2008 2004 2002 1998 1995 1993 1989 1986 1982 1979 1976 1975 1973 1970 1969 1968 1967 1966 1964 1962 1960 1959 1958 1957 1956 1955 1954 1954 1953 1952 1951 1950 1949 1947 1946 1945 1943 1942 1941 1938 1937 1936 1935 1934 1934 1934 1933 1933 1932 1930 1929 1928 1926 1926 1925 1924 1923 1921 1920 1919 1918 1917 1916 1914 1913 1912 1911 1911 1910 1910 1909 1908 1908 1908 1907 1906 1905 1905 1905 1904 1903 1903 1901 1901 1900 1899 1899 1898 1897 1897 1896 1896 1895 1894 1894 1893 1893 1892 1891 1890 1890 1890 1890 1890 1890 1889 1888 1887 1886 1885 1884 1883 1882 1881 1880 1878 1877 1876 1876 1876 1874 1873 1872 1871 1870 1869 1869 1868 1868 1868 1868 1868 1868 1868 1869 1871 1873 1874 1875 1875 1875 1876 1876 1877 1880 1882 1885 1885 1885 1885 1887 1890 1891 1892 1893 1895 1897 1900 1901 1903 1905 1908 1909 1909 1909 1909 1909 1909 1907 1907 1907 1910 1910 1910 1910 1911 1911 1911 1911 1912 1912 1915 1917 1919 1919 1919 1920 1920 1925 1930 1935 1935 1935 1934 1933 1930 1929 1929 1929 1933 1934 1934 1937 1937 1937 1927 1913 1909 1909 1909 1909 1909 1909 1903 0 0 0 0 0 0 0 0 0 0 0 0 0
1622 1628 1628 1628 1625 1625 1625 1626 1626 1626 1620 1615 1606 1601 1599 1597 1596 1595 1595 1596 1596 1598 1598 1598 1595 1595 1592 1588 1584 1581 1579 1579 1579 1582 1584 1584 1584 1584 1584 1584 1584 1584 1584 1584 1584 1583 1583 1583 1583 1583 1583 1581 1581 1581 1582 1582 1582 1582 1579 1579 1579 1579 1579 1579 1580 1580 1580 1579 1578 1578 1578 1578 1578 1579 1580 1580 1580 1577 1577 1577 1578 1578 1578 1578 1578 1579 1580 1581 1585 1587 1588 1589 1591 1591 1593 1596 1598 1599 1602 1606 1608 1612 1614 1618 1622 1630 1636 1646 1654 1657 1663 1663 1679 1702 1718 0 0 0 0 0 0 0 0 0 0 0 0 0 0 0 0 0 0 0 0 0 0 0 0 0 0 0 0 0 0 0 0 2008 2024 2033 2058 2072 2084 2086 2086 2086 2084 2084 2084 2086 2089 2090 2090 2090 2093 2101 2103 2119 2124 2125 2126 2128 2136 2145 2158 2168 2180 2181 2182 2186 2210 2236 0 2300 2317 2335 2349 2363 2377 2388 2392 2397 2397 2397 2395 2395 2395 2397 2398 2398 2399 2404 2412 2417 2417 2417 2417 2416 2416 2406 2405 2405 2405 2405 2408 2415 2420 2422 2424 2424 2425 2425 2426 2431 2441 2444 2446 2453 2454 2454 2454 2443 2419 2399 2391 2386 0 0 0 0 0 0 0 0 0 0 0 0 2387 2392 2392 2395 2395 2395 2386 2373 2343 2299 2272 2271 2271 2267 2252 2237 2231 2230 2223 2213 2213 2213 2214 2214 2214 2210 2210 2210 2210 2210 2207 2207 2207 2211 2221 2227 2232 2232 2232 2233 2234 2237 2237 2237 2236 2236 2229 2225 0 0 0 0 0 0 0 0 0 0 0 0 0 0 0 0 0 0 0 0 0 0 0 0 0 0 0 0 0 0 0 0 0 0 0 0 0 0 0 0 0 0 0 0 0 0 0 0 0 0 0 0 0 0 0 0 0 0 0 0 0 0 0 0 0 0 0 2279 2279 2251 2249 2248 2243 2233 2222 2209 2197 2188 2177 2163 2154 2145 2136 2130 2125 2124 2123 2117 2111 2105 2101 2096 2090 2084 2077 2072 2067 2064 2060 2056 2051 2045 2038 2032 2027 2023 2019 2016 2014 2011 2009 2007 2002 1998 1995 1992 1989 1986 1981 1978 1976 1974 1971 1968 1967 1967 1967 1966 1964 1962 1960 1959 1958 1957 1957 1955 1954 1954 1953 1952 1951 1950 1949 1947 1947 1946 1944 1943 1941 1939 1937 1936 1936 1934 1934 1934 1933 1933 1932 1931 1929 1928 1926 1926 1925 1924 1923 1921 1920 1919 1918 1916 1916 1915 1914 1912 1911 1911 1910 1910 1910 1909 1908 1908 1907 1907 1906 1905 1905 1904 1903 1903 1901 1900 1900 1899 1899 1898 1898 1897 1896 1896 1895 1894 1894 1893 1893 1892 1891 1891 1890 1890 1890 1889 1889 1888 1888 1887 1886 1885 1884 1883 1883 1881 1880 1878 1877 1876 1876 1876 1875 1873 1872 1871 1870 1869 1869 1868 1868 1868 1868 1868 1868 1869 1870 1872 1874 1874 1876 1878 1879 1879 1880 1883 1885 1886 1886 1887 1887 1890 1892 1892 1893 1893 1894 1895 1898 1900 1903 1905 1908 1910 1910 1910 1910 1910 1910 1910 1909 1909 1909 1910 1911 1911 1911 1911 1912 1912 1912 1912 1914 1915 1917 1919 1919 1919 1920 1920 1925 1930 1935 1935 1935 1934 1933 1932 1932 1932 1934 1934 1937 1938 1938 1936 1936 1925 1913 1909 1902 1902 1902 1894 1894 1889 0 0 0 0 0 0 0 0 0 0 0 0 0
1600 1611 1619 1623 1623 1623 1623 1623 1623 1619 1611 1610 1601 1595 1593 1592 1591 1590 1590 1590 1591 1591 1592 1592 1592 1588 1588 1583 1578 1574 1573 1572 1572 1572 1575 1575 1576 1578 1579 1580 1580 1580 1580 1580 1580 1579 1579 1579 1578 1578 1578 1578 1578 1578 1579 1579 1579 1577 1577 1577 1576 1576 1576 1576 1576 1576 1576 1573 1572 1572 1572 1572 1573 1574 1574 1574 1574 1573 1572 1571 1571 1571 1571 1571 1571 1571 1572 1574 1577 1579 1581 1585 1585 1589 1593 1595 1596 1598 1599 1603 1606 1607 1607 1610 1615 1622 1625 1631 1640 1651 1653 1661 1675 1683 1699 0 0 0 0 0 0 0 0 0 0 0 0 0 0 0 0 0 0 0 0 0 0 0 0 0 0 0 0 0 0 0 0 2008 2024 2040 2058 2065 2074 2081 2081 2081 2078 2078 2078 2080 2081 2081 2081 2081 2081 2085 2099 2101 2104 2111 2114 2115 2120 2137 2147 2162 2162 2162 2164 2164 2164 2184 2218 2264 2269 2295 2319 2337 2355 2368 2377 2386 2388 2390 2390 2391 2391 2394 2396 2398 2398 2403 2412 2417 2417 2417 2416 2414 2409 2406 2404 2402 2402 2402 2404 2412 2418 2420 2420 2420 2421 2421 2422 2429 2434 2441 2441 2441 2444 2444 2441 2437 2414 2406 2397 2394 2391 0 0 0 0 0 0 0 0 0 0 0 2353 2378 2392 2400 2400 2400 2385 2364 2341 2299 2293 2290 2285 2285 2265 2237 2224 2218 2213 2210 2210 2210 2211 2211 2211 2207 2207 2207 2207 2207 2207 2207 2207 2211 2222 2228 2232 2232 2233 2233 2234 2235 2235 2235 2226 2226 2225 2223 0 0 0 0 0 0 0 0 0 0 0 0 0 0 0 0 0 0 0 0 0 0 0 0 0 0 0 0 0 0 0 0 0 0 0 0 0 0 0 0 0 0 0 0 0 0 0 0 0 0 0 0 0 0 0 0 0 0 0 0 0 0 0 0 0 0 2309 2294 2273 2248 2241 2236 2233 2231 2222 2209 2196 2188 2173 2163 2154 2145 2136 2130 2125 2124 2122 2117 2110 2105 2101 2096 2089 2084 2076 2071 2066 2063 2060 2056 2051 2045 2038 2032 2027 2022 2019 2016 2014 2011 2009 2007 2002 1998 1993 1990 1986 1985 1981 1978 1976 1974 1971 1968 1967 1967 1967 1966 1964 1962 1960 1959 1958 1958 1957 1955 1954 1954 1953 1952 1951 1950 1949 1947 1947 1946 1944 1943 1942 1940 1939 1937 1937 1936 1935 1935 1934 1933 1933 1931 1929 1928 1927 1926 1925 1924 1923 1921 1920 1919 1917 1916 1916 1915 1914 1913 1912 1911 1911 1910 1910 1909 1909 1908 1907 1907 1906 1905 1905 1904 1903 1902 1901 1901 1899 1899 1899 1898 1898 1897 1896 1896 1895 1894 1894 1893 1893 1892 1891 1891 1890 1890 1890 1889 1889 1888 1887 1886 1886 1885 1884 1883 1882 1881 1880 1878 1877 1876 1876 1876 1875 1873 1872 1871 1870 1869 1869 1868 1868 1868 1868 1868 1869 1870 1873 1874 1875 1878 1878 1880 1882 1883 1885 1886 1889 1889 1890 1890 1891 1892 1893 1893 1893 1893 1894 1896 1899 1901 1903 1906 1909 1910 1911 1911 1911 1911 1911 1910 1910 1910 1912 1913 1913 1913 1913 1913 1913 1913 1916 1916 1916 1916 1918 1919 1919 1919 1920 1921 1924 1929 1929 1929 1929 1927 1927 1927 1927 1934 1938 1938 1938 1938 1936 1936 1936 1925 1913 1909 1902 1902 1902 1889 1889 1889 0 0 0 0 0 0 0 0 0 0 0 0 0
1582 1596 1611 1618 1619 1620 1620 1618 1615 1610 1601 1594 1594 1592 1590 1589 1589 1585 1584 1583 1583 1583 1583 1582 1581 1581 1581 1576 1572 1570 1568 1567 1567 1567 1567 1568 1568 1570 1572 1574 1574 1575 1575 1575 1575 1575 1575 1575 1574 1574 1575 1575 1575 1575 1576 1576 1576 1575 1574 1574 1573 1572 1571 1571 1571 1571 1571 1569 1567 1567 1567 1569 1569 1569 1569 1569 1569 1567 1566 1565 1565 1565 1565 1563 1563 1563 1563 1566 1569 1571 1573 1578 1580 1584 1588 1593 1593 1593 1598 1600 1601 1602 1602 1603 1606 1615 1624 1625 1630 1642 1645 1651 1663 1680 1696 1714 0 0 0 1853 1853 1848 0 0 0 0 1809 1826 1848 1876 1894 1899 1899 1899 1887 1887 1887 0 0 0 0 0 0 0 0 0 0 2010 2027 2042 2051 2058 2066 2074 2074 2074 2073 2073 2073 2075 2075 2075 2075 2075 2075 2077 2083 2094 2095 2105 2109 2110 2114 2119 2120 2122 2124 2126 2131 2134 2144 2155 2182 2206 2241 2257 2297 2321 2334 2347 2361 2373 2379 2379 2380 2381 2383 2391 2392 2397 2398 2402 2411 2416 2416 2416 2413 2409 2406 2405 2404 2401 2401 2401 2404 2411 2416 2416 2416 2416 2416 2416 2421 2427 2431 2433 2433 2433 2433 2433 2429 2429 2414 2406 2398 2396 2395 2394 0 0 0 0 0 0 0 0 0 0 2353 2373 2382 2400 2400 2400 2383 2356 2341 2305 2299 2298 2293 2290 2265 2237 2224 2214 2208 2205 2205 2205 2206 2206 2206 2201 2201 2201 2204 2204 2204 2207 2207 2210 2222 2228 2231 2231 2231 2229 2228 2226 2226 2223 2223 2223 2223 2221 0 0 0 0 0 0 0 0 0 0 0 0 0 0 0 0 0 0 0 0 0 0 0 0 0 0 0 0 0 0 0 0 0 0 0 0 0 0 0 0 0 0 0 0 0 0 0 0 0 0 0 0 0 0 0 0 0 0 0 0 0 0 0 0 2331 2330 2309 2283 2268 2248 2241 2234 2230 2225 2216 2201 2195 2187 2170 2162 2154 2145 2135 2129 2125 2120 2119 2114 2109 2105 2100 2096 2089 2082 2075 2070 2066 2061 2055 2054 2048 2044 2038 2032 2027 2022 2019 2016 2014 2012 2009 2007 2002 1997 1993 1989 1986 1983 1980 1978 1976 1974 1971 1968 1967 1967 1967 1966 1964 1962 1961 1959 1958 1958 1957 1955 1955 1954 1954 1952 1951 1951 1949 1949 1947 1947 1945 1944 1943 1941 1940 1938 1937 1937 1937 1937 1937 1936 1933 1931 1929 1928 1927 1926 1925 1924 1923 1921 1920 1919 1917 1916 1916 1914 1914 1913 1913 1912 1911 1911 1910 1909 1909 1908 1907 1907 1906 1905 1905 1904 1903 1902 1901 1900 1899 1899 1899 1898 1898 1897 1896 1896 1895 1894 1894 1893 1893 1892 1891 1891 1890 1890 1889 1889 1889 1888 1887 1886 1885 1885 1884 1883 1882 1881 1880 1878 1877 1876 1876 1876 1875 1873 1872 1871 1870 1869 1869 1868 1868 1868 1868 1869 1870 1871 1874 1874 1876 1878 1879 1881 1883 1885 1887 1888 1890 1891 1891 1892 1893 1893 1893 1893 1893 1893 1895 1896 1899 1901 1903 1906 1909 1910 1911 1911 1911 1911 1911 1911 1911 1912 1913 1914 1915 1915 1916 1916 1916 1916 1917 1917 1918 1918 1922 1922 1922 1921 1921 1921 1923 1924 1925 1925 1924 1924 1924 1924 1927 1934 1939 1939 1939 1937 1936 1936 1936 1925 1920 1915 1902 1891 1891 1889 1889 0 0 0 0 0 0 0 0 0 0 0 0 0 0
1575 1582 1605 1613 1615 1615 1615 1612 1605 1600 1594 1590 1589 1587 1587 1587 1587 1584 1580 1578 1577 1575 1575 1574 1574 1574 1573 1570 1567 1565 1563 1563 1563 1563 1563 1563 1563 1564 1567 1569 1570 1571 1572 1572 1572 1571 1571 1571 1570 1571 1571 1571 1571 1571 1571 1571 1571 1571 1570 1570 1568 1567 1565 1565 1565 1566 1566 1566 1564 1564 1564 1564 1564 1564 1563 1562 1562 1561 1561 1561 1560 1560 1558 1557 1557 1557 1557 1557 1559 1562 1564 1567 1572 1577 1581 1585 1588 1592 1594 1595 1595 1597 1597 1598 1600 1602 1613 1623 1629 1637 1644 1650 1656 1667 1684 1711 0 0 1845 1848 1853 1853 1848 0 0 0 1868 1870 1881 1898 1922 1922 1922 1905 1890 1890 1890 1921 1921 0 0 0 0 0 0 0 0 2019 2028 2042 2051 2057 2062 2070 2070 2070 2067 2067 2067 2071 2071 2071 2072 2073 2073 2073 2078 2086 2087 2093 2099 2103 2109 2109 2111 2113 2113 2115 2120 2125 2131 2140 2161 2187 2212 2241 2279 2302 2319 2331 2342 2356 2368 2368 2369 2370 2371 2376 2382 2383 2385 2392 2400 2406 2407 2407 2407 2406 2404 2401 2401 2401 2401 2401 2403 2409 2410 2412 2412 2413 2413 2415 2421 2424 2427 2429 2429 2429 2427 2427 2426 2419 2409 2406 2403 2399 2399 2399 2387 0 0 0 0 0 0 0 0 0 2353 2373 2375 2400 2400 2400 2372 2356 2341 2322 2321 2308 2293 2290 2265 2237 2222 2213 2207 2205 2202 2202 2202 2202 2202 2201 2201 2201 2204 2204 2204 2209 2209 2210 2222 2228 2231 2231 2231 2228 2226 2218 2218 2218 2220 2221 2221 2223 0 0 0 0 0 0 0 0 0 0 0 0 0 0 0 0 0 0 0 0 0 0 0 0 0 0 0 0 0 0 0 0 0 0 0 0 0 0 0 0 0 0 0 0 0 0 0 0 0 0 0 0 0 0 0 0 0 0 0 0 0 0 0 2331 2331 2330 2309 2283 2265 2249 2241 2234 2227 2218 2209 2196 2189 2184 2168 2160 2153 2145 2132 2126 2123 2119 2112 2107 2106 2104 2099 2096 2089 2082 2073 2068 2065 2060 2055 2052 2048 2044 2039 2033 2027 2022 2020 2016 2014 2012 2009 2006 2003 1997 1993 1989 1986 1983 1980 1978 1976 1974 1972 1969 1968 1968 1967 1966 1964 1962 1961 1960 1958 1958 1957 1955 1955 1954 1954 1953 1952 1951 1950 1949 1948 1947 1946 1945 1944 1944 1941 1940 1939 1938 1938 1938 1937 1936 1935 1933 1930 1928 1928 1926 1926 1924 1923 1921 1920 1919 1917 1916 1916 1914 1914 1913 1913 1912 1911 1911 1910 1909 1909 1908 1907 1906 1905 1904 1904 1903 1903 1902 1901 1900 1899 1899 1899 1898 1898 1897 1896 1896 1895 1894 1894 1893 1893 1892 1891 1891 1890 1890 1889 1889 1888 1888 1887 1886 1885 1884 1883 1883 1882 1881 1880 1878 1877 1877 1876 1876 1875 1873 1872 1871 1870 1870 1869 1868 1868 1868 1868 1869 1872 1873 1874 1875 1877 1878 1879 1882 1886 1889 1890 1891 1892 1892 1893 1894 1894 1894 1894 1893 1893 1893 1896 1897 1900 1902 1905 1906 1909 1910 1911 1911 1911 1911 1911 1911 1911 1913 1913 1914 1915 1915 1916 1916 1917 1917 1917 1918 1918 1918 1922 1923 1923 1923 1921 1921 1921 1923 1924 1924 1924 1924 1924 1924 1926 1934 1939 1939 1939 1938 1937 1937 1936 1936 1930 1927 1903 1891 1891 1888 1888 0 0 0 0 0 0 0 0 0 0 0 0 0 0
1573 1581 1594 1599 1600 1600 1599 1598 1595 1590 1588 1583 1583 1583 1583 1582 1582 1580 1576 1573 1571 1568 1568 1568 1567 1566 1564 1563 1561 1560 1560 1560 1560 1560 1559 1559 1559 1559 1561 1564 1565 1565 1566 1566 1566 1566 1566 1566 1566 1566 1566 1566 1566 1566 1566 1566 1565 1564 1564 1564 1563 1561 1559 1559 1559 1561 1561 1561 1559 1558 1558 1558 1558 1558 1558 1556 1556 1556 1556 1556 1556 1555 1554 1552 1550 1546 1546 1546 1549 1553 1556 1558 1562 1567 1572 1576 1580 1583 1587 1590 1590 1591 1591 1593 1595 1597 1600 1613 1620 1632 1643 1649 1651 1657 1665 1683 0 0 1812 1837 1848 1848 1855 1872 1887 1915 1915 1915 1915 1915 1928 1928 1928 1919 1918 1918 1918 1927 1932 1932 1932 0 0 0 0 0 0 2019 2028 2042 2050 2056 2062 2064 2064 2064 2063 2063 2063 2067 2068 2069 2069 2072 2073 2073 2075 2077 2079 2079 2082 2086 2098 2100 2100 2100 2100 2108 2113 2122 2124 2135 2148 2170 2189 2223 2262 2289 2306 2320 2333 2341 2346 2347 2347 2355 2360 2368 2368 2369 2369 2372 2378 2384 2388 2390 2393 2395 2396 2396 2398 2398 2401 2401 2401 2406 2407 2407 2409 2411 2413 2415 2422 2422 2424 2425 2425 2424 2424 2420 2415 2411 2407 2405 2403 2403 2403 2403 2396 2375 2343 0 0 0 0 0 0 2346 2355 2373 2375 2388 2388 2388 2366 2366 2356 2354 2340 2309 2284 2274 2262 2237 2222 2210 2205 2200 2200 2200 2202 2202 2202 2201 2201 2201 2204 2208 2208 2210 2211 2211 2222 2225 2231 2231 2231 2228 2226 2215 2215 2215 2220 2221 2228 2229 2229 0 0 0 0 0 0 0 0 0 0 0 0 0 0 0 0 0 0 0 0 0 0 0 0 0 0 0 0 0 0 0 0 0 0 0 0 0 0 0 0 0 0 0 0 0 0 0 0 0 0 0 0 0 0 0 0 0 0 0 0 0 2344 2344 2331 2315 2290 2271 2262 2251 2243 2234 2225 2216 2205 2191 2182 2175 2165 2156 2150 2142 2132 2126 2120 2116 2111 2106 2103 2102 2098 2092 2086 2080 2072 2068 2064 2060 2055 2052 2048 2044 2039 2033 2028 2023 2020 2018 2015 2012 2009 2006 2003 1997 1993 1989 1986 1983 1980 1978 1978 1976 1973 1971 1969 1968 1968 1966 1965 1963 1961 1960 1959 1958 1957 1955 1955 1955 1954 1953 1952 1951 1950 1950 1948 1948 1946 1946 1945 1944 1943 1942 1942 1941 1940 1939 1938 1936 1935 1933 1930 1928 1928 1926 1926 1924 1922 1921 1920 1919 1917 1916 1916 1915 1914 1914 1913 1912 1912 1911 1910 1909 1909 1908 1907 1906 1905 1904 1903 1903 1902 1902 1901 1900 1899 1899 1899 1898 1897 1897 1896 1896 1895 1894 1894 1893 1893 1892 1891 1890 1890 1890 1889 1888 1888 1887 1887 1885 1884 1884 1883 1883 1882 1880 1879 1878 1878 1877 1876 1876 1875 1873 1872 1871 1871 1870 1869 1868 1868 1868 1868 1869 1872 1874 1875 1877 1878 1879 1880 1882 1888 1891 1893 1893 1894 1894 1894 1896 1896 1896 1894 1893 1893 1893 1896 1897 1901 1905 1908 1908 1909 1910 1911 1911 1911 1911 1911 1912 1914 1914 1915 1915 1915 1915 1916 1916 1917 1917 1917 1918 1918 1918 1923 1926 1927 1927 1927 1923 1923 1923 1923 1925 1925 1925 1925 1925 1925 1934 1940 1940 1940 1939 1939 1938 1936 1936 1930 1927 1903 1893 1893 1891 0 0 0 0 0 0 0 0 0 0 0 0 0 0 0
1567 1571 1572 1580 1582 1583 1584 1584 1584 1581 1577 1577 1573 1573 1573 1577 1577 1577 1572 1569 1567 1566 1565 1564 1563 1561 1559 1559 1558 1558 1557 1557 1557 1557 1556 1555 1555 1555 1557 1557 1558 1558 1558 1558 1558 1559 1559 1561 1562 1562 1562 1562 1562 1558 1558 1558 1558 1558 1558 1557 1557 1555 1555 1555 1555 1554 1554 1554 1553 1552 1552 1552 1552 1552 1552 1552 1553 1553 1553 1553 1552 1549 1548 1547 1545 1538 1538 1538 1541 1544 1547 1549 1554 1559 1562 1568 1572 1576 1582 1585 1586 1587 1588 1589 1591 1594 1597 1608 1613 1617 1631 1637 1640 1642 1653 1670 0 0 1807 1821 1834 1855 1880 1891 1901 1917 1917 1917 1924 1928 1928 1936 1936 1936 1936 1936 1937 1938 1943 1948 1952 1962 2000 2003 2012 2020 2021 2022 2028 2039 2048 2055 2058 2058 2058 2060 2061 2061 2062 2064 2064 2065 2066 2069 2071 2071 2073 2072 2072 2073 2074 2079 2084 2086 2087 2089 2091 2099 2105 2111 2116 2117 2131 2152 2155 2192 2236 2273 2298 2319 2332 2334 2335 2337 2337 2347 2356 2356 2356 2355 2354 2354 2354 2359 2366 2373 2378 2384 2390 2395 2397 2397 2401 2401 2401 2403 2403 2404 2404 2408 2419 2422 2422 2422 2423 2423 2418 2418 2418 2414 2409 2404 2403 2403 2403 2406 2406 2406 2396 2376 2347 2325 2307 0 0 0 2386 2386 2386 2386 2386 2386 2382 2382 2372 2372 2365 2364 2359 2309 2283 2263 2239 2229 2222 2210 2203 2200 2200 2200 2202 2203 2204 2204 2204 2204 2204 2210 2211 2212 2212 2212 2222 2225 2231 2232 2232 2231 2228 2215 2215 2215 2220 2221 2229 2231 2231 0 0 0 0 0 0 0 0 0 0 0 0 0 0 0 0 0 0 0 0 0 0 0 0 0 0 0 0 0 0 0 0 0 0 0 0 0 0 0 0 0 0 0 0 0 0 0 0 0 0 0 0 0 0 0 0 0 0 0 0 2322 2322 2322 2285 2278 2277 2271 2260 2251 2243 2234 2225 2215 2204 2190 2180 2171 2165 2155 2147 2141 2132 2126 2120 2116 2109 2105 2102 2100 2095 2090 2084 2077 2071 2066 2063 2060 2055 2052 2049 2044 2041 2034 2028 2026 2022 2020 2016 2012 2009 2006 2003 1998 1994 1990 1986 1983 1980 1979 1979 1976 1974 1972 1969 1968 1968 1966 1965 1963 1963 1961 1959 1958 1957 1956 1955 1955 1954 1953 1952 1951 1950 1950 1949 1948 1947 1946 1945 1944 1943 1942 1942 1941 1940 1939 1938 1936 1935 1933 1930 1928 1928 1926 1926 1924 1922 1921 1920 1919 1918 1918 1918 1915 1914 1914 1914 1912 1912 1911 1910 1909 1909 1908 1907 1906 1905 1904 1903 1902 1902 1901 1901 1900 1899 1899 1898 1897 1897 1897 1896 1895 1895 1894 1894 1893 1893 1892 1891 1890 1890 1889 1888 1887 1887 1886 1886 1884 1884 1883 1883 1882 1881 1880 1879 1878 1878 1877 1876 1875 1874 1873 1872 1871 1871 1870 1869 1869 1869 1869 1869 1870 1872 1874 1876 1877 1878 1880 1881 1884 1888 1891 1893 1894 1895 1896 1896 1896 1896 1896 1895 1895 1895 1895 1897 1899 1904 1908 1908 1909 1909 1909 1909 1911 1911 1912 1912 1913 1915 1915 1915 1915 1915 1915 1915 1915 1917 1917 1917 1918 1918 1918 1923 1926 1927 1927 1927 1922 1922 1922 1922 1927 1927 1927 1925 1925 1925 1934 1941 1941 1941 1939 1939 1938 1935 1935 1930 1927 1903 1903 1903 1893 0 0 0 0 0 0 0 0 0 0 0 0 0 0 0
1556 1557 1558 1564 1566 1570 1574 1574 1574 1573 1568 1568 1568 1571 1573 1573 1573 1572 1567 1565 1564 1563 1562 1561 1560 1560 1559 1558 1557 1556 1556 1555 1554 1554 1552 1551 1551 1551 1552 1552 1552 1550 1550 1550 1551 1552 1554 1556 1558 1558 1558 1555 1554 1554 1553 1552 1551 1551 1551 1550 1550 1550 1550 1549 1549 1549 1548 1547 1546 1546 1546 1546 1548 1548 1548 1548 1549 1550 1550 1549 1547 1543 1541 1540 1536 1534 1534 1534 1534 1538 1541 1544 1546 1550 1554 1558 1563 1570 1574 1578 1582 1584 1587 1587 1588 1590 1593 1603 1605 1606 1608 1618 1626 1628 1641 1654 1679 0 0 1799 1816 1850 1880 1891 1901 1917 1924 1928 1929 1929 1930 1942 1942 1942 1942 1942 1944 1955 1957 1964 1968 1994 2000 2004 2012 2021 2022 2023 2027 2035 2046 2047 2047 2048 2050 2055 2059 2059 2060 2060 2061 2063 2064 2068 2070 2070 2070 2070 2070 2070 2072 2072 2072 2071 2071 2071 2076 2081 2086 2093 2099 2101 2102 2108 2125 2161 2218 2247 2285 2318 2325 2325 2328 2328 2328 2341 2349 2352 2352 2352 2346 2344 2344 2344 2345 2352 2361 2374 2384 2393 2395 2396 2396 2396 2396 2396 2398 2398 2398 2406 2419 2422 2422 2422 2413 2413 2413 2413 2413 2410 2406 2398 2398 2398 2403 2406 2406 2406 2396 2382 2369 2364 2360 2360 2364 2381 2386 2386 2386 2386 2379 2377 2372 2367 2367 2367 2366 2366 2366 2308 2282 2251 2222 2207 2205 2203 2203 2200 2200 2200 2202 2203 2204 2204 2204 2204 2204 2210 2213 2214 2214 2215 2223 2225 2232 2234 2234 2234 2230 2223 2220 2220 2220 2221 2229 2233 2233 0 0 0 0 0 0 0 0 0 0 0 0 0 0 0 0 0 0 0 0 0 0 0 0 0 0 0 0 0 0 0 0 0 0 0 0 0 0 0 0 0 0 0 0 0 0 0 0 0 0 0 0 0 0 0 0 0 0 0 2281 2314 2314 2314 2281 2274 2273 2266 2259 2251 2243 2234 2222 2214 2202 2190 2177 2169 2164 2155 2147 2141 2135 2128 2120 2116 2108 2103 2101 2100 2095 2089 2084 2077 2071 2065 2062 2059 2055 2052 2049 2045 2041 2036 2032 2027 2023 2020 2016 2012 2009 2006 2003 1999 1995 1992 1989 1987 1984 1981 1980 1978 1975 1972 1969 1968 1968 1966 1965 1964 1963 1962 1960 1958 1957 1956 1955 1955 1954 1953 1952 1951 1951 1950 1949 1949 1948 1946 1945 1944 1943 1943 1942 1941 1940 1939 1937 1935 1934 1933 1931 1929 1928 1926 1926 1924 1922 1921 1920 1919 1919 1919 1918 1916 1916 1915 1914 1912 1912 1910 1910 1909 1909 1908 1907 1906 1905 1904 1903 1902 1902 1901 1900 1898 1898 1898 1897 1896 1896 1896 1895 1894 1894 1894 1894 1893 1892 1892 1891 1890 1889 1889 1887 1887 1886 1886 1885 1884 1883 1881 1881 1881 1879 1879 1879 1878 1878 1877 1875 1874 1873 1872 1872 1871 1871 1870 1869 1869 1869 1869 1869 1870 1872 1874 1876 1877 1878 1880 1881 1885 1888 1891 1893 1894 1895 1896 1897 1897 1897 1897 1897 1897 1898 1899 1900 1901 1904 1909 1909 1909 1909 1909 1909 1911 1911 1912 1913 1914 1916 1916 1916 1915 1915 1915 1915 1915 1917 1917 1917 1918 1918 1918 1923 1926 1927 1927 1927 1922 1920 1920 1920 1927 1928 1928 1928 1928 1928 1935 1944 1944 1944 1939 1939 1938 1934 1934 1925 1903 1893 1893 1893 1893 0 0 0 0 0 0 0 0 0 0 0 0 0 0 0
1553 1553 1555 1558 1563 1564 1564 1567 1567 1567 1565 1565 1565 1568 1569 1569 1569 1564 1562 1562 1561 1561 1560 1559 1559 1559 1558 1557 1557 1555 1554 1552 1552 1550 1549 1549 1549 1548 1548 1548 1546 1545 1545 1545 1546 1548 1550 1551 1551 1551 1551 1548 1548 1547 1547 1547 1545 1545 1545 1545 1545 1544 1544 1544 1543 1543 1542 1541 1541 1541 1541 1543 1544 1545 1545 1545 1545 1545 1545 1545 1542 1539 1535 1533 1531 1529 1529 1529 1530 1532 1535 1536 1538 1541 1544 1548 1553 1560 1567 1569 1572 1576 1581 1585 1585 1586 1586 1588 1594 1596 1597 1601 1610 1620 1632 1651 1665 1692 0 0 1794 1844 1880 1891 1901 1913 1923 1928 1929 1929 1935 1947 1947 1948 1949 1949 1949 1963 1966 1987 1994 1997 2000 2004 2012 2021 2022 2024 2027 2031 2033 2035 2035 2038 2043 2050 2054 2054 2056 2056 2056 2061 2064 2066 2066 2067 2067 2067 2067 2067 2067 2065 2061 2056 2056 2056 2060 2061 2062 2066 2071 2086 2093 2106 2120 2152 2189 2225 2285 2310 2314 2314 2321 2321 2321 2331 2337 2342 2342 2342 2341 2339 2339 2339 2340 2345 2357 2368 2379 2385 2387 2390 2392 2392 2392 2392 2392 2393 2394 2404 2419 2419 2419 2418 2406 2406 2406 2407 2407 2407 2402 2394 2394 2394 2397 2406 2406 2406 2393 2382 2381 2381 2381 2381 2386 2387 2387 2386 2386 2386 2379 2377 2372 2368 2368 2368 2368 2368 2366 2308 2274 2237 2210 2205 2205 2205 2205 2208 2208 2208 2207 2207 2204 2204 2204 2204 2204 2208 2213 2215 2218 2221 2223 2229 2235 2239 2239 2239 2239 2223 2222 2222 2222 2226 2229 2231 2231 0 0 0 0 0 0 0 0 0 0 0 0 0 0 0 0 0 0 0 0 0 0 0 0 0 0 0 0 0 0 0 0 0 0 0 0 0 0 0 0 0 0 0 0 0 0 0 0 0 0 0 0 0 0 0 0 0 0 2227 2265 2305 2305 2305 2281 2271 2268 2254 2247 2238 2237 2232 2222 2212 2201 2188 2176 2169 2163 2155 2147 2141 2137 2134 2128 2118 2107 2102 2099 2098 2095 2089 2084 2077 2071 2065 2062 2059 2055 2052 2049 2046 2043 2037 2033 2027 2023 2020 2016 2012 2009 2006 2003 2000 1997 1994 1991 1988 1985 1983 1982 1979 1975 1972 1971 1968 1968 1966 1965 1964 1963 1962 1961 1959 1958 1957 1956 1955 1954 1953 1953 1952 1951 1950 1949 1949 1948 1946 1945 1944 1943 1942 1942 1941 1940 1939 1937 1935 1934 1933 1931 1929 1928 1927 1926 1924 1922 1921 1920 1920 1919 1919 1918 1916 1916 1915 1913 1912 1911 1910 1909 1909 1908 1908 1907 1906 1905 1904 1903 1902 1902 1901 1900 1898 1898 1897 1896 1896 1896 1896 1895 1894 1894 1894 1893 1893 1892 1892 1891 1890 1889 1889 1887 1887 1886 1886 1885 1884 1882 1881 1880 1880 1879 1879 1878 1878 1877 1877 1874 1873 1872 1872 1871 1871 1871 1870 1869 1869 1869 1869 1870 1871 1873 1876 1876 1877 1878 1880 1881 1885 1888 1891 1893 1894 1895 1896 1897 1898 1898 1898 1898 1899 1899 1900 1901 1902 1904 1909 1909 1909 1909 1909 1909 1911 1913 1915 1916 1918 1918 1918 1916 1915 1915 1915 1915 1915 1917 1918 1919 1919 1921 1923 1923 1926 1926 1926 1924 1918 1918 1918 1920 1927 1930 1931 1931 1932 1937 1939 1944 1944 1944 1939 1936 1936 1934 1929 1908 1882 1882 1882 1884 0 0 0 0 0 0 0 0 0 0 0 0 0 0 0 0
1549 1553 1555 1556 1557 1557 1558 1563 1563 1563 1562 1562 1562 1565 1565 1565 1562 1560 1560 1560 1560 1559 1558 1556 1556 1556 1556 1556 1554 1553 1550 1549 1548 1546 1545 1545 1545 1545 1545 1545 1541 1541 1541 1541 1544 1546 1546 1546 1546 1546 1543 1543 1542 1541 1541 1541 1541 1541 1540 1539 1539 1539 1539 1539 1539 1539 1538 1537 1537 1537 1537 1538 1539 1539 1540 1540 1540 1539 1539 1539 1536 1534 1530 1530 1529 1527 1527 1527 1527 1528 1530 1530 1531 1533 1535 1540 1545 1553 1558 1562 1565 1569 1571 1574 1575 1579 1581 1583 1584 1589 1590 1592 1594 1612 1626 1645 1659 1671 1703 0 0 1810 1868 1886 1897 1904 1911 1920 1929 1929 1935 1947 1947 1947 1947 1950 1950 1963 1974 1987 1994 1997 1998 2004 2011 2017 2021 2024 2025 2025 2026 2026 2027 2030 2036 2043 2046 2046 2049 2049 2049 2056 2061 2062 2062 2064 2064 2064 2064 2060 2057 2055 2055 2050 2050 2050 2053 2053 2055 2058 2060 2067 2089 2101 2118 2146 2177 2225 2270 2294 2304 2304 2305 2307 2311 2317 2323 2326 2331 2337 2337 2337 2337 2338 2340 2345 2354 2367 2374 2375 2376 2381 2383 2383 2384 2384 2384 2388 2388 2398 2405 2405 2405 2405 2403 2403 2403 2407 2407 2407 2399 2390 2390 2390 2394 2402 2402 2402 2390 2388 2388 2388 2388 2388 2387 2386 2381 2381 2380 2379 2379 2377 2372 2366 2366 2366 2366 2366 2366 2306 2256 2224 2210 2205 2205 2205 2217 2217 2217 2208 2200 2200 2200 2200 2200 2202 2202 2203 2209 2215 2222 2224 2228 2231 2235 2241 2241 2241 2239 2223 2222 2222 2222 2229 2231 2235 2235 0 0 0 0 0 0 0 0 0 0 0 0 0 0 0 0 0 0 0 0 0 0 0 0 0 0 0 0 0 0 0 0 0 0 0 0 0 0 0 0 0 0 0 0 0 0 0 0 0 0 0 0 0 0 0 0 0 0 2265 2265 2284 2284 2284 2275 2268 2260 2245 2235 2229 2228 2226 2218 2210 2201 2188 2177 2169 2163 2158 2151 2143 2139 2135 2128 2118 2107 2100 2094 2094 2093 2089 2084 2078 2072 2065 2062 2059 2055 2052 2049 2046 2043 2039 2033 2028 2024 2020 2016 2012 2009 2006 2004 2002 1998 1996 1992 1988 1985 1984 1982 1980 1977 1973 1971 1969 1968 1967 1965 1965 1965 1964 1962 1960 1959 1957 1956 1956 1954 1954 1953 1952 1951 1950 1950 1949 1948 1946 1945 1944 1943 1942 1942 1941 1940 1939 1937 1935 1934 1932 1931 1930 1928 1928 1927 1925 1924 1922 1921 1920 1919 1919 1918 1916 1916 1915 1913 1912 1911 1910 1909 1909 1908 1908 1907 1906 1905 1904 1903 1902 1902 1901 1899 1898 1898 1897 1896 1896 1896 1895 1895 1894 1894 1894 1893 1893 1892 1891 1891 1890 1889 1889 1888 1887 1886 1886 1885 1883 1882 1881 1880 1879 1878 1877 1877 1877 1876 1876 1874 1873 1872 1872 1871 1871 1871 1871 1869 1869 1869 1871 1872 1873 1874 1876 1877 1877 1878 1880 1881 1885 1888 1891 1893 1894 1894 1896 1897 1898 1898 1898 1899 1899 1900 1900 1901 1903 1905 1909 1909 1910 1911 1911 1912 1912 1913 1916 1917 1918 1918 1918 1918 1917 1916 1916 1916 1916 1918 1919 1920 1922 1923 1923 1923 1923 1923 1923 1922 1918 1918 1918 1920 1925 1930 1931 1931 1933 1937 1939 1944 1944 1944 1939 1937 1936 1934 1924 1900 1875 1875 1875 0 0 0 0 0 0 0 0 0 0 0 0 0 0 0 0 0
1549 1552 1552 1552 1554 1554 1555 1556 1556 1556 1556 1556 1558 1558 1558 1558 1558 1558 1560 1560 1560 1558 1555 1554 1554 1553 1553 1551 1549 1548 1546 1544 1543 1542 1542 1542 1542 1542 1542 1541 1540 1539 1539 1539 1539 1540 1543 1543 1543 1540 1536 1536 1536 1537 1537 1537 1536 1536 1535 1535 1535 1535 1535 1536 1536 1536 1535 1533 1532 1531 1531 1531 1532 1533 1533 1533 1533 1532 1531 1530 1530 1529 1527 1527 1527 1526 1525 1524 1524 1524 1526 1526 1527 1527 1529 1532 1537 1542 1548 1553 1558 1561 1564 1567 1569 1573 1575 1577 1583 1583 1585 1585 1587 1605 1623 1630 1643 1648 1667 0 0 0 1857 1880 1889 1901 1906 1907 1915 1925 1935 1939 1942 1942 1947 1950 1950 1963 1974 1987 1994 1997 1997 2003 2006 2012 2017 2024 2024 2024 2021 2021 2021 2024 2030 2035 2037 2038 2039 2039 2044 2051 2056 2057 2058 2059 2059 2059 2059 2056 2054 2054 2050 2049 2047 2047 2046 2046 2047 2049 2049 2058 2075 2092 2104 2142 2177 2225 2270 2283 2292 2292 2298 2302 2306 2308 2313 2322 2330 2336 2336 2336 2336 2337 2340 2345 2353 2366 2371 2371 2372 2372 2372 2372 2373 2374 2381 2385 2388 2391 2399 2400 2401 2401 2401 2401 2401 2401 2401 2401 2392 2384 2384 2384 2389 2400 2400 2400 2387 2387 2387 2388 2388 2388 2387 2380 2376 2376 2376 2376 2375 2375 2373 2367 2365 2364 2363 2363 2358 2296 2251 2224 2210 2210 2210 2216 2224 2224 2224 2209 2199 2199 2199 2200 2200 2200 2202 2203 2205 2215 2223 2231 2234 2235 2235 2241 2241 2241 2239 2221 2221 2221 2222 2226 2228 2235 2235 2235 0 0 0 0 0 0 0 0 0 0 0 0 0 0 0 0 0 0 0 0 0 0 0 0 0 0 0 0 0 0 0 0 0 0 0 0 0 0 0 0 0 0 0 0 0 0 0 0 0 0 0 0 0 0 0 0 0 2265 2265 2272 2272 2272 2271 2258 2247 2238 2230 2223 2220 2216 2211 2205 2197 2186 2176 2169 2163 2160 2152 2143 2139 2135 2128 2118 2108 2100 2094 2092 2088 2088 2084 2078 2074 2068 2062 2059 2055 2052 2049 2047 2043 2039 2034 2029 2024 2020 2016 2013 2010 2007 2005 2003 1998 1996 1993 1989 1986 1984 1982 1981 1979 1977 1974 1971 1970 1969 1968 1967 1965 1964 1963 1961 1959 1957 1957 1956 1955 1954 1953 1953 1952 1950 1950 1949 1948 1947 1945 1944 1944 1943 1942 1941 1940 1939 1937 1935 1934 1932 1931 1930 1929 1928 1927 1925 1924 1923 1922 1920 1919 1919 1918 1916 1916 1915 1913 1912 1911 1910 1909 1909 1909 1909 1907 1906 1905 1904 1903 1902 1901 1901 1899 1899 1897 1897 1896 1896 1896 1895 1895 1894 1894 1893 1893 1893 1892 1891 1891 1890 1889 1889 1888 1887 1886 1885 1884 1883 1882 1881 1880 1879 1878 1877 1877 1876 1876 1875 1874 1873 1872 1872 1871 1871 1871 1871 1870 1870 1870 1871 1872 1873 1874 1876 1877 1877 1878 1880 1882 1885 1888 1890 1892 1894 1894 1895 1896 1897 1898 1899 1900 1900 1901 1901 1903 1904 1906 1909 1910 1911 1912 1913 1914 1915 1915 1916 1917 1918 1918 1919 1919 1919 1919 1918 1918 1918 1919 1921 1923 1923 1923 1923 1921 1921 1921 1920 1920 1919 1919 1919 1923 1924 1926 1931 1931 1933 1937 1939 1939 1939 1939 1938 1937 1936 1934 1924 1900 1875 1875 1866 0 0 0 0 0 0 0 0 0 0 0 0 0 0 0 0 0
1544 1544 1546 1547 1551 1551 1551 1551 1549 1549 1549 1550 1552 1553 1554 1554 1555 1556 1558 1558 1558 1556 1552 1549 1549 1548 1548 1548 1546 1542 1540 1539 1539 1539 1539 1539 1538 1538 1538 1538 1538 1536 1534 1534 1534 1534 1537 1537 1537 1532 1530 1530 1530 1531 1532 1532 1532 1530 1529 1529 1529 1529 1530 1532 1532 1532 1530 1529 1527 1526 1526 1526 1526 1527 1527 1527 1527 1525 1525 1524 1524 1524 1524 1524 1524 1524 1523 1522 1522 1522 1522 1522 1523 1523 1523 1527 1530 1534 1538 1543 1547 1554 1558 1560 1565 1570 1574 1576 1577 1577 1577 1577 1577 1588 1603 1605 1622 1628 1641 0 0 0 1831 1875 1886 1893 1896 1902 1912 1913 1925 1933 1939 1941 1942 1944 1950 1961 1974 1984 1991 1994 1994 1997 2000 2003 2006 2013 2015 2015 2018 2018 2018 2022 2026 2030 2030 2031 2033 2034 2038 2044 2047 2051 2055 2056 2056 2056 2054 2054 2053 2053 2050 2049 2046 2044 2044 2043 2044 2044 2049 2054 2067 2090 2104 2142 2177 2257 2270 2280 2291 2292 2298 2301 2302 2305 2309 2321 2326 2328 2330 2330 2333 2336 2339 2345 2352 2363 2367 2367 2367 2367 2366 2366 2366 2371 2379 2382 2387 2391 2397 2397 2397 2397 2393 2393 2393 2394 2394 2394 2385 2379 2379 2379 2385 2395 2395 2395 2387 2387 2387 2388 2388 2388 2383 2379 2376 2376 2376 2376 2373 2373 2373 2367 2361 2353 2349 2339 2331 2278 2251 2232 2217 2216 2216 2224 2224 2224 2224 2212 2196 2196 2196 2200 2200 2200 2203 2203 2204 2215 2223 2234 2235 2236 2239 2240 2240 2240 2226 2217 2217 2217 2217 2222 2228 2228 2228 2227 0 0 0 0 0 0 0 0 0 0 0 0 0 0 0 0 0 0 0 0 0 0 0 0 0 0 0 0 0 0 0 0 0 0 0 0 0 0 0 0 0 0 0 0 0 0 0 0 0 0 0 0 0 0 0 0 0 2274 2288 2288 2288 2271 2267 2257 2240 2236 2229 2222 2216 2207 2200 2196 2192 2185 2176 2168 2163 2160 2154 2143 2139 2135 2126 2117 2108 2100 2094 2092 2088 2085 2081 2078 2074 2069 2065 2060 2056 2051 2049 2047 2043 2039 2034 2030 2025 2021 2018 2015 2011 2007 2005 2003 1999 1997 1993 1990 1987 1985 1983 1982 1980 1979 1976 1975 1973 1972 1970 1968 1966 1965 1963 1961 1959 1957 1957 1956 1955 1954 1953 1953 1952 1951 1950 1949 1948 1947 1945 1944 1944 1943 1942 1941 1940 1938 1937 1935 1934 1933 1931 1930 1929 1928 1927 1926 1925 1924 1922 1921 1920 1919 1918 1916 1916 1915 1914 1912 1911 1910 1910 1909 1909 1909 1909 1908 1906 1904 1904 1902 1901 1901 1899 1899 1897 1896 1896 1896 1895 1895 1895 1894 1894 1893 1893 1892 1892 1891 1890 1890 1888 1888 1887 1887 1886 1885 1884 1883 1882 1881 1880 1879 1878 1877 1877 1876 1875 1874 1873 1873 1873 1872 1871 1871 1871 1871 1870 1870 1870 1871 1872 1873 1875 1876 1877 1878 1878 1881 1882 1885 1888 1890 1891 1892 1893 1894 1895 1897 1898 1900 1901 1901 1901 1902 1903 1905 1907 1909 1910 1911 1912 1913 1915 1916 1916 1917 1917 1918 1918 1919 1919 1919 1919 1918 1918 1918 1919 1921 1923 1924 1924 1924 1921 1921 1921 1920 1920 1922 1922 1922 1922 1923 1923 1927 1931 1931 1933 1933 1933 1936 1936 1936 1936 1936 1934 1924 1900 1875 1875 0 0 0 0 0 0 0 0 0 0 0 0 0 0 0 0 0 0
1533 1534 1534 1540 1545 1548 1548 1548 1542 1542 1542 1542 1545 1548 1549 1549 1549 1552 1555 1555 1555 1546 1546 1544 1541 1540 1539 1539 1538 1536 1536 1536 1536 1536 1536 1534 1534 1533 1533 1533 1533 1532 1530 1530 1530 1530 1530 1530 1530 1529 1526 1525 1525 1525 1526 1526 1526 1524 1524 1524 1524 1526 1526 1526 1526 1526 1525 1524 1523 1522 1522 1522 1522 1522 1522 1520 1520 1519 1519 1518 1518 1518 1519 1519 1519 1519 1519 1519 1519 1519 1519 1519 1519 1519 1520 1521 1524 1526 1530 1532 1536 1542 1550 1554 1559 1563 1567 1572 1573 1573 1573 1572 1572 1572 1588 1603 1606 1616 1625 0 0 0 0 1861 1885 1891 1895 1896 1901 1911 1922 1926 1932 1934 1934 1938 1944 1953 1963 1972 1983 1986 1989 1994 1994 1995 1997 1997 2001 2006 2007 2007 2012 2019 2024 2027 2027 2028 2028 2028 2031 2037 2041 2044 2049 2054 2054 2054 2053 2053 2053 2053 2050 2047 2045 2042 2042 2042 2042 2042 2049 2054 2067 2090 2104 2142 2227 2268 2270 2279 2287 2292 2298 2300 2301 2302 2306 2313 2319 2322 2324 2329 2331 2334 2339 2345 2351 2354 2355 2356 2360 2360 2360 2360 2360 2366 2378 2381 2384 2390 2395 2395 2395 2390 2387 2387 2387 2387 2387 2383 2379 2375 2375 2375 2381 2389 2389 2389 2385 2378 2378 2378 2377 2377 2378 2376 2376 2375 2373 2373 2373 2373 2373 2366 2357 2353 2341 2336 2316 2278 2251 2232 2217 2216 2216 2227 2227 2227 2227 2221 2203 2200 2200 2200 2216 2216 2216 2211 2211 2211 2223 2235 2235 2236 2239 2235 2235 2230 2214 2213 2213 2213 2216 2222 2226 2227 2227 2227 0 0 0 0 0 0 0 0 0 0 0 0 0 0 0 0 0 0 0 0 0 0 0 0 0 0 0 0 0 0 0 0 0 0 0 0 0 0 0 0 0 0 0 0 0 0 0 0 0 0 0 0 0 0 0 0 0 2264 2289 2289 2289 2270 2264 2256 2239 2231 2226 2222 2216 2207 2199 2192 2190 2185 2176 2169 2162 2160 2154 2142 2138 2132 2125 2117 2108 2103 2095 2090 2088 2085 2081 2078 2074 2069 2065 2060 2056 2051 2048 2046 2043 2039 2034 2030 2025 2022 2018 2015 2011 2009 2006 2003 2000 1997 1994 1991 1988 1986 1984 1984 1982 1980 1979 1977 1976 1975 1973 1969 1967 1965 1964 1961 1960 1958 1957 1956 1955 1955 1954 1953 1953 1952 1950 1949 1948 1947 1946 1945 1944 1943 1942 1941 1939 1938 1937 1935 1934 1932 1931 1929 1929 1927 1927 1926 1925 1924 1923 1922 1921 1921 1919 1918 1916 1915 1915 1913 1912 1911 1910 1910 1909 1909 1909 1909 1906 1905 1904 1902 1901 1900 1899 1899 1897 1896 1895 1895 1895 1895 1895 1894 1894 1893 1893 1892 1892 1891 1890 1889 1888 1887 1887 1886 1885 1884 1884 1883 1882 1881 1880 1879 1878 1877 1877 1876 1875 1874 1873 1873 1873 1872 1872 1871 1871 1871 1871 1871 1871 1871 1872 1873 1875 1876 1877 1879 1880 1881 1882 1885 1887 1889 1891 1892 1892 1894 1895 1897 1898 1900 1901 1901 1901 1902 1903 1905 1907 1909 1910 1910 1912 1913 1915 1916 1916 1916 1917 1917 1917 1917 1919 1919 1919 1918 1918 1918 1919 1921 1923 1923 1923 1923 1920 1920 1920 1923 1923 1923 1923 1923 1922 1921 1921 1921 1920 1920 1919 1919 1919 1925 1931 1933 1934 1934 1934 1924 1911 1891 1891 0 0 0 0 0 0 0 0 0 0 0 0 0 0 0 0 0 0
1530 1531 1531 1531 1540 1543 1543 1543 1541 1538 1538 1538 1540 1541 1541 1541 1542 1544 1544 1544 1544 1542 1539 1538 1538 1532 1530 1530 1530 1530 1530 1531 1534 1534 1534 1530 1529 1528 1528 1527 1527 1526 1525 1525 1525 1525 1526 1526 1526 1525 1525 1521 1521 1521 1521 1521 1519 1518 1518 1518 1520 1520 1521 1521 1521 1520 1520 1519 1519 1519 1518 1517 1517 1517 1517 1516 1514 1514 1514 1514 1514 1513 1513 1513 1513 1513 1514 1514 1515 1515 1515 1514 1514 1514 1515 1517 1519 1520 1522 1524 1527 1532 1541 1548 1552 1555 1558 1563 1564 1568 1568 1569 1570 1571 1576 1587 1597 1599 1616 1645 0 0 0 0 1874 1888 1891 1895 1901 1906 1915 1923 1925 1929 1929 1935 1939 1947 1954 1962 1969 1978 1982 1985 1985 1985 1985 1985 1993 1996 2000 2000 2007 2015 2020 2022 2022 2023 2023 2023 2025 2028 2033 2037 2042 2045 2046 2048 2049 2050 2050 2050 2050 2046 2045 2043 2042 2042 2042 2042 2049 2054 2067 2090 2122 2173 2227 2268 2270 2279 2287 2292 2298 2299 2299 2299 2299 2305 2312 2318 2323 2326 2327 2331 2337 2342 2346 2346 2346 2347 2353 2353 2353 2353 2353 2366 2371 2372 2377 2386 2392 2392 2392 2384 2377 2376 2375 2373 2373 2372 2369 2369 2369 2372 2376 2380 2380 2380 2379 2376 2376 2376 2376 2376 2378 2376 2375 2374 2374 2371 2370 2370 2370 2363 2355 2351 2341 2334 2315 2278 2268 0 2231 2213 2213 2232 2232 2233 2233 2232 2218 2207 2207 2207 2221 2221 2221 2216 2216 2216 2223 2236 2236 2239 2239 2235 2229 2215 2202 2202 2202 2207 2211 2216 2220 2227 2227 2227 0 0 0 0 0 0 0 0 0 0 0 0 0 0 0 0 0 0 0 0 0 0 0 0 0 0 0 0 0 0 0 0 0 0 0 0 0 0 0 0 0 0 0 0 0 0 0 0 0 0 0 0 0 0 0 0 0 2264 2289 2289 2289 2268 2262 2254 2239 2231 2226 2221 2216 2207 2199 2192 2190 2184 2177 2169 2163 2159 2154 2142 2137 2132 2125 2117 2109 2103 2096 2090 2088 2083 2080 2074 2072 2069 2065 2060 2056 2050 2048 2046 2042 2039 2034 2030 2025 2022 2018 2015 2012 2010 2007 2004 2001 2000 1997 1993 1990 1987 1986 1985 1984 1982 1981 1979 1979 1978 1975 1972 1968 1966 1965 1963 1960 1959 1957 1956 1956 1955 1954 1953 1953 1952 1950 1949 1948 1947 1946 1945 1944 1943 1942 1940 1939 1937 1937 1935 1934 1932 1931 1929 1929 1927 1927 1926 1925 1925 1924 1923 1923 1921 1920 1919 1918 1916 1915 1914 1914 1913 1912 1911 1911 1910 1909 1909 1906 1905 1904 1902 1901 1900 1899 1897 1896 1895 1895 1895 1895 1895 1895 1894 1894 1893 1893 1892 1892 1891 1889 1888 1888 1887 1886 1885 1885 1884 1883 1882 1882 1881 1880 1879 1878 1877 1877 1877 1875 1874 1874 1873 1873 1873 1872 1872 1872 1872 1872 1871 1871 1871 1872 1873 1874 1875 1878 1880 1881 1881 1882 1884 1886 1887 1888 1890 1891 1893 1895 1897 1898 1900 1901 1901 1901 1902 1903 1905 1907 1908 1909 1909 1910 1913 1915 1916 1916 1916 1916 1915 1915 1915 1915 1915 1914 1912 1912 1912 1916 1920 1921 1922 1922 1921 1923 1923 1923 1923 1924 1924 1924 1922 1921 1918 1915 1915 1912 1912 1912 1912 1912 1915 1928 1930 1930 1930 1926 1924 1911 1900 1898 0 0 0 0 0 0 0 0 0 0 0 0 0 0 0 0 0 0
1526 1526 1526 1531 1535 1540 1540 1540 1539 1538 1537 1537 1536 1536 1536 1533 1533 1533 1534 1536 1536 1537 1538 1538 1537 1530 1525 1525 1525 1527 1529 1530 1530 1530 1530 1524 1524 1523 1523 1522 1522 1521 1519 1519 1519 1519 1519 1520 1521 1521 1521 1518 1516 1516 1515 1515 1514 1513 1513 1513 1513 1514 1515 1515 1516 1516 1516 1516 1516 1515 1514 1513 1513 1512 1512 1511 1511 1511 1511 1511 1511 1509 1509 1509 1509 1509 1509 1509 1510 1510 1510 1510 1510 1511 1512 1513 1515 1516 1516 1518 1520 1524 1531 1540 1543 1547 1551 1553 1556 1561 1562 1564 1564 1565 1565 1567 1577 1582 1600 1627 0 0 0 0 0 1883 1887 1895 1901 1904 1911 1916 1920 1922 1924 1930 1934 1937 1943 1950 1958 1966 1971 1974 1976 1976 1976 1980 1992 1994 1994 1996 2000 2012 2017 2017 2017 2017 2017 2017 2020 2021 2025 2027 2032 2033 2036 2037 2038 2046 2048 2048 2048 2046 2045 2043 2042 2042 2042 2042 2049 2063 2078 2095 2129 2184 2234 2268 2269 2275 2287 2292 2292 2292 2291 2291 2291 2293 2306 2313 2319 2322 2326 2329 2329 2335 2337 2338 2339 2340 2344 2346 2351 2352 2353 2353 2353 2357 2364 2376 2386 2386 2386 2378 2370 2366 2363 2362 2362 2362 2363 2365 2367 2371 2372 2373 2373 2373 2373 2373 2374 2374 2374 2374 2374 2375 2374 2374 2374 2369 2369 2364 2360 2359 2354 2351 2341 2333 2315 2289 2281 2234 2221 2213 2213 2221 2227 2228 2233 2233 2233 2228 2228 2228 2228 2228 2223 2219 2215 2215 2215 2233 2235 2239 2239 2235 2223 2196 2167 2167 2167 2168 2179 2195 2218 2231 2231 2231 0 0 0 0 0 0 0 0 0 0 0 0 0 0 0 0 0 0 0 0 0 0 0 0 0 0 0 0 0 0 0 0 0 0 0 0 0 0 0 0 0 0 0 0 0 0 0 0 0 0 0 0 0 0 0 0 0 0 2278 2278 2278 2258 2255 2254 2236 2230 2225 2220 2216 2208 2199 2192 2190 2184 2177 2170 2165 2159 2154 2142 2137 2132 2124 2116 2109 2103 2096 2090 2085 2082 2079 2074 2072 2069 2064 2060 2055 2050 2047 2046 2042 2037 2032 2028 2025 2022 2018 2015 2012 2010 2007 2004 2003 2001 1998 1996 1991 1989 1988 1985 1984 1983 1983 1982 1980 1979 1976 1973 1971 1969 1967 1965 1963 1961 1959 1957 1956 1955 1955 1954 1953 1952 1950 1949 1948 1947 1946 1945 1943 1943 1942 1940 1938 1937 1937 1935 1934 1932 1931 1929 1929 1927 1927 1927 1925 1925 1925 1924 1923 1923 1921 1919 1918 1918 1917 1917 1916 1914 1913 1912 1911 1910 1909 1909 1906 1905 1904 1903 1902 1900 1899 1897 1896 1895 1895 1895 1895 1895 1895 1894 1893 1893 1892 1892 1892 1891 1889 1888 1887 1886 1886 1885 1885 1884 1883 1882 1882 1881 1880 1879 1878 1878 1878 1877 1875 1875 1875 1875 1873 1873 1873 1872 1872 1872 1872 1872 1872 1872 1872 1873 1874 1875 1877 1880 1881 1881 1882 1883 1886 1887 1888 1890 1891 1893 1895 1897 1898 1900 1901 1901 1901 1901 1904 1905 1908 1908 1908 1909 1909 1911 1913 1914 1915 1915 1915 1914 1913 1913 1913 1911 1911 1909 1909 1909 1914 1918 1918 1918 1919 1918 1918 1919 1923 1923 1924 1924 1924 1921 1917 1913 1910 1909 1909 1909 1909 1910 1910 1912 1922 1922 1922 1922 1922 1919 1911 1900 1898 0 0 0 0 0 0 0 0 0 0 0 0 0 0 0 0 0 0
1522 1526 1526 1529 1533 1535 1535 1535 1534 1534 1534 1534 1534 1530 1527 1525 1525 1525 1528 1532 1534 1535 1535 1535 1531 1527 1523 1523 1523 1525 1526 1527 1527 1527 1523 1521 1516 1516 1516 1516 1516 1515 1513 1513 1512 1512 1513 1514 1514 1514 1514 1513 1510 1510 1509 1509 1509 1509 1508 1509 1509 1509 1509 1510 1511 1511 1512 1512 1512 1511 1510 1509 1508 1507 1507 1507 1507 1507 1507 1507 1507 1506 1506 1505 1505 1505 1506 1505 1506 1506 1506 1506 1507 1508 1509 1510 1510 1511 1513 1513 1515 1519 1525 1531 1534 1539 1543 1545 1548 1551 1555 1556 1558 1560 1561 1565 1567 1578 1585 1603 1625 1664 0 0 0 0 1882 1891 1896 1903 1907 1910 1913 1915 1919 1926 1928 1929 1931 1937 1947 1957 1965 1967 1968 1968 1971 1980 1988 1989 1992 1996 1997 2009 2015 2015 2015 2013 2011 2011 2011 2015 2016 2019 2022 2024 2026 2030 2035 2040 2044 2045 2045 2045 2045 2044 2042 2042 2042 2042 2052 2063 2078 2095 2130 2185 2238 2257 2264 2269 2275 2283 2283 2283 2281 2281 2281 2285 2299 2311 2315 2317 2317 2317 2320 2324 2326 2326 2327 2327 2334 2338 2338 2338 2338 2338 2338 2344 2352 2365 2378 2378 2378 2376 2367 2357 2354 2354 2354 2359 2361 2362 2362 2366 2369 2369 2369 2369 2369 2369 2369 2369 2369 2370 2371 2372 2371 2371 2371 2369 2362 2355 2354 2352 2351 2350 2341 2333 2315 2289 2282 2234 2219 0 0 0 0 0 2235 2248 2248 2248 2244 2238 2235 2230 2224 2219 2212 2212 2212 2223 2234 2234 2234 2220 2199 2160 2142 2138 2138 2138 2157 2178 2208 2231 2250 2250 0 0 0 0 0 0 0 0 0 0 0 0 0 0 0 0 0 0 0 0 0 0 0 0 0 0 0 0 0 0 0 0 0 0 0 0 0 0 0 0 0 0 0 0 0 0 0 0 0 0 0 0 0 0 0 0 0 0 2274 2274 2274 2248 2245 2244 2236 2229 2224 2218 2217 2211 2204 2196 2190 2185 2178 2171 2166 2159 2154 2142 2138 2132 2123 2116 2109 2101 2095 2090 2085 2082 2079 2074 2072 2069 2064 2060 2053 2050 2047 2045 2041 2037 2032 2028 2025 2022 2018 2015 2012 2010 2007 2005 2003 2002 2000 1996 1993 1990 1989 1986 1985 1984 1983 1982 1981 1980 1977 1975 1974 1973 1970 1967 1966 1964 1962 1959 1957 1956 1956 1954 1953 1951 1950 1949 1948 1947 1945 1944 1943 1942 1940 1940 1938 1937 1936 1935 1934 1932 1931 1929 1929 1928 1927 1927 1926 1925 1925 1925 1925 1923 1921 1920 1920 1920 1920 1918 1917 1914 1914 1912 1911 1910 1909 1907 1906 1905 1904 1903 1902 1901 1899 1897 1896 1895 1895 1895 1895 1895 1895 1894 1893 1892 1892 1892 1892 1891 1889 1888 1887 1886 1886 1885 1884 1884 1883 1882 1881 1880 1880 1879 1878 1878 1878 1878 1877 1876 1876 1875 1873 1873 1873 1873 1873 1873 1872 1872 1872 1872 1872 1873 1875 1875 1877 1880 1881 1881 1882 1883 1885 1887 1888 1890 1891 1893 1894 1896 1898 1898 1899 1899 1899 1901 1904 1907 1909 1909 1909 1909 1909 1911 1912 1912 1913 1913 1913 1913 1913 1913 1912 1911 1911 1909 1909 1909 1911 1914 1914 1914 1914 1914 1915 1918 1922 1923 1923 1922 1921 1916 1913 1908 1902 1902 1902 1904 1907 1907 1907 1912 1920 1920 1920 1920 1920 1916 1910 1900 1900 0 0 0 0 0 0 0 0 0 0 0 0 0 0 0 0 0 0
1522 1524 1524 1527 1527 1527 1526 1526 1526 1530 1530 1530 1530 1526 1522 1522 1522 1522 1524 1528 1531 1531 1531 1526 1522 1522 1522 1522 1522 1522 1522 1522 1522 1520 1516 1514 1513 1511 1511 1511 1510 1510 1510 1509 1509 1509 1509 1510 1510 1510 1509 1507 1506 1505 1505 1504 1505 1505 1505 1504 1505 1505 1505 1506 1507 1509 1509 1509 1509 1507 1507 1505 1504 1503 1503 1503 1503 1503 1503 1502 1502 1502 1502 1503 1503 1503 1502 1502 1502 1502 1502 1502 1504 1506 1506 1506 1506 1506 1507 1508 1511 1514 1515 1517 1521 1525 1536 1538 1541 1544 1548 1551 1552 1554 1560 1560 1563 1575 1584 1596 1622 1642 1674 0 0 0 1861 1887 1894 1901 1904 1905 1906 1908 1914 1919 1920 1923 1924 1924 1933 1943 1954 1961 1964 1965 1966 1975 1987 1988 1991 1993 1993 2002 2006 2008 2008 2008 2005 2005 2005 2006 2009 2014 2017 2020 2023 2027 2033 2037 2039 2040 2043 2045 2046 2046 2047 2047 2048 2049 2053 2063 2078 2096 2132 2193 2238 2255 2256 2261 2262 2262 2265 2267 2271 2275 2277 2281 2294 2303 2309 2309 2310 2311 2309 2310 2311 2311 2316 2318 2322 2324 2324 2324 2324 2324 2327 2335 2343 2357 2371 2373 2373 2373 2357 2349 2349 2349 2352 2353 2355 2358 2359 2359 2359 2360 2363 2365 2365 2365 2365 2365 2365 2366 2367 2369 2369 2369 2369 2364 2357 2353 2352 2351 2350 2350 2341 2333 2321 2304 2289 2239 2210 0 0 0 0 0 2228 2251 2265 2265 2265 2238 2235 2230 2226 2216 2210 2210 2210 2219 2224 2224 2224 2212 2199 2160 2142 2138 2138 2138 2157 2173 2190 2231 2250 2250 0 0 0 0 0 0 0 0 0 0 0 0 0 0 0 0 0 0 0 0 0 0 0 0 0 0 0 0 0 0 0 0 0 0 0 0 0 0 0 0 0 0 0 0 0 0 0 0 0 0 0 0 0 0 0 0 0 0 2269 2269 2262 2246 2236 2228 2227 2226 2222 2218 2217 2211 2205 2200 2190 2185 2181 2176 2170 2162 2154 2148 2140 2132 2123 2116 2108 2101 2095 2090 2085 2082 2079 2076 2072 2069 2064 2060 2053 2048 2046 2045 2041 2036 2032 2027 2025 2022 2018 2013 2011 2009 2007 2005 2003 2002 2000 1997 1993 1991 1989 1987 1985 1985 1985 1984 1982 1981 1979 1977 1976 1974 1971 1970 1967 1965 1964 1963 1960 1958 1956 1954 1953 1951 1950 1949 1948 1946 1945 1943 1942 1941 1940 1939 1938 1937 1937 1936 1934 1932 1931 1930 1929 1929 1928 1928 1927 1926 1926 1925 1925 1923 1922 1921 1921 1920 1920 1918 1917 1915 1914 1913 1911 1910 1909 1907 1906 1905 1904 1903 1902 1901 1899 1897 1897 1897 1896 1896 1895 1895 1895 1894 1893 1892 1892 1891 1891 1890 1889 1887 1887 1886 1885 1885 1884 1884 1883 1882 1881 1880 1880 1879 1878 1878 1878 1878 1877 1877 1876 1875 1873 1873 1873 1873 1873 1873 1873 1872 1872 1872 1873 1873 1875 1875 1876 1878 1880 1881 1882 1883 1885 1887 1888 1890 1891 1893 1894 1895 1896 1896 1897 1899 1899 1901 1904 1907 1909 1909 1909 1909 1909 1911 1912 1912 1912 1912 1912 1912 1912 1912 1912 1911 1911 1909 1909 1909 1909 1909 1909 1909 1909 1909 1911 1913 1914 1915 1915 1915 1915 1914 1912 1908 1902 1899 1899 1899 1905 1906 1907 1912 1915 1916 1917 1917 1916 1915 1897 1896 1896 1891 0 0 0 0 0 0 0 0 0 0 0 0 0 0 0 0 0
1522 1522 1522 1522 1521 1517 1517 1517 1517 1525 1528 1528 1528 1526 1522 1518 1518 1518 1520 1523 1523 1523 1523 1517 1515 1515 1515 1516 1516 1516 1513 1512 1511 1510 1509 1508 1506 1506 1506 1507 1507 1507 1507 1508 1508 1508 1508 1508 1508 1506 1505 1504 1503 1502 1501 1501 1501 1501 1501 1501 1501 1501 1502 1504 1504 1506 1506 1506 1506 1504 1503 1503 1501 1498 1498 1498 1498 1498 1498 1498 1498 1498 1499 1499 1499 1499 1499 1497 1497 1497 1497 1499 1500 1500 1500 1500 1500 1500 1500 1502 1504 1507 1507 1510 1512 1513 1523 1529 1532 1535 1539 1542 1546 1550 1558 1558 1561 1564 1577 1592 1615 1636 1658 1692 1734 1772 1815 1851 1871 1888 1893 1895 1895 1899 1905 1910 1912 1912 1914 1918 1921 1930 1943 1953 1959 1961 1963 1966 1978 1986 1986 1986 1986 1990 1995 1997 1997 1997 1998 1998 1998 2003 2009 2013 2016 2019 2021 2024 2028 2033 2037 2038 2042 2045 2046 2052 2052 2053 2053 2054 2054 2063 2078 2096 2150 2195 2238 2250 2250 2251 2257 2257 2265 2265 2270 2275 2276 2281 2287 2297 2303 2307 2307 2309 2309 2309 2306 2306 2306 2310 2310 2310 2308 2308 2308 2310 2316 2325 2332 2348 2359 2371 2371 2371 2344 2334 2334 2334 2341 2350 2350 2350 2350 2350 2350 2350 2357 2359 2359 2359 2354 2354 2354 2361 2362 2364 2367 2367 2367 2362 2356 2352 2352 2351 2349 2349 2341 2333 2324 2308 2285 2254 2205 0 0 0 0 0 0 2251 2265 2265 2265 2238 2227 2226 2224 2210 2204 2201 2199 2200 2200 2200 2200 2200 2199 2160 2142 2138 2138 2138 2157 2173 2180 2209 2236 2236 0 0 0 0 0 0 0 0 0 0 0 0 0 0 0 0 0 0 0 0 0 0 0 0 0 0 0 0 0 0 0 0 0 0 0 0 0 0 0 0 0 0 0 0 0 0 0 0 0 0 0 0 0 0 0 0 0 0 2281 2281 2262 2246 2235 2225 2221 2217 2217 2215 2213 2211 2205 2200 2194 2186 2181 2176 2170 2163 2156 2150 2142 2132 2122 2114 2108 2101 2095 2092 2088 2084 2079 2076 2073 2071 2067 2060 2053 2047 2043 2042 2040 2036 2031 2027 2024 2021 2017 2013 2010 2009 2007 2005 2003 2002 2000 1997 1994 1993 1990 1988 1988 1986 1986 1985 1984 1983 1981 1978 1976 1975 1973 1970 1968 1966 1965 1963 1961 1958 1956 1955 1954 1951 1950 1949 1948 1946 1945 1942 1941 1940 1939 1939 1938 1937 1936 1936 1934 1933 1932 1931 1930 1929 1929 1928 1927 1927 1926 1926 1925 1924 1922 1921 1921 1921 1920 1918 1917 1915 1914 1913 1912 1911 1910 1907 1906 1905 1904 1903 1902 1901 1899 1898 1898 1897 1897 1897 1896 1896 1895 1894 1893 1892 1892 1891 1891 1890 1888 1887 1886 1885 1885 1885 1884 1884 1883 1882 1881 1880 1879 1878 1878 1878 1878 1878 1877 1877 1876 1875 1874 1874 1873 1873 1873 1873 1873 1873 1873 1874 1875 1875 1875 1876 1876 1877 1880 1880 1882 1882 1885 1887 1888 1890 1891 1893 1893 1894 1894 1896 1897 1899 1899 1901 1904 1907 1909 1909 1909 1909 1910 1911 1912 1912 1912 1912 1912 1912 1912 1912 1910 1910 1910 1909 1906 1906 1906 1904 1904 1904 1905 1908 1909 1909 1910 1911 1913 1913 1913 1913 1911 1908 1902 1898 1898 1898 1902 1902 1902 1901 1901 1901 1906 1910 1910 1910 1896 1896 1896 1891 0 0 0 0 0 0 0 0 0 0 0 0 0 0 0 0 0
1514 1515 1515 1515 1515 1514 1510 1510 1510 1518 1524 1526 1526 1526 1520 1518 1515 1515 1515 1518 1518 1518 1515 1511 1509 1509 1509 1509 1509 1506 1503 1502 1502 1502 1502 1502 1502 1502 1502 1503 1504 1505 1505 1505 1506 1506 1506 1506 1506 1505 1504 1503 1502 1501 1500 1498 1498 1498 1498 1498 1498 1498 1499 1500 1501 1502 1503 1503 1503 1502 1500 1500 1497 1495 1494 1494 1494 1494 1494 1494 1494 1494 1495 1495 1495 1495 1494 1494 1493 1493 1493 1494 1496 1496 1496 1495 1495 1495 1496 1497 1499 1501 1502 1502 1503 1507 1509 1512 1516 1521 1530 1534 1538 1545 1553 1558 1558 1559 1573 1588 1595 1619 1634 1675 1719 1752 0 1835 1867 1878 1879 1881 1883 1887 1892 1896 1899 1902 1903 1908 1917 1925 1929 1939 1950 1952 1961 1963 1967 1971 1973 1974 1975 1975 1978 1979 1982 1987 1990 1994 1996 2002 2007 2012 2014 2017 2017 2019 2021 2031 2037 2038 2041 2044 2048 2052 2053 2055 2055 2056 2057 2065 2078 2133 2178 2198 2238 2246 2246 2251 2256 2256 2263 2265 2266 2274 2276 2280 2283 2289 2295 2300 2304 2306 2306 2306 2300 2300 2300 2300 2301 2301 2302 2302 2302 2302 2308 2313 2322 2332 2344 2360 2360 2360 2335 2322 2322 2322 2327 2339 2340 2340 2340 2343 2343 2344 2350 2356 2356 2356 2353 2353 2353 2353 2355 2358 2360 2360 2360 2358 2354 2349 2349 2349 2349 2349 2341 2333 2327 2317 2285 2256 2216 0 0 0 0 0 0 0 0 0 0 2235 2224 2224 2222 2209 2192 2192 2183 2180 2183 2192 2194 2194 2194 2180 2180 2180 2180 2180 2179 2179 2179 2198 2222 2222 0 0 0 0 0 0 0 0 0 0 0 0 0 0 0 0 0 0 0 0 0 0 0 0 0 0 0 2336 2336 2336 0 0 0 0 0 0 0 0 0 0 0 0 0 0 0 0 0 0 0 0 0 0 0 0 0 0 0 0 2285 2285 2262 2246 2233 2222 2220 2207 2207 2207 2207 2207 2205 2200 2194 2186 2181 2176 2170 2164 2158 2151 2144 2132 2122 2114 2108 2101 2095 2093 2088 2084 2079 2076 2073 2071 2067 2060 2052 2046 2042 2039 2037 2034 2030 2025 2022 2019 2016 2013 2010 2008 2007 2005 2003 2001 2000 1997 1996 1993 1991 1989 1988 1987 1986 1985 1984 1983 1981 1979 1977 1975 1973 1970 1968 1967 1965 1964 1963 1960 1957 1956 1955 1952 1952 1949 1948 1946 1943 1941 1940 1940 1939 1939 1938 1937 1936 1935 1935 1934 1933 1931 1930 1929 1929 1929 1928 1927 1926 1926 1925 1924 1922 1921 1921 1921 1919 1918 1916 1915 1915 1914 1913 1912 1910 1908 1907 1906 1904 1903 1903 1901 1901 1900 1899 1899 1898 1898 1897 1896 1895 1894 1893 1892 1891 1891 1891 1890 1888 1887 1886 1885 1885 1884 1884 1884 1884 1882 1881 1880 1879 1878 1878 1878 1878 1877 1877 1877 1876 1876 1875 1874 1874 1874 1873 1873 1873 1873 1874 1874 1875 1875 1875 1875 1875 1877 1880 1880 1881 1882 1885 1886 1888 1890 1890 1890 1890 1892 1894 1896 1897 1899 1901 1902 1904 1907 1909 1909 1909 1909 1910 1912 1912 1912 1912 1912 1912 1912 1912 1911 1910 1909 1908 1908 1906 1906 1902 1899 1899 1899 1902 1905 1907 1908 1908 1910 1912 1912 1912 1912 1910 1906 1902 1898 1898 1898 1900 1900 1900 1890 1887 1887 1887 1899 1899 1899 1896 1896 1896 1896 0 0 0 0 0 0 0 0 0 0 0 0 0 0 0 0 0
1499 1504 1509 1509 1509 1503 1503 1503 1506 1513 1517 1521 1521 1521 1518 1514 1512 1511 1511 1511 1511 1510 1508 1504 1503 1502 1502 1502 1499 1496 1495 1492 1492 1492 1498 1499 1499 1500 1500 1500 1502 1503 1503 1504 1504 1505 1505 1505 1504 1503 1503 1501 1501 1499 1497 1495 1495 1495 1495 1495 1495 1495 1496 1498 1498 1498 1498 1499 1499 1499 1496 1495 1494 1492 1491 1491 1491 1490 1490 1491 1491 1491 1491 1492 1492 1492 1491 1490 1490 1490 1490 1491 1491 1491 1491 1491 1491 1491 1492 1492 1494 1494 1494 1494 1495 1498 1499 1502 1502 1509 1521 1525 1530 1538 1544 1552 1553 1554 1562 1575 1578 1591 1623 1670 1693 1726 0 0 1867 1875 1875 1877 1877 1877 1881 1887 1892 1894 1896 1901 1907 1916 1924 1933 1937 1946 1947 1947 1947 1944 1944 1944 1946 1947 1950 1950 1957 1972 1983 1994 1995 1999 2000 2004 2008 2011 2013 2013 2016 2023 2031 2038 2041 2044 2048 2052 2053 2057 2058 2064 2067 2078 2127 2153 2183 2203 2237 2245 2245 2245 2256 2256 2261 2263 2266 2274 2276 2279 2279 2282 2287 2293 2298 2303 2303 2303 2300 2295 2293 2293 2293 2298 2298 2299 2300 2300 2301 2305 2308 2315 2329 2343 2343 2343 2333 2318 2318 2318 2323 2334 2336 2338 2339 2339 2340 2340 2347 2351 2351 2351 2351 2351 2351 2351 2351 2352 2353 2353 2353 2353 2350 2349 2349 2349 2354 2354 2354 2342 2339 2319 2285 2257 2224 0 0 0 0 0 0 0 0 0 0 0 2212 2205 2205 2205 2188 2188 2177 2174 2177 2190 2190 2194 2195 2198 2199 2199 2199 2199 2177 2177 2177 2178 2183 2183 0 0 0 0 0 0 0 0 0 0 0 0 0 0 0 0 0 0 0 2254 0 0 0 0 0 0 2325 2336 2336 2336 2332 0 0 0 0 0 0 0 0 0 0 0 0 0 0 0 0 0 0 0 0 0 0 0 0 0 0 0 2305 2305 2282 2253 2233 2222 2220 2207 2207 2207 2204 2204 2204 2199 2194 2186 2179 2174 2168 2164 2159 2155 2146 2133 2122 2114 2108 2102 2095 2093 2089 2084 2079 2075 2073 2071 2067 2060 2052 2046 2039 2036 2033 2030 2028 2025 2021 2018 2015 2012 2010 2008 2006 2003 2002 2001 2000 1998 1997 1995 1992 1990 1988 1987 1986 1985 1984 1983 1981 1979 1977 1976 1973 1972 1970 1967 1965 1964 1963 1960 1958 1957 1955 1954 1952 1950 1948 1946 1943 1941 1940 1940 1939 1939 1938 1937 1936 1935 1935 1934 1933 1931 1931 1930 1930 1929 1929 1928 1926 1926 1924 1924 1923 1921 1921 1920 1918 1917 1916 1915 1915 1914 1913 1912 1910 1908 1908 1906 1905 1903 1903 1902 1901 1900 1900 1900 1899 1899 1897 1896 1895 1894 1893 1892 1891 1891 1890 1889 1887 1887 1885 1884 1884 1884 1884 1884 1884 1882 1881 1879 1879 1879 1878 1878 1877 1877 1877 1877 1876 1876 1875 1875 1874 1874 1874 1874 1874 1874 1874 1874 1875 1875 1875 1875 1875 1877 1880 1880 1880 1882 1884 1886 1887 1887 1887 1887 1889 1892 1893 1895 1897 1900 1902 1902 1903 1905 1909 1910 1910 1910 1910 1912 1913 1914 1914 1914 1914 1913 1912 1911 1907 1907 1907 1906 1906 1904 1900 1893 1893 1893 1896 1905 1905 1907 1908 1910 1912 1912 1912 1912 1910 1906 1903 1901 1901 1901 1899 1899 1899 1890 1886 1877 1877 1877 1888 1888 1891 1896 1896 1920 1920 0 0 0 0 0 0 0 0 0 0 0 0 0 0 0 0
1492 1498 1502 1502 1502 1500 1500 1500 1503 1508 1512 1513 1513 1513 1511 1510 1509 1507 1507 1507 1504 1504 1502 1501 1500 1500 1499 1496 1493 1492 1492 1492 1492 1492 1494 1495 1495 1496 1496 1497 1499 1500 1500 1500 1501 1501 1502 1502 1502 1501 1500 1499 1497 1496 1494 1493 1492 1492 1490 1490 1490 1492 1493 1494 1494 1494 1495 1495 1495 1495 1494 1493 1492 1490 1488 1488 1488 1488 1487 1488 1488 1488 1488 1489 1489 1489 1488 1487 1487 1487 1487 1487 1487 1487 1487 1487 1487 1487 1487 1487 1488 1489 1489 1489 1489 1491 1493 1495 1498 1503 1510 1513 1519 1523 1535 1541 1548 1548 1549 1559 1575 1587 1608 1633 1650 1693 0 0 1861 1872 1872 1873 1874 1874 1878 1882 1888 1890 1890 1893 1899 1904 1912 1922 1928 1931 1931 1931 1931 1933 1934 1935 1935 1935 1936 1940 1956 1967 1978 1983 1987 1994 1994 1996 2000 2006 2008 2012 2016 2019 2024 2031 2037 2043 2048 2052 2056 2058 2063 2081 2085 2115 2131 2156 2184 2205 2212 2216 2232 2233 2241 2255 2261 2263 2265 2270 2276 2277 2278 2279 2282 2286 2290 2294 2295 2295 2295 2290 2288 2288 2288 2294 2297 2298 2298 2297 2294 2294 2294 2301 2312 2328 2331 2331 2331 2316 2316 2316 2323 2330 2335 2338 2339 2339 2340 2340 2342 2343 2345 2348 2349 2350 2350 2349 2348 2348 2346 2345 2345 2341 2341 2341 2344 2349 2354 2355 2355 2354 2350 2337 2310 2285 2241 0 0 0 0 0 0 0 0 0 0 0 0 0 0 0 0 0 0 0 0 0 0 0 2196 2198 2202 2202 2202 2202 2177 2166 2164 2163 2163 2160 0 0 0 0 0 0 0 0 0 0 0 0 0 0 0 0 0 0 2254 2254 0 0 0 0 0 0 2303 2322 2328 2329 2329 0 0 0 0 0 0 0 0 0 0 0 0 0 0 0 0 0 0 0 0 0 0 0 0 0 0 0 2357 2357 2285 2256 2235 2225 2220 2207 2204 2204 2202 2200 2197 2192 2186 2181 2175 2170 2166 2163 2159 2155 2146 2133 2120 2114 2109 2105 2098 2094 2089 2084 2078 2075 2073 2070 2066 2060 2052 2046 2039 2035 2033 2029 2025 2021 2019 2017 2014 2012 2010 2008 2005 2003 2002 2001 2000 1998 1997 1995 1993 1990 1988 1987 1986 1985 1983 1982 1981 1979 1977 1976 1974 1972 1970 1968 1966 1965 1963 1961 1959 1958 1956 1955 1952 1950 1948 1945 1942 1940 1940 1940 1940 1939 1938 1936 1935 1935 1935 1934 1933 1932 1931 1930 1930 1929 1929 1928 1926 1925 1924 1923 1923 1921 1920 1919 1917 1917 1916 1915 1915 1914 1913 1912 1910 1908 1908 1906 1905 1904 1903 1902 1902 1901 1901 1900 1900 1899 1897 1896 1895 1894 1893 1891 1891 1891 1890 1889 1887 1885 1884 1884 1884 1884 1884 1884 1884 1882 1881 1879 1879 1878 1878 1877 1877 1877 1877 1876 1876 1876 1875 1875 1875 1874 1874 1874 1874 1874 1874 1874 1874 1874 1874 1874 1875 1879 1880 1880 1880 1882 1884 1886 1887 1887 1887 1887 1889 1892 1893 1895 1897 1900 1902 1902 1903 1905 1909 1909 1910 1910 1910 1912 1913 1915 1915 1915 1915 1915 1912 1911 1907 1907 1905 1904 1904 1903 1897 1893 1893 1893 1894 1902 1905 1905 1907 1908 1909 1909 1909 1908 1907 1906 1904 1901 1901 1901 1899 1899 1899 1890 1884 1874 1874 1874 1884 1884 1885 1885 1894 1920 1920 1920 0 0 0 0 0 0 0 0 0 0 0 0 0 0 1523
1492 1494 1502 1502 1502 1500 1500 1500 1501 1505 1508 1508 1508 1507 1506 1505 1504 1504 1502 1502 1499 1497 1496 1496 1496 1496 1495 1493 1491 1491 1491 1491 1491 1492 1492 1492 1492 1492 1492 1492 1494 1496 1497 1498 1498 1498 1498 1498 1498 1498 1498 1496 1493 1492 1490 1490 1489 1489 1488 1488 1488 1490 1490 1490 1490 1490 1491 1491 1491 1491 1490 1489 1488 1488 1488 1486 1485 1485 1485 1485 1485 1486 1486 1486 1486 1486 1484 1483 1482 1482 1482 1483 1483 1483 1483 1483 1483 1483 1483 1484 1484 1484 1485 1486 1487 1487 1488 1492 1495 1498 1505 1507 1508 1513 1520 1533 1541 1542 1545 1549 1567 1578 1590 1599 1623 1677 0 0 1860 1868 1872 1872 1872 1873 1877 1881 1883 1884 1885 1888 1891 1894 1900 1909 1918 1922 1924 1927 1929 1929 1931 1931 1930 1930 1932 1938 1954 1963 1967 1972 1973 1974 1979 1992 1996 2002 2007 2010 2014 2016 2021 2027 2032 2038 2040 2046 2052 2057 2068 2084 2100 2117 2134 2158 2184 2196 2208 2210 2225 2232 2240 2253 2258 2260 2263 2265 2271 2271 2272 2272 2276 2278 2281 2286 2289 2289 2289 2283 2280 2280 2280 2288 2293 2293 2293 2292 2288 2288 2288 2294 2303 2315 2319 2319 2319 2319 2319 2319 2323 2329 2332 2338 2339 2340 2340 2341 2342 2343 2343 2343 2345 2348 2348 2348 2348 2344 2344 2343 2341 2341 2341 2341 2343 2349 2354 2355 2357 2357 2355 2355 2334 2304 2245 2219 0 0 0 0 0 0 0 0 0 0 0 0 0 0 0 0 0 0 0 0 0 0 0 2197 2198 2202 2202 2202 2177 2166 2159 2158 2158 2157 0 0 0 0 0 0 0 0 0 0 0 0 0 0 0 0 0 2246 2246 2246 0 0 0 0 0 0 2255 2282 2309 2316 2316 0 0 0 0 0 0 0 0 0 0 0 0 0 0 0 0 0 0 0 0 0 0 0 0 0 0 2363 2363 2363 2307 2266 2238 2234 2233 2222 2204 2202 2201 2197 2191 2185 2178 2174 2171 2166 2164 2162 2159 2155 2146 2133 2120 2114 2109 2105 2101 2094 2089 2084 2078 2075 2073 2070 2066 2060 2052 2048 2039 2035 2033 2029 2025 2021 2019 2017 2014 2012 2010 2008 2005 2003 2002 2000 2000 1998 1997 1995 1993 1990 1989 1987 1986 1985 1983 1982 1981 1979 1977 1976 1974 1973 1970 1969 1967 1965 1963 1961 1959 1958 1956 1955 1953 1951 1948 1945 1941 1940 1940 1940 1940 1939 1938 1936 1935 1935 1934 1934 1933 1932 1931 1930 1930 1929 1929 1928 1925 1924 1924 1923 1923 1921 1919 1917 1916 1916 1915 1914 1914 1914 1913 1912 1910 1908 1908 1906 1905 1904 1903 1902 1902 1902 1901 1900 1900 1899 1897 1895 1894 1893 1891 1891 1890 1890 1890 1888 1886 1885 1884 1884 1884 1884 1884 1884 1884 1882 1880 1879 1879 1878 1878 1877 1876 1876 1876 1876 1876 1876 1875 1875 1875 1874 1874 1874 1874 1874 1873 1873 1873 1873 1873 1874 1875 1879 1880 1880 1881 1882 1884 1886 1887 1887 1887 1887 1889 1893 1894 1895 1897 1900 1902 1902 1903 1903 1907 1909 1910 1910 1910 1912 1913 1915 1915 1916 1916 1916 1915 1911 1906 1902 1902 1902 1900 1899 1897 1893 1893 1893 1894 1902 1904 1904 1904 1905 1904 1904 1905 1906 1906 1906 1905 1901 1901 1901 1899 1899 1899 1895 1884 1869 1869 1869 1868 1869 1869 1877 1879 1898 1898 1898 0 0 0 0 0 0 0 0 0 0 0 1529 1529 1526 1523
1492 1492 1500 1500 1500 1500 1500 1500 1500 1501 1503 1503 1503 1503 1502 1500 1500 1500 1498 1498 1493 1493 1492 1491 1492 1492 1492 1491 1491 1490 1490 1490 1491 1491 1491 1491 1489 1489 1489 1489 1490 1492 1495 1495 1495 1495 1495 1495 1495 1495 1493 1492 1489 1487 1487 1486 1486 1485 1484 1484 1484 1486 1487 1487 1487 1487 1487 1487 1487 1486 1486 1486 1486 1485 1484 1483 1482 1482 1481 1481 1481 1482 1482 1482 1482 1482 1480 1478 1478 1478 1478 1478 1479 1479 1479 1479 1479 1479 1479 1480 1481 1481 1482 1483 1484 1484 1485 1488 1492 1495 1498 1501 1502 1504 1509 1521 1535 1538 1542 1543 1552 1570 1583 1595 1621 1676 0 0 1852 1868 1869 1871 1872 1873 1876 1876 1878 1879 1882 1883 1886 1888 1893 1900 1909 1915 1922 1927 1929 1929 1929 1929 1929 1929 1930 1935 1948 1955 1959 1967 1972 1973 1979 1989 1995 2000 2003 2005 2010 2012 2017 2022 2024 2027 2035 2040 2050 2057 2074 2094 2109 2128 2134 2158 2188 2195 2208 2209 2209 2209 2226 2252 2254 2256 2257 2260 2266 2268 2268 2268 2270 2273 2276 2280 2281 2281 2280 2278 2272 2272 2272 2281 2289 2289 2289 2285 2285 2285 2286 2290 2297 2305 2308 2310 2310 2311 2317 2319 2323 2326 2332 2336 2339 2340 2340 2342 2342 2343 2343 2343 2345 2346 2348 2348 2348 2344 2344 2342 2341 2341 2341 2341 2343 2349 2354 2354 2355 2358 2357 2357 2357 2331 2299 2251 0 0 0 0 0 0 0 0 0 0 0 0 0 0 0 0 0 0 0 0 0 0 0 0 2197 2202 2202 2202 2177 2162 2159 2148 2148 2146 0 0 0 0 0 0 0 0 0 0 0 0 0 0 0 0 0 2246 2246 2243 0 0 0 0 0 0 2251 2279 2305 2312 2312 0 0 0 0 0 0 0 0 0 0 0 0 0 0 0 0 0 0 0 0 0 0 0 0 0 0 2374 2374 2374 2335 2278 2244 2237 2233 2223 2209 2202 2201 2196 2188 2180 2174 2172 2170 2166 2163 2158 2154 2146 2137 2128 2120 2114 2109 2105 2101 2096 2089 2084 2078 2075 2073 2070 2066 2060 2056 2051 2043 2035 2033 2029 2025 2021 2019 2017 2014 2012 2011 2008 2005 2003 2002 2000 2000 1998 1997 1995 1993 1991 1989 1988 1986 1985 1983 1982 1981 1979 1978 1976 1974 1973 1970 1969 1967 1965 1963 1961 1960 1958 1957 1955 1953 1951 1947 1944 1941 1940 1940 1940 1939 1939 1938 1936 1934 1934 1934 1934 1933 1932 1931 1930 1930 1929 1928 1926 1925 1924 1922 1921 1921 1919 1917 1915 1914 1914 1913 1913 1913 1912 1912 1911 1909 1908 1908 1907 1906 1904 1903 1902 1902 1902 1902 1900 1899 1897 1896 1895 1894 1893 1891 1891 1890 1890 1889 1888 1886 1885 1884 1884 1884 1884 1884 1884 1884 1882 1880 1879 1879 1878 1878 1877 1876 1876 1876 1876 1876 1876 1875 1875 1875 1874 1874 1874 1874 1874 1873 1873 1872 1872 1872 1873 1875 1879 1880 1881 1881 1882 1884 1886 1887 1887 1887 1889 1893 1894 1894 1895 1896 1900 1901 1901 1902 1902 1904 1908 1909 1909 1910 1912 1913 1915 1915 1916 1916 1916 1915 1911 1906 1902 1901 1899 1899 1897 1897 1896 1893 1893 1893 1900 1901 1901 1901 1900 1900 1900 1903 1904 1904 1904 1904 1901 1901 1901 1899 1899 1899 1895 1884 1868 1868 1868 1868 1869 1869 1876 1876 1878 1878 1878 0 0 0 0 0 0 0 0 1546 1533 1532 1529 1529 1522 1515
1492 1492 1499 1499 1499 1499 1499 1499 1499 1499 1500 1499 1499 1499 1498 1498 1498 1497 1495 1492 1491 1490 1490 1489 1489 1489 1489 1489 1489 1488 1488 1488 1488 1488 1488 1488 1488 1487 1486 1486 1486 1489 1492 1492 1493 1493 1492 1492 1492 1491 1490 1488 1486 1485 1483 1483 1483 1482 1482 1482 1482 1483 1484 1484 1484 1484 1484 1483 1483 1483 1483 1483 1483 1481 1479 1478 1478 1478 1478 1478 1478 1478 1477 1476 1476 1476 1475 1474 1474 1474 1474 1474 1474 1474 1474 1474 1474 1475 1476 1476 1477 1478 1479 1480 1480 1480 1481 1483 1487 1489 1490 1490 1494 1498 1505 1512 1529 1537 1541 1543 1547 1561 1573 1592 1611 1675 0 0 1843 1855 1858 1860 1862 1866 1871 1872 1874 1877 1879 1881 1884 1887 1888 1893 1902 1913 1922 1927 1929 1929 1929 1929 1929 1929 1930 1935 1944 1948 1950 1962 1967 1973 1978 1987 1994 1997 1998 2000 2002 2005 2012 2017 2021 2024 2030 2039 2047 2059 2075 2099 2113 2141 2174 2178 2190 2190 2190 2197 2197 2197 2203 2235 2242 2250 2256 2258 2259 2260 2260 2264 2265 2268 2272 2272 2272 2272 2272 2272 2270 2270 2270 2273 2282 2282 2284 2284 2284 2284 2286 2288 2292 2296 2299 2300 2303 2310 2317 2319 2323 2326 2332 2336 2339 2340 2340 2342 2342 2342 2342 2343 2345 2346 2346 2346 2346 2343 2343 2343 2343 2343 2339 2337 2337 2337 2342 2345 2345 2348 2357 2357 2357 2348 2325 2289 2250 0 0 0 0 0 0 0 0 0 0 0 0 0 0 0 0 0 0 0 0 0 0 0 0 2211 2211 2211 2177 2160 2148 2146 2146 2146 0 0 0 0 0 0 0 0 0 0 0 0 0 0 0 0 0 0 2222 2222 0 0 0 0 0 0 0 2244 2286 2289 0 0 0 0 0 0 0 0 0 0 0 0 0 0 0 0 0 0 0 0 0 0 0 0 0 0 2372 2396 2396 2396 2345 2290 2244 2237 2233 2223 2209 2202 2201 2194 2184 2177 2173 2170 2169 2165 2159 2154 2146 2137 2130 2122 2116 2112 2108 2105 2101 2096 2089 2083 2078 2075 2073 2070 2065 2060 2056 2051 2043 2039 2034 2031 2028 2025 2022 2019 2015 2012 2011 2008 2006 2004 2002 2000 2000 1998 1997 1995 1993 1992 1990 1988 1986 1986 1984 1982 1981 1979 1978 1976 1974 1973 1972 1970 1968 1966 1966 1963 1961 1959 1957 1956 1953 1951 1946 1943 1941 1940 1940 1939 1938 1938 1937 1935 1934 1933 1932 1932 1931 1931 1930 1930 1929 1927 1927 1926 1924 1923 1922 1920 1919 1917 1916 1915 1914 1913 1913 1912 1912 1912 1912 1910 1909 1908 1908 1907 1906 1904 1903 1903 1902 1902 1902 1901 1899 1897 1896 1895 1894 1893 1891 1891 1890 1890 1889 1888 1886 1885 1884 1884 1884 1884 1884 1884 1884 1882 1880 1879 1879 1879 1878 1877 1876 1876 1876 1876 1876 1876 1875 1875 1874 1874 1874 1874 1873 1873 1872 1872 1872 1872 1872 1872 1873 1877 1880 1881 1881 1883 1885 1887 1889 1890 1891 1891 1893 1893 1894 1895 1895 1900 1900 1900 1901 1901 1903 1906 1907 1908 1909 1910 1911 1911 1915 1915 1915 1915 1915 1911 1905 1901 1897 1897 1897 1897 1897 1897 1894 1892 1892 1892 1894 1894 1894 1893 1893 1893 1902 1903 1904 1904 1904 1898 1893 1893 1893 1895 1895 1895 1884 1867 1867 1867 1868 1868 1869 1875 1875 1875 1875 0 0 0 0 0 0 1607 1602 1585 1546 1526 1515 1511 1507 1507 1507
