0 0 0 0 0 0 0 0 0 0 0 0 0 0 0 0 0 0 0 0 0 0 0 0 0 0 0 0 0 0 0 0 0 0 0 0 0 0 0 0 0 0 0 0 0 0 0 0 0 0 0 0 0 0 0 0 0 0 0 0 0 0 0 0 0 0 0 0 0 0 0 0 0 0 0 0 0 0 0 0 0 0 0 0 0 0 0 0 0 0 0 0 0 0 0 0 0 0 0 0 0 0 0 0 0 0 0 0 0 0 0 0 0 0 0 0 0 0 0 0 0 0 0 0 0 0 0 0 0 0 0 0 0 0 0 0 0 0 0 0 0 0 0 0 0 0 0 0 0 0 0 0 0 0 0 0 0 0 0 0 0 0 0 0 0 0 0 0 0 0 0 0 0 0 0 0 0 0 0 0 0 0 0 0 0 0 0 0 0 0 0 1573 1570 1553 1532 1516 1512 1511 1510 1509 1508 1507 1507 1506 1505 1505 1505 1504 1504 1503 1503 1503 1502 1501 1500 1499 1498 1498 1497 1497 1496 1494 1492 1492 1490 1488 1487 1487 1487 1487 1487 1488 1488 1488 1489 1489 1489 1488 1487 1486 1485 1485 1485 1484 1483 1483 1482 1481 1480 1479 1478 1477 1476 1475 1473 1473 1472 1472 1472 1471 1471 1471 1469 1468 1468 1468 1468 1467 1467 1465 1464 1464 1464 1464 1463 1463 1463 1463 1462 1462 1462 1461 1458 1458 1458 1458 1455 1455 1455 1455 1454 1453 1453 1452 1451 1451 1450 1450 1449 1447 1446 1446 1446 1445 1443 1442 1441 1439 1438 1437 1437 1435 1434 1433 1432 1432 1431 1431 1431 1431 1430 1429 1428 1428 1427 1426 1425 1424 1422 1420 1420 1419 1419 1419 1419 1418 1418 1418 1418 1418 1418 1418 1417 1417 1416 1416 1416 1414 1414 1413 1412 1411 1411 1411 1410 1410 1408 1408 1408 1407 1407 1406 1404 1402 1401 1401 1399 1397 1396 1395 1394 1392 1390 1389 1388 1387 1387 1386 1386 1386 1385 1385 1385 1385 1385 1384 1383 1383 1383 1383 1384 1384 1384 1384 1384 1384 1384 1384 1384 1384 1383 1382 1382 1381 1380 1380 1379 1378 1378 1377 1376 1375 1374 1373 1372 1371 1370 1369 1368 1367 1365 1364 1362 1361 1360 1359 1358 1357 1356 1355 1355 1354 1353 1352 1352 1352 1352 1352 1352 1352 1351 1351 1351 1351 1351 1352 1354 1354 1355 1355 1355 1355 1355 1355 1355 1354 1354 1354 1353 1352 1351 1351 1350 1350 1350 1349 1349 1349 1348 1348 1347 1347 1346 1346 1345 1345 1345 1344 1342 1342 1342 1341 1341 1341 1340 1339 1339 1339 1338 1338 1338 1338 1338 1338 1338 1338 1338 1338 1339 1339 1341 1342 1342 1342 1343 0 0 0 1627 1685 1703 1714 1720 1724 1728 1731 1733 1734 1737 1740 1742 1744 1745 1747 1749 1749 1751 1752 1753 1755 1756 1757 1758 1759 1759 1761 1762 1763 1763 1764 1766 1767 1769 1771 1772 1774 1777 1779 1780 1781 1785 1787 1789 1792 1795 1798 1800 1802 1804 1808 1814 1820 1826 1831 1835 1840 1848 1853 1856 1867 1874 1881 1883 1890 1891 1898 1904 1908 1910 1913 1917 1919 1921 1923 1925 1930 1932 1934 1937 1941 1945 1947 1950 1954 1956 1956 1956 1955 1950 1948 1947 1945 1944 1939 1933 1928 1924 1913 1909 1889 1889 1889 1885 0 0 0 0 0 0 0 0 0 0 0 0 0 0 0 0 0 0 0 0 0 0 0 0
0 0 0 0 0 0 0 0 0 0 0 0 0 0 0 0 0 0 0 0 0 0 0 0 0 0 0 0 0 0 0 0 0 0 0 0 0 0 0 0 0 0 0 0 0 0 0 0 0 0 0 0 0 0 0 0 0 0 0 0 0 0 0 0 0 0 0 0 0 0 0 0 0 0 0 0 0 0 0 0 0 0 0 0 0 0 0 0 0 0 0 0 0 0 0 0 0 0 0 0 0 0 0 0 0 0 0 0 0 0 0 0 0 0 0 0 0 0 0 0 0 0 0 0 0 0 0 2545 2574 2574 2574 0 0 0 0 0 0 0 2517 2518 2536 2541 2542 2542 2542 2529 2529 2529 2558 2560 2594 2622 2622 2622 2602 2598 2598 2598 2598 2598 2598 2545 2525 0 0 0 0 0 0 0 0 0 0 0 0 0 0 0 0 0 0 0 0 0 0 0 0 0 0 0 1579 1572 1568 1553 1532 1518 1511 1510 1509 1508 1507 1507 1505 1504 1504 1503 1503 1503 1502 1502 1502 1501 1500 1499 1497 1497 1496 1496 1495 1495 1493 1491 1488 1487 1486 1486 1485 1485 1485 1485 1485 1486 1486 1486 1486 1486 1486 1486 1485 1485 1484 1484 1484 1484 1482 1482 1481 1480 1479 1478 1476 1476 1475 1474 1472 1472 1472 1472 1471 1471 1471 1470 1469 1468 1468 1468 1467 1467 1466 1465 1464 1464 1463 1463 1463 1463 1463 1463 1462 1462 1460 1459 1457 1457 1457 1456 1454 1454 1453 1453 1452 1452 1450 1450 1449 1449 1449 1447 1447 1447 1445 1445 1444 1443 1442 1441 1440 1438 1437 1436 1436 1435 1434 1433 1432 1431 1431 1431 1430 1429 1429 1429 1428 1427 1426 1425 1424 1422 1421 1419 1419 1418 1418 1418 1418 1418 1417 1417 1417 1417 1417 1417 1417 1417 1416 1415 1414 1414 1413 1413 1411 1411 1411 1410 1410 1409 1408 1407 1407 1406 1405 1404 1404 1402 1401 1400 1398 1397 1396 1394 1393 1391 1390 1388 1387 1386 1386 1385 1385 1385 1385 1384 1384 1384 1384 1383 1383 1383 1383 1383 1383 1383 1384 1384 1384 1383 1383 1383 1383 1383 1383 1382 1382 1381 1380 1380 1378 1378 1378 1377 1376 1375 1374 1373 1372 1371 1370 1369 1367 1366 1365 1364 1362 1361 1360 1359 1358 1357 1356 1355 1355 1354 1353 1352 1352 1352 1352 1352 1352 1352 1351 1351 1350 1350 1350 1351 1352 1352 1353 1353 1354 1354 1354 1354 1354 1354 1353 1353 1353 1351 1351 1350 1350 1350 1349 1349 1348 1348 1347 1347 1346 1346 1346 1345 1345 1344 1344 1343 1342 1341 1341 1341 1340 1340 1339 1339 1338 1338 1338 1338 1338 1337 1337 1337 1337 1337 1337 1337 1337 1339 1339 1339 1339 1339 1339 0 0 0 0 1684 1701 1714 1716 1721 1727 1730 1733 1734 1737 1740 1742 1744 1745 1747 1750 1751 1752 1754 1755 1756 1757 1758 1758 1759 1761 1762 1763 1763 1764 1764 1766 1769 1771 1772 1774 1776 1778 1780 1781 1782 1785 1788 1791 1794 1797 1802 1805 1805 1807 1812 1819 1824 1829 1835 1840 1846 1854 1857 1863 1870 1877 1884 1887 1891 1896 1901 1905 1908 1911 1914 1918 1920 1922 1923 1926 1930 1931 1932 1936 1941 1943 1946 1947 1949 1952 1954 1954 1954 1949 1947 1947 1945 1943 1936 1930 1926 1922 1913 1909 1889 1889 1885 1885 0 0 0 0 0 0 0 0 0 0 0 0 0 0 0 0 0 0 0 0 0 0 0 0
0 0 0 0 0 0 0 0 0 0 0 0 0 0 0 0 0 0 0 0 0 0 0 0 0 0 0 0 0 0 0 0 0 0 0 0 0 0 0 0 0 0 0 0 0 0 0 0 0 0 0 0 0 0 0 0 0 0 0 0 0 0 0 0 0 0 0 0 0 0 0 0 0 0 0 0 0 0 0 0 0 0 0 0 0 0 0 0 0 0 0 0 0 0 0 0 0 0 0 0 0 0 0 0 0 0 0 0 0 0 0 0 0 0 0 0 0 0 0 2591 2591 2617 2617 2601 2617 2618 2651 2657 2670 2670 2651 2596 2596 2596 2602 2653 2692 2728 2730 2762 2766 2766 2762 2759 2759 2743 2743 2730 2716 2716 2716 2732 2733 2742 2742 2742 2723 2671 2649 2642 2633 2599 2581 2573 2534 0 0 0 0 0 0 0 0 0 0 0 0 0 0 0 0 0 0 0 0 0 0 0 0 1579 1577 1571 1564 1548 1530 1518 1511 1510 1508 1507 1505 1505 1504 1503 1503 1502 1502 1501 1501 1501 1500 1500 1499 1498 1497 1496 1495 1494 1494 1492 1492 1491 1488 1485 1485 1484 1484 1484 1483 1483 1483 1483 1483 1483 1483 1486 1486 1486 1484 1483 1483 1483 1482 1481 1480 1480 1479 1479 1478 1476 1475 1475 1474 1473 1472 1472 1471 1471 1471 1470 1470 1470 1469 1467 1467 1467 1467 1467 1466 1464 1463 1463 1463 1463 1463 1463 1462 1462 1462 1461 1460 1459 1457 1455 1455 1455 1453 1452 1451 1451 1451 1450 1449 1449 1448 1447 1447 1447 1445 1444 1444 1443 1443 1442 1441 1441 1439 1438 1437 1436 1436 1434 1433 1433 1431 1431 1429 1429 1429 1429 1428 1428 1427 1426 1425 1425 1423 1421 1420 1419 1417 1417 1417 1417 1417 1417 1417 1417 1416 1416 1416 1416 1416 1416 1415 1414 1414 1413 1412 1412 1411 1410 1410 1410 1409 1408 1407 1407 1407 1405 1405 1404 1402 1402 1401 1400 1398 1397 1395 1394 1392 1391 1389 1388 1386 1385 1385 1385 1384 1384 1383 1383 1383 1383 1383 1383 1383 1383 1382 1382 1383 1383 1383 1383 1383 1383 1382 1382 1382 1382 1381 1381 1380 1380 1379 1379 1378 1377 1377 1376 1375 1375 1374 1372 1371 1371 1370 1368 1367 1366 1365 1364 1363 1361 1360 1359 1359 1358 1356 1356 1355 1355 1353 1353 1352 1352 1352 1352 1352 1352 1351 1350 1350 1350 1350 1351 1351 1351 1352 1353 1353 1353 1354 1353 1353 1352 1352 1352 1351 1351 1350 1350 1349 1349 1348 1348 1348 1347 1347 1346 1346 1345 1345 1344 1344 1344 1343 1342 1341 1341 1341 1340 1339 1339 1338 1338 1337 1337 1337 1337 1337 1337 1336 1336 1336 1336 1336 1337 1337 1338 1338 1338 1338 1338 1338 1346 0 0 0 0 1700 1714 1716 1721 1727 1730 1733 1735 1737 1740 1742 1744 1746 1748 1750 1752 1754 1754 1756 1757 1758 1759 1760 1761 1762 1763 1763 1764 1764 1766 1769 1770 1772 1774 1776 1777 1779 1781 1782 1785 1787 1791 1793 1796 1799 1804 1808 1810 1813 1818 1825 1829 1834 1838 1842 1851 1857 1862 1868 1875 1882 1884 1891 1895 1900 1904 1907 1910 1912 1915 1918 1920 1922 1924 1927 1930 1931 1932 1935 1940 1941 1942 1943 1946 1951 1953 1953 1953 1948 1945 1945 1943 1941 1935 1930 1925 1913 1907 1903 1889 1882 1879 1858 0 0 0 0 0 0 0 0 0 0 0 0 0 0 0 0 0 0 0 0 0 0 0 0
0 0 0 0 0 0 0 0 0 0 0 0 0 0 0 0 0 0 0 0 0 0 0 0 0 0 0 0 0 0 0 0 0 0 0 0 0 0 0 0 0 0 0 0 0 0 0 0 0 0 0 0 0 0 0 0 0 0 0 0 0 0 0 0 0 0 0 0 0 0 0 0 0 0 0 0 0 0 0 0 0 0 0 0 0 0 0 0 0 0 0 0 0 0 0 0 0 0 0 0 0 0 0 0 0 0 0 0 0 0 0 0 0 0 0 0 0 0 2733 2755 2791 2806 2806 2806 2762 2762 2762 2780 2780 2780 2733 2683 2683 2683 2699 2781 2805 2805 2805 2797 2793 2781 2766 2765 2761 2760 2756 2730 2716 2716 2716 2748 2750 2762 2762 2748 2737 2690 2686 2664 2656 2655 2644 2609 2573 2530 0 0 0 0 0 0 0 0 0 0 0 0 0 0 0 0 0 0 0 0 0 0 0 1575 1574 1566 1557 1546 1530 1518 1513 1511 1508 1506 1504 1504 1503 1502 1501 1501 1501 1500 1500 1499 1499 1499 1498 1498 1496 1495 1494 1494 1494 1490 1489 1489 1486 1482 1481 1480 1480 1480 1480 1481 1482 1482 1482 1481 1481 1481 1481 1481 1481 1481 1480 1480 1480 1479 1479 1478 1477 1477 1477 1476 1475 1473 1473 1472 1472 1471 1471 1471 1471 1469 1469 1469 1468 1467 1467 1467 1467 1467 1466 1464 1463 1462 1462 1462 1462 1462 1462 1462 1461 1461 1459 1458 1456 1455 1454 1453 1452 1451 1451 1450 1449 1448 1448 1447 1447 1446 1446 1445 1445 1444 1443 1442 1441 1441 1440 1440 1439 1438 1436 1436 1434 1434 1433 1433 1431 1430 1429 1429 1429 1428 1428 1427 1426 1425 1425 1424 1422 1421 1419 1417 1416 1416 1416 1416 1416 1416 1416 1416 1416 1415 1415 1415 1415 1414 1414 1414 1413 1412 1412 1412 1411 1410 1409 1409 1408 1408 1407 1406 1406 1404 1404 1403 1401 1401 1400 1398 1397 1396 1395 1393 1392 1391 1389 1387 1386 1385 1384 1384 1384 1383 1383 1383 1383 1383 1383 1382 1382 1382 1382 1382 1382 1382 1382 1382 1382 1382 1382 1382 1382 1381 1381 1381 1380 1379 1379 1378 1378 1377 1376 1376 1375 1374 1373 1372 1371 1370 1369 1368 1367 1366 1365 1364 1363 1362 1361 1360 1359 1358 1357 1356 1356 1355 1353 1353 1352 1352 1352 1352 1352 1352 1351 1350 1350 1350 1350 1350 1351 1351 1351 1353 1353 1353 1352 1352 1352 1352 1352 1351 1351 1350 1350 1349 1349 1348 1348 1347 1347 1346 1346 1346 1345 1345 1344 1344 1343 1342 1341 1341 1341 1340 1340 1339 1339 1338 1338 1337 1337 1337 1337 1336 1336 1336 1336 1336 1336 1335 1335 1335 1336 1337 1337 1337 1337 1338 1338 1345 0 0 0 0 0 1697 1709 1720 1725 1730 1733 1735 1737 1740 1743 1744 1746 1748 1751 1753 1755 1756 1758 1759 1759 1760 1761 1763 1764 1765 1765 1766 1766 1768 1770 1772 1774 1775 1777 1778 1780 1782 1784 1786 1789 1791 1795 1797 1803 1804 1810 1814 1818 1822 1829 1836 1840 1842 1845 1854 1860 1866 1871 1877 1882 1884 1891 1895 1901 1905 1907 1911 1914 1917 1919 1921 1922 1925 1927 1929 1930 1932 1935 1937 1938 1941 1943 1946 1950 1950 1950 1950 1948 1944 1943 1941 1936 1932 1929 1919 1906 1901 1890 1882 1880 1879 0 0 0 0 0 0 0 0 0 0 0 0 0 0 0 0 0 0 0 0 0 0 0 0 0
0 0 0 0 0 0 0 0 0 0 0 0 0 0 0 0 0 0 0 0 0 0 0 0 0 0 0 0 0 0 0 0 0 0 0 0 0 0 0 0 0 0 0 0 0 0 0 0 0 0 0 0 0 0 0 0 0 0 0 0 0 0 0 0 0 0 0 0 0 0 0 0 0 0 0 0 0 0 0 0 0 0 0 0 0 0 0 0 0 0 0 0 0 0 0 0 0 0 0 0 0 0 0 0 0 0 0 0 0 0 0 0 2583 2652 2653 2664 2683 2711 2735 2764 2791 2822 2832 2837 2837 2837 2837 2835 2811 2811 2798 2742 2741 2741 2741 2804 2828 2828 2828 2812 2812 2808 2791 2774 2763 2760 2760 2748 2743 2743 2743 2763 2765 2766 2770 2770 2765 2728 2714 2710 2704 2704 2686 2656 2612 2552 2510 0 0 0 0 0 0 0 2502 2502 2502 0 0 0 0 0 0 0 0 0 0 0 1581 1573 1571 1558 1551 1542 1529 1520 1515 1512 1508 1505 1504 1502 1501 1501 1501 1500 1499 1499 1499 1499 1499 1498 1498 1497 1495 1492 1492 1492 1491 1488 1487 1486 1483 1481 1478 1478 1478 1478 1479 1479 1480 1480 1480 1479 1479 1479 1479 1479 1479 1479 1479 1479 1478 1478 1477 1477 1476 1476 1475 1474 1474 1473 1472 1472 1471 1470 1470 1470 1469 1469 1469 1468 1467 1465 1465 1465 1465 1464 1464 1463 1463 1462 1462 1462 1461 1461 1461 1461 1461 1459 1459 1457 1456 1454 1453 1453 1452 1450 1450 1450 1449 1448 1447 1446 1445 1445 1445 1444 1444 1443 1442 1441 1440 1440 1439 1438 1438 1437 1436 1435 1433 1433 1433 1432 1431 1428 1428 1428 1428 1428 1428 1427 1426 1424 1424 1423 1421 1420 1418 1417 1415 1415 1415 1415 1415 1415 1415 1415 1415 1415 1415 1414 1414 1414 1414 1413 1413 1411 1411 1410 1410 1409 1409 1408 1408 1407 1407 1405 1405 1404 1403 1401 1401 1400 1400 1398 1397 1395 1394 1393 1391 1390 1389 1387 1386 1385 1384 1384 1383 1383 1383 1383 1382 1382 1382 1382 1382 1381 1381 1381 1381 1381 1381 1381 1381 1381 1381 1381 1381 1381 1380 1380 1379 1379 1378 1378 1377 1377 1376 1375 1374 1373 1373 1372 1371 1370 1369 1368 1367 1365 1364 1364 1363 1362 1361 1360 1360 1358 1358 1356 1356 1355 1355 1353 1353 1352 1352 1352 1352 1352 1351 1350 1350 1350 1350 1350 1350 1351 1351 1351 1351 1352 1352 1352 1352 1351 1351 1351 1350 1350 1350 1348 1348 1347 1347 1346 1346 1346 1346 1344 1344 1344 1344 1343 1342 1342 1341 1341 1339 1339 1339 1338 1338 1337 1337 1337 1336 1336 1335 1335 1335 1335 1335 1335 1334 1335 1335 1335 1335 1335 1335 1335 1335 1335 1338 1345 0 0 0 0 1685 1696 1709 1720 1724 1729 1732 1735 1737 1740 1742 1745 1747 1749 1752 1754 1756 1758 1759 1759 1760 1762 1763 1764 1765 1766 1767 1767 1768 1770 1772 1774 1775 1776 1777 1779 1781 1782 1784 1786 1789 1792 1796 1800 1803 1805 1811 1816 1820 1826 1835 1842 1847 1848 1850 1856 1863 1867 1872 1878 1882 1885 1891 1896 1901 1905 1909 1913 1916 1920 1921 1922 1923 1925 1927 1929 1930 1931 1934 1936 1938 1941 1943 1946 1949 1949 1949 1948 1944 1941 1939 1936 1928 1927 1925 1916 1898 1894 1884 1877 1876 1872 0 0 0 0 0 0 0 0 0 0 0 0 0 0 0 0 0 0 0 0 0 0 0 0 0
0 0 0 0 0 0 0 0 0 0 0 0 0 0 0 0 0 0 0 0 0 0 0 0 0 0 0 0 0 0 0 0 0 0 0 0 0 0 0 0 0 0 0 0 0 0 0 0 0 0 0 0 0 0 0 0 0 0 0 0 0 0 0 0 0 0 0 0 0 0 0 0 0 0 0 0 0 0 0 0 0 0 0 0 0 0 0 0 0 0 0 0 0 0 0 0 0 0 0 0 0 0 0 0 0 0 0 0 0 2552 2556 2612 2659 2662 2676 2688 2727 2736 2751 2764 2791 2822 2832 2854 2854 2854 2854 2854 2852 2844 2803 2757 2757 2757 2803 2866 2866 2866 2839 2834 2826 2813 2791 2777 2771 2761 2761 2761 2777 2795 2813 2815 2815 2815 2807 2795 2772 2772 2772 2793 2845 2845 2845 2790 2690 2552 2510 2491 0 0 0 0 0 2552 2681 2681 2681 2653 2653 2588 0 0 0 0 0 0 0 0 1580 1568 1555 1551 1545 1539 1529 1520 1515 1512 1508 1504 1503 1502 1501 1500 1500 1499 1499 1499 1498 1498 1497 1497 1497 1497 1495 1492 1490 1489 1488 1485 1484 1482 1480 1477 1476 1476 1476 1476 1477 1477 1477 1477 1476 1476 1476 1477 1478 1478 1478 1478 1477 1477 1477 1476 1476 1476 1475 1475 1474 1474 1473 1472 1471 1471 1471 1470 1469 1469 1469 1468 1467 1466 1465 1465 1464 1463 1463 1463 1463 1463 1462 1462 1461 1461 1461 1460 1460 1460 1459 1459 1458 1457 1456 1454 1453 1452 1451 1450 1449 1449 1448 1447 1446 1446 1444 1443 1443 1443 1443 1441 1441 1440 1439 1439 1439 1438 1438 1437 1436 1435 1433 1433 1433 1432 1429 1428 1428 1428 1428 1428 1427 1427 1426 1424 1423 1423 1421 1419 1418 1416 1415 1415 1415 1414 1414 1414 1414 1414 1414 1414 1414 1414 1414 1413 1412 1412 1412 1411 1410 1410 1409 1409 1408 1407 1407 1407 1406 1405 1404 1403 1402 1401 1400 1399 1399 1396 1395 1394 1392 1391 1390 1390 1389 1387 1386 1385 1384 1384 1383 1383 1383 1382 1382 1382 1381 1381 1381 1381 1381 1381 1381 1381 1381 1381 1381 1381 1380 1380 1379 1379 1379 1379 1379 1378 1377 1377 1376 1376 1375 1374 1373 1373 1372 1371 1371 1369 1369 1367 1366 1365 1364 1363 1363 1362 1361 1360 1360 1359 1358 1358 1356 1356 1356 1355 1354 1353 1352 1352 1352 1352 1351 1350 1350 1349 1349 1349 1350 1350 1350 1351 1351 1351 1351 1351 1351 1350 1350 1349 1349 1349 1348 1348 1347 1347 1346 1346 1346 1345 1345 1344 1344 1343 1342 1342 1341 1341 1341 1340 1339 1338 1338 1338 1337 1337 1336 1336 1336 1335 1335 1334 1334 1334 1334 1334 1334 1334 1333 1333 1334 1334 1334 1334 1335 1335 1338 1345 0 0 0 1653 1657 1688 1709 1720 1724 1728 1732 1736 1737 1740 1742 1745 1748 1749 1752 1755 1757 1759 1760 1761 1763 1763 1764 1765 1766 1767 1768 1769 1771 1772 1773 1775 1776 1778 1779 1780 1782 1784 1786 1788 1790 1792 1797 1801 1803 1807 1811 1816 1822 1830 1841 1847 1850 1853 1854 1859 1864 1868 1872 1878 1882 1887 1893 1897 1902 1907 1910 1915 1918 1921 1922 1923 1924 1926 1928 1929 1930 1931 1933 1936 1936 1939 1942 1945 1946 1946 1946 1944 1940 1937 1934 1929 1924 1920 1917 1910 1897 1893 1883 1876 1871 1870 0 0 0 0 0 0 0 0 0 0 0 0 0 0 0 0 0 0 0 0 0 0 0 0 0
0 0 0 0 0 0 0 0 0 0 0 0 0 0 0 0 0 0 0 0 0 0 0 0 0 0 0 0 0 0 0 0 0 0 0 0 0 0 0 0 0 0 0 0 0 0 0 0 0 0 0 0 0 0 0 0 0 0 0 0 0 0 0 0 0 0 0 0 0 0 0 0 0 0 0 0 0 0 0 0 0 0 0 0 0 0 0 0 0 0 0 0 0 0 0 0 0 0 0 0 0 0 0 0 0 0 0 0 2533 2633 2660 2690 2699 2699 2699 2709 2736 2746 2757 2777 2791 2822 2832 2856 2858 2869 2880 2883 2883 2883 2848 2833 2833 2833 2863 2882 2882 2882 2873 2855 2840 2813 2791 2783 2771 2771 2771 2771 2805 2844 2880 2882 2946 2947 2971 2975 3015 3037 3048 3073 3073 3073 3073 2847 2728 2555 2510 2491 0 0 2624 2814 2867 2867 2867 2837 2798 2798 2796 2728 2684 0 0 0 0 0 0 1580 1567 1556 1547 1542 1540 1534 1525 1520 1515 1512 1507 1504 1503 1501 1500 1499 1498 1498 1497 1497 1497 1497 1497 1496 1494 1494 1492 1490 1489 1488 1485 1482 1481 1479 1476 1475 1473 1473 1473 1474 1474 1474 1475 1475 1475 1475 1475 1476 1477 1477 1477 1477 1477 1476 1476 1475 1475 1475 1474 1473 1473 1472 1472 1471 1471 1470 1469 1469 1469 1468 1467 1467 1466 1466 1465 1463 1463 1462 1462 1462 1462 1461 1461 1461 1461 1461 1460 1460 1460 1460 1459 1459 1457 1456 1455 1453 1453 1451 1450 1449 1449 1448 1448 1446 1445 1445 1443 1443 1442 1441 1441 1441 1440 1439 1439 1438 1437 1437 1437 1436 1436 1434 1433 1433 1433 1432 1429 1428 1428 1428 1428 1428 1427 1426 1425 1424 1423 1422 1420 1419 1418 1416 1415 1415 1415 1414 1414 1414 1414 1414 1414 1414 1413 1413 1413 1412 1412 1411 1411 1410 1409 1408 1408 1407 1407 1406 1406 1406 1405 1404 1403 1402 1401 1400 1398 1398 1397 1396 1395 1393 1391 1390 1390 1390 1389 1387 1386 1385 1384 1383 1383 1382 1382 1382 1382 1382 1380 1380 1380 1380 1380 1380 1380 1380 1380 1380 1380 1380 1380 1380 1379 1379 1379 1378 1378 1377 1376 1375 1375 1375 1375 1374 1373 1372 1372 1371 1369 1369 1368 1366 1366 1364 1364 1363 1362 1362 1361 1361 1360 1359 1359 1358 1358 1357 1357 1356 1355 1354 1353 1353 1353 1352 1351 1350 1350 1349 1349 1349 1349 1350 1350 1350 1350 1350 1350 1350 1350 1349 1349 1349 1348 1348 1347 1347 1346 1346 1346 1345 1345 1344 1344 1343 1343 1342 1341 1341 1340 1340 1339 1339 1337 1337 1337 1337 1336 1336 1336 1335 1335 1334 1334 1334 1334 1333 1333 1333 1333 1333 1333 1333 1333 1334 1334 1334 1334 1334 1338 1345 0 0 0 1619 1655 1686 1709 1717 1722 1723 1732 1736 1737 1740 1742 1745 1748 1750 1752 1755 1757 1760 1762 1763 1764 1765 1766 1766 1767 1768 1769 1771 1772 1774 1775 1776 1777 1779 1779 1781 1783 1785 1787 1788 1790 1793 1797 1803 1805 1807 1820 1827 1832 1837 1842 1848 1852 1857 1858 1863 1867 1872 1876 1880 1882 1887 1893 1897 1902 1907 1910 1915 1918 1921 1922 1923 1924 1926 1927 1929 1930 1931 1931 1934 1934 1937 1940 1943 1943 1943 1943 1937 1936 1931 1929 1925 1923 1915 1907 1901 1896 1885 1874 1874 1871 1869 1833 0 0 0 0 0 0 0 0 0 0 0 0 0 0 0 0 0 0 0 0 0 0 0 0
0 0 0 0 0 0 0 0 0 0 0 0 0 0 0 0 0 0 0 0 0 0 0 0 0 0 0 0 0 0 0 0 0 0 0 0 0 0 0 0 0 0 0 0 0 0 0 0 0 0 0 0 0 0 0 0 0 0 0 0 0 0 0 0 0 0 0 0 0 0 0 0 0 0 0 0 0 0 0 0 0 0 0 0 0 0 0 0 0 0 0 0 0 0 0 0 0 0 0 0 0 0 0 0 0 0 0 0 2629 2731 2743 2746 2746 2746 2736 2736 2736 2760 2762 2777 2791 2822 2832 2856 2858 2869 2938 2938 2938 2938 2934 2934 2934 2939 2950 2953 2968 2988 2989 2989 2989 2963 2931 2886 2795 2789 2789 2789 2861 2920 2998 3024 3028 3054 3081 3161 3166 3166 3168 3168 3166 3160 3073 2847 2745 2633 2633 2633 2916 3072 3178 3178 3178 3072 2985 2897 2858 2858 2839 2819 2796 0 0 0 0 0 1580 1562 1557 1550 1543 1540 1536 1529 1525 1516 1509 1508 1506 1502 1502 1501 1500 1498 1498 1497 1497 1496 1496 1495 1495 1494 1492 1491 1491 1489 1487 1487 1484 1481 1479 1477 1475 1473 1473 1472 1472 1471 1471 1471 1472 1472 1472 1473 1473 1475 1476 1476 1476 1476 1476 1476 1475 1475 1474 1474 1473 1472 1472 1472 1471 1471 1470 1469 1469 1468 1468 1466 1466 1466 1465 1465 1464 1462 1462 1462 1461 1461 1461 1461 1461 1461 1461 1461 1460 1460 1460 1460 1459 1458 1457 1456 1455 1453 1452 1451 1450 1449 1448 1448 1447 1446 1445 1444 1443 1441 1441 1441 1440 1440 1439 1439 1437 1437 1437 1436 1436 1436 1435 1434 1433 1433 1433 1431 1429 1428 1428 1428 1428 1428 1427 1426 1425 1424 1422 1421 1419 1419 1418 1416 1415 1415 1414 1414 1414 1413 1413 1413 1413 1413 1413 1413 1412 1412 1411 1411 1410 1409 1409 1408 1407 1407 1406 1405 1405 1405 1404 1402 1402 1400 1400 1399 1398 1397 1395 1395 1394 1392 1391 1389 1388 1388 1388 1387 1386 1384 1384 1383 1383 1382 1382 1382 1381 1381 1380 1380 1380 1380 1380 1380 1380 1380 1380 1379 1379 1379 1379 1379 1378 1378 1377 1377 1377 1376 1375 1375 1375 1375 1374 1373 1373 1372 1371 1370 1369 1368 1368 1366 1365 1364 1363 1362 1362 1362 1361 1361 1360 1359 1359 1359 1358 1358 1357 1356 1355 1354 1354 1353 1353 1353 1352 1351 1350 1349 1349 1349 1349 1350 1350 1350 1350 1350 1349 1349 1349 1349 1348 1348 1348 1347 1347 1346 1346 1346 1345 1345 1344 1343 1343 1342 1342 1342 1341 1340 1339 1339 1338 1338 1337 1336 1336 1335 1335 1335 1335 1335 1334 1334 1334 1333 1333 1333 1332 1332 1332 1332 1332 1332 1332 1333 1333 1333 1334 1334 1338 1345 0 0 0 1616 1649 1685 1708 1716 1722 1722 1729 1736 1737 1738 1741 1744 1748 1750 1753 1755 1757 1760 1762 1763 1765 1766 1766 1768 1769 1769 1771 1772 1774 1775 1776 1777 1779 1780 1781 1782 1784 1786 1788 1790 1792 1794 1799 1803 1807 1812 1821 1830 1836 1841 1844 1849 1853 1858 1862 1867 1871 1876 1880 1883 1886 1888 1893 1897 1902 1907 1910 1915 1918 1921 1922 1923 1924 1926 1927 1929 1930 1930 1931 1931 1933 1935 1938 1939 1940 1940 1940 1936 1930 1928 1924 1922 1920 1914 1904 1901 1885 1878 1872 1871 1869 1866 1833 0 0 0 0 0 0 0 0 0 0 0 0 0 0 0 0 0 0 0 0 0 0 0 0
0 0 0 0 0 0 0 0 0 0 0 0 0 0 0 0 0 0 0 0 0 0 0 0 0 0 0 0 0 0 0 0 0 0 0 0 0 0 0 0 0 0 0 0 0 0 0 0 0 0 0 0 0 0 0 0 0 0 0 0 0 0 0 0 0 0 0 0 0 0 0 0 0 0 0 0 0 0 0 0 0 0 0 0 0 0 0 0 0 0 0 0 0 0 0 0 0 0 0 0 0 0 0 0 0 0 0 0 2680 2754 2771 2771 2771 2759 2759 2759 2765 2766 2770 2777 2796 2823 2832 2856 2883 2955 2990 3018 3037 3098 3106 3141 3189 3189 3189 3186 3156 3156 3156 3175 3188 3188 3188 3151 3041 2948 2948 2948 2960 2996 3035 3066 3066 3106 3141 3182 3188 3197 3197 3184 3184 3176 3073 2847 2829 2829 2829 3091 3228 3237 3237 3228 3178 3072 2995 2982 2982 2938 2938 2873 2794 0 0 0 0 0 1564 1557 1550 1544 1540 1536 1534 1525 1521 1514 1509 1504 1504 1502 1500 1499 1498 1497 1496 1496 1495 1495 1495 1494 1494 1493 1491 1491 1489 1486 1485 1483 1482 1480 1478 1476 1474 1473 1471 1471 1471 1471 1471 1471 1471 1472 1472 1472 1473 1474 1475 1475 1475 1475 1475 1475 1475 1474 1474 1473 1472 1472 1471 1471 1470 1469 1469 1469 1468 1468 1467 1466 1466 1465 1464 1464 1463 1462 1461 1461 1459 1459 1459 1459 1460 1461 1461 1461 1460 1459 1459 1459 1459 1458 1457 1456 1455 1453 1452 1450 1450 1448 1447 1447 1446 1445 1444 1443 1442 1441 1440 1440 1440 1439 1438 1437 1437 1437 1436 1435 1435 1435 1434 1434 1433 1433 1433 1431 1429 1428 1428 1428 1428 1427 1426 1426 1425 1423 1422 1420 1419 1418 1417 1415 1415 1414 1414 1413 1413 1413 1413 1413 1412 1412 1412 1411 1411 1411 1410 1410 1410 1409 1408 1407 1407 1406 1405 1404 1404 1403 1403 1402 1401 1400 1399 1398 1397 1394 1394 1393 1393 1392 1390 1389 1388 1388 1388 1387 1386 1384 1383 1383 1383 1382 1382 1382 1381 1381 1380 1380 1379 1379 1379 1379 1379 1379 1379 1379 1379 1379 1378 1378 1378 1377 1377 1377 1376 1376 1375 1375 1374 1373 1373 1372 1372 1371 1370 1370 1369 1368 1366 1365 1365 1363 1363 1362 1362 1362 1361 1361 1360 1359 1359 1359 1359 1358 1357 1357 1355 1354 1354 1353 1353 1353 1352 1351 1350 1349 1349 1349 1349 1349 1350 1350 1350 1349 1348 1348 1348 1347 1347 1347 1346 1346 1346 1346 1345 1345 1344 1343 1343 1342 1342 1342 1341 1341 1339 1339 1339 1337 1337 1337 1336 1336 1335 1335 1335 1335 1334 1334 1333 1333 1333 1333 1332 1332 1332 1332 1332 1331 1331 1331 1331 1332 1332 1333 1333 1333 1338 1345 1352 0 0 0 1643 1685 1703 1713 1719 1720 1722 1729 1736 1738 1740 1744 1748 1750 1753 1755 1757 1760 1762 1764 1765 1767 1768 1769 1770 1770 1771 1774 1775 1776 1778 1778 1780 1781 1783 1784 1786 1788 1790 1791 1794 1796 1799 1804 1807 1812 1821 1830 1839 1843 1847 1851 1855 1858 1862 1867 1872 1876 1880 1883 1886 1888 1893 1897 1902 1906 1909 1912 1915 1918 1920 1922 1923 1925 1927 1929 1929 1930 1930 1931 1931 1932 1934 1935 1935 1935 1933 1932 1929 1921 1918 1918 1917 1914 1903 1901 1885 1877 1871 1869 1868 1866 1833 0 0 0 0 0 0 0 0 0 0 0 0 0 0 0 0 0 0 0 0 0 0 0 0
0 0 0 0 0 0 0 0 0 0 0 0 0 0 0 0 0 0 0 0 0 0 0 0 0 0 0 0 0 0 0 0 0 0 0 0 0 0 0 0 0 0 0 0 0 0 0 0 0 0 0 0 0 0 0 0 0 0 0 0 0 0 0 0 0 0 0 0 0 0 0 0 0 0 0 0 0 0 0 0 0 0 0 0 0 0 0 0 0 0 0 0 0 0 0 0 0 0 0 0 0 0 0 0 0 0 0 2582 2733 2771 2792 2806 2807 2808 2816 2820 2820 2820 2833 2833 2851 2868 2889 2890 2898 2961 3231 3236 3239 3239 3247 3249 3249 3257 3259 3259 3259 3242 3213 3210 3198 3194 3189 3188 3183 3183 3160 3142 3127 3127 3127 3130 3167 3170 3209 3217 3217 3217 3209 3205 3184 3176 2978 2900 2900 2900 3117 3228 3232 3237 3237 3228 3178 3072 2997 2997 2997 2992 2992 2873 0 0 0 0 0 1570 1557 1549 1544 1539 1536 1533 1528 1520 1518 1513 1509 1504 1502 1501 1500 1498 1497 1496 1495 1495 1495 1494 1494 1493 1493 1492 1490 1489 1487 1485 1485 1483 1482 1480 1478 1476 1473 1472 1469 1469 1469 1471 1471 1471 1471 1471 1472 1472 1472 1474 1474 1474 1475 1475 1475 1474 1474 1473 1473 1472 1472 1471 1470 1470 1469 1469 1468 1468 1467 1467 1466 1465 1465 1464 1464 1464 1463 1462 1461 1460 1459 1459 1459 1459 1459 1459 1460 1460 1459 1459 1459 1459 1459 1458 1457 1455 1454 1453 1452 1450 1449 1448 1447 1446 1445 1444 1443 1442 1441 1441 1440 1439 1438 1437 1437 1436 1436 1435 1435 1435 1434 1434 1433 1433 1433 1433 1432 1430 1429 1429 1428 1428 1427 1426 1425 1424 1423 1422 1421 1419 1419 1418 1416 1415 1415 1414 1413 1413 1413 1412 1412 1412 1412 1412 1411 1411 1410 1410 1409 1409 1409 1408 1407 1406 1406 1405 1404 1404 1404 1403 1402 1401 1400 1400 1398 1398 1396 1394 1394 1392 1392 1391 1390 1388 1387 1387 1387 1386 1385 1384 1383 1383 1383 1382 1382 1382 1381 1380 1380 1379 1379 1379 1379 1379 1379 1379 1378 1378 1378 1378 1377 1377 1377 1376 1376 1375 1375 1374 1374 1374 1374 1373 1372 1372 1371 1371 1370 1369 1368 1367 1366 1365 1364 1363 1362 1362 1361 1361 1360 1360 1360 1359 1359 1359 1359 1358 1357 1357 1356 1354 1354 1353 1353 1353 1352 1351 1350 1349 1349 1349 1349 1349 1349 1349 1348 1348 1347 1347 1346 1346 1346 1346 1346 1345 1344 1344 1344 1343 1343 1343 1342 1342 1341 1341 1340 1339 1338 1338 1337 1337 1336 1336 1335 1335 1334 1334 1334 1334 1333 1332 1332 1332 1332 1332 1332 1331 1331 1331 1331 1331 1331 1331 1331 1332 1332 1332 1333 1333 1333 1336 1338 0 0 0 0 1676 1695 1709 1717 1719 1721 1726 1734 1738 1740 1743 1747 1750 1753 1755 1757 1760 1762 1764 1766 1767 1769 1769 1770 1771 1773 1775 1776 1777 1778 1780 1781 1782 1784 1786 1787 1789 1792 1794 1796 1798 1801 1804 1808 1813 1822 1831 1839 1843 1848 1851 1855 1858 1862 1867 1872 1876 1880 1883 1886 1888 1893 1897 1901 1904 1908 1910 1914 1916 1918 1920 1922 1923 1925 1927 1927 1929 1929 1929 1929 1929 1929 1930 1930 1930 1930 1929 1923 1916 1916 1914 1913 1913 1902 1897 1884 1876 1871 1869 1865 1862 1832 0 0 0 0 0 0 0 0 0 0 0 0 0 0 0 0 0 0 0 0 0 0 0 0
0 0 0 0 0 0 0 0 0 0 0 0 0 0 0 0 0 0 0 0 0 0 0 0 0 0 0 0 0 0 0 0 0 0 0 0 0 0 0 0 0 0 0 0 0 0 0 0 0 0 0 0 0 0 0 0 0 0 0 0 0 0 0 0 0 0 0 0 0 0 0 0 0 0 0 0 0 0 0 0 0 0 0 0 0 0 0 0 0 0 0 0 0 0 0 0 0 0 0 0 0 0 0 0 0 2566 2596 2726 2793 2816 2840 2862 2866 2878 2893 2900 2907 2918 2974 3059 3121 3139 3141 3149 3169 3212 3234 3295 3295 3295 3276 3267 3261 3261 3261 3260 3260 3242 3213 3210 3198 3194 3190 3190 3188 3183 3181 3181 3181 3181 3183 3188 3217 3218 3233 3233 3233 3217 3205 3180 3168 3111 2958 2958 2958 3024 3184 3228 3228 3228 3177 3130 3109 3052 3007 3007 3007 2999 2999 2872 0 0 0 0 0 1555 1545 1539 1535 1532 1530 1529 1527 1520 1516 1513 1508 1504 1502 1501 1499 1498 1497 1496 1495 1494 1493 1493 1493 1493 1493 1491 1490 1488 1486 1485 1484 1482 1481 1480 1478 1476 1473 1471 1469 1469 1469 1470 1470 1471 1471 1471 1471 1471 1472 1473 1474 1474 1474 1474 1474 1474 1474 1473 1473 1472 1471 1471 1470 1468 1468 1468 1467 1467 1466 1466 1466 1465 1464 1464 1464 1462 1462 1461 1460 1459 1457 1457 1457 1457 1458 1459 1459 1459 1459 1459 1459 1458 1458 1457 1456 1455 1454 1453 1452 1450 1448 1447 1447 1445 1445 1443 1442 1441 1441 1440 1439 1439 1438 1436 1436 1436 1435 1435 1434 1434 1433 1433 1433 1433 1432 1431 1430 1430 1429 1429 1428 1428 1427 1426 1425 1424 1422 1421 1420 1419 1418 1418 1416 1415 1415 1413 1413 1413 1412 1412 1411 1411 1411 1411 1411 1410 1410 1409 1408 1408 1407 1406 1406 1406 1405 1403 1403 1403 1403 1402 1401 1401 1400 1399 1397 1397 1396 1394 1393 1392 1392 1390 1389 1388 1387 1387 1387 1386 1385 1384 1383 1383 1382 1382 1382 1381 1381 1380 1379 1379 1379 1379 1379 1379 1379 1379 1378 1378 1377 1377 1376 1376 1375 1375 1375 1375 1374 1374 1374 1373 1373 1372 1371 1371 1371 1370 1370 1368 1367 1366 1365 1364 1363 1363 1362 1362 1360 1360 1360 1359 1359 1359 1359 1359 1359 1358 1357 1357 1356 1354 1353 1353 1353 1353 1352 1351 1350 1349 1349 1349 1348 1348 1348 1348 1347 1347 1347 1346 1345 1345 1345 1344 1344 1344 1343 1343 1343 1343 1342 1341 1341 1341 1340 1340 1339 1338 1337 1337 1336 1336 1335 1335 1335 1334 1334 1333 1333 1333 1333 1332 1332 1331 1331 1331 1331 1330 1330 1330 1330 1330 1330 1330 1330 1331 1331 1332 1333 1333 1333 1333 1333 1377 0 0 0 1665 1693 1704 1715 1719 1721 1726 1732 1736 1739 1743 1747 1750 1754 1756 1757 1760 1762 1764 1766 1768 1769 1770 1770 1772 1774 1776 1777 1778 1780 1780 1782 1783 1784 1787 1788 1792 1794 1795 1797 1800 1804 1806 1808 1813 1823 1831 1839 1843 1848 1851 1855 1858 1862 1866 1872 1876 1878 1880 1882 1886 1891 1894 1897 1903 1904 1907 1910 1912 1915 1918 1920 1921 1923 1924 1925 1926 1927 1927 1927 1927 1927 1927 1927 1927 1927 1926 1920 1912 1912 1912 1911 1911 1901 1897 1883 1874 1871 1869 1863 1855 1829 0 0 0 0 0 0 0 0 0 0 0 0 0 0 0 0 0 0 0 0 0 0 0 0
0 0 0 0 0 0 0 0 0 0 0 0 0 0 0 0 0 0 0 0 0 0 0 0 0 0 0 0 0 0 0 0 0 0 0 0 2191 2216 2218 2216 2216 2202 2184 0 0 0 0 0 0 0 0 0 0 0 0 0 0 0 0 0 0 0 0 0 0 0 0 0 0 0 0 0 0 0 0 0 0 0 0 0 0 0 0 0 0 0 0 0 0 0 0 0 0 0 0 0 0 0 2695 2763 2767 2767 2767 2767 2770 2770 2788 2831 2883 2912 2931 2947 2969 2971 2989 3006 3014 3021 3070 3156 3212 3227 3234 3240 3261 3287 3300 3309 3309 3309 3283 3270 3269 3266 3266 3266 3263 3263 3259 3210 3183 3183 3183 3183 3183 3183 3182 3181 3181 3182 3187 3203 3229 3246 3247 3247 3247 3233 3209 3187 3176 3107 2958 2958 2958 3085 3184 3184 3184 3161 3125 3102 3074 3047 3029 3029 2999 2999 2929 2756 0 0 0 0 1561 1545 1539 1534 1533 1532 1529 1529 1525 1519 1516 1512 1508 1504 1502 1500 1498 1497 1496 1495 1495 1494 1493 1493 1492 1492 1492 1490 1489 1487 1485 1484 1483 1482 1480 1480 1478 1476 1473 1471 1469 1469 1469 1470 1470 1471 1471 1471 1471 1471 1472 1472 1474 1474 1474 1474 1474 1474 1473 1472 1472 1471 1471 1470 1469 1468 1468 1467 1466 1466 1466 1466 1465 1465 1464 1463 1463 1462 1460 1460 1459 1458 1457 1457 1456 1456 1457 1457 1458 1458 1458 1458 1458 1458 1457 1456 1456 1454 1454 1452 1452 1450 1447 1446 1446 1445 1443 1442 1442 1441 1441 1440 1439 1438 1437 1436 1435 1435 1434 1434 1434 1433 1433 1432 1432 1431 1431 1431 1430 1430 1429 1429 1428 1428 1426 1425 1425 1424 1422 1421 1419 1419 1418 1418 1416 1416 1414 1413 1413 1412 1412 1411 1411 1411 1411 1409 1409 1409 1408 1408 1408 1407 1406 1406 1406 1405 1403 1403 1403 1402 1402 1401 1401 1400 1399 1398 1397 1396 1395 1394 1392 1392 1391 1390 1389 1388 1387 1387 1386 1386 1385 1384 1383 1383 1382 1381 1381 1380 1380 1380 1379 1379 1379 1379 1379 1379 1379 1379 1378 1377 1377 1376 1375 1375 1375 1375 1375 1374 1373 1373 1373 1372 1372 1371 1371 1371 1369 1369 1368 1368 1366 1366 1364 1363 1363 1362 1360 1360 1360 1359 1359 1358 1358 1358 1358 1357 1357 1357 1357 1357 1355 1354 1353 1353 1353 1352 1352 1351 1350 1349 1349 1347 1347 1347 1347 1347 1346 1346 1345 1345 1344 1344 1344 1343 1343 1342 1342 1342 1342 1341 1341 1341 1340 1339 1339 1338 1337 1336 1336 1336 1334 1334 1334 1334 1334 1334 1333 1332 1332 1332 1332 1332 1331 1331 1331 1330 1330 1329 1329 1329 1329 1329 1329 1330 1330 1330 1331 1332 1332 1332 1331 1331 1331 1331 0 0 0 1656 1681 1702 1714 1718 1721 1726 1731 1735 1739 1742 1746 1750 1754 1756 1757 1760 1762 1764 1766 1768 1769 1770 1772 1774 1775 1776 1778 1779 1780 1783 1783 1784 1785 1788 1791 1793 1795 1797 1798 1802 1807 1808 1808 1813 1823 1833 1838 1843 1848 1851 1854 1857 1861 1865 1870 1873 1875 1878 1881 1884 1888 1891 1894 1898 1902 1904 1907 1910 1913 1915 1917 1919 1919 1921 1922 1924 1924 1924 1924 1924 1924 1924 1924 1924 1924 1921 1914 1906 1906 1906 1906 1906 1901 1897 1883 1874 1869 1869 1848 1847 1827 0 0 0 0 0 0 0 0 0 0 0 0 0 0 0 0 0 0 0 0 0 0 0 0
0 0 0 0 0 0 0 0 0 0 0 0 0 0 0 0 0 0 0 0 0 0 0 0 0 0 0 0 0 0 0 2190 2193 2216 2219 2219 2219 2218 2218 2216 2216 2211 2211 2209 2195 0 0 0 0 0 0 0 0 0 0 0 0 0 0 0 0 0 0 0 0 0 0 0 0 0 0 0 0 0 0 0 0 0 0 0 0 0 0 0 0 0 0 0 0 0 0 2705 0 2796 2796 2803 2796 2773 2773 2769 2769 2767 2767 2767 2795 2795 2837 2905 2940 2987 3004 3026 3047 3049 3061 3072 3086 3107 3132 3179 3231 3240 3258 3272 3278 3287 3300 3315 3315 3315 3297 3274 3270 3266 3266 3266 3263 3263 3259 3210 3177 3177 3177 3183 3192 3192 3192 3189 3189 3189 3199 3207 3229 3246 3248 3248 3248 3233 3205 3180 3144 3074 2978 2978 2978 3085 3184 3184 3184 3156 3124 3089 3067 3038 3029 3029 2992 2896 2833 0 0 0 0 1575 1557 1544 1539 1534 1532 1532 1529 1529 1525 1519 1514 1510 1508 1504 1501 1498 1496 1496 1495 1495 1494 1493 1492 1492 1491 1491 1490 1490 1488 1487 1485 1484 1483 1482 1480 1480 1478 1476 1473 1471 1470 1470 1470 1470 1470 1471 1471 1471 1471 1472 1472 1472 1474 1474 1474 1474 1473 1472 1472 1472 1471 1470 1470 1469 1468 1468 1467 1466 1466 1466 1465 1465 1464 1463 1463 1463 1461 1461 1460 1459 1459 1458 1457 1456 1456 1456 1456 1457 1457 1457 1457 1457 1457 1457 1456 1456 1455 1454 1454 1452 1451 1450 1447 1445 1445 1443 1442 1442 1441 1440 1439 1439 1438 1437 1436 1435 1435 1434 1434 1433 1433 1432 1431 1431 1431 1430 1430 1430 1429 1429 1428 1428 1428 1427 1426 1425 1425 1424 1422 1421 1419 1419 1418 1418 1416 1416 1414 1413 1412 1412 1412 1411 1411 1411 1409 1409 1408 1407 1407 1407 1407 1406 1406 1405 1405 1404 1403 1403 1402 1402 1401 1400 1400 1399 1398 1397 1396 1395 1394 1394 1392 1391 1390 1390 1388 1387 1387 1386 1386 1386 1385 1384 1383 1383 1382 1381 1380 1380 1380 1379 1379 1378 1378 1378 1378 1378 1378 1377 1377 1376 1375 1375 1374 1374 1374 1373 1373 1373 1373 1372 1372 1371 1371 1370 1370 1369 1368 1368 1367 1366 1365 1364 1363 1362 1362 1361 1360 1359 1358 1358 1358 1358 1358 1358 1358 1357 1356 1356 1356 1356 1355 1353 1352 1351 1351 1351 1350 1350 1350 1349 1348 1347 1347 1347 1347 1346 1346 1345 1344 1343 1343 1342 1342 1342 1341 1341 1340 1340 1340 1340 1339 1339 1338 1338 1337 1337 1336 1335 1335 1334 1334 1333 1332 1332 1332 1332 1332 1332 1332 1331 1331 1331 1331 1331 1329 1329 1329 1329 1329 1329 1329 1329 1329 1329 1330 1330 1331 1332 1332 1332 1331 1331 1331 1331 0 0 0 1641 1677 1702 1714 1717 1721 1726 1729 1733 1737 1742 1745 1749 1754 1756 1757 1760 1761 1764 1767 1768 1769 1770 1773 1774 1776 1777 1779 1781 1782 1783 1784 1785 1787 1788 1792 1795 1796 1798 1800 1803 1807 1811 1811 1814 1823 1831 1838 1842 1845 1848 1852 1855 1859 1863 1867 1871 1874 1876 1880 1882 1886 1889 1891 1896 1899 1902 1905 1907 1910 1913 1915 1916 1916 1919 1920 1920 1921 1922 1922 1922 1922 1922 1921 1921 1919 1916 1909 1905 1904 1904 1904 1902 1899 1895 1883 1872 1869 1865 1842 1828 1820 0 0 0 0 0 0 0 0 0 0 0 0 0 0 0 0 0 0 0 0 0 0 0 0
0 0 0 0 0 0 0 0 0 0 0 0 0 0 0 0 0 0 0 0 0 0 0 0 0 0 0 0 2188 2188 2188 2190 2193 2216 2219 2219 2219 2214 2205 2205 2209 2209 2209 2209 2211 2207 2207 0 0 0 0 0 0 0 0 0 0 0 0 0 0 0 0 0 0 0 0 0 0 0 0 0 0 0 0 0 0 0 0 0 0 0 0 0 0 0 2774 2774 2772 2760 2754 2754 2754 2796 2796 2803 2796 2773 2773 2769 2769 2767 2767 2767 2795 2795 2837 2905 2940 2987 3004 3026 3054 3070 3073 3094 3113 3149 3155 3188 3237 3249 3258 3272 3278 3287 3300 3313 3313 3313 3317 3303 3303 3304 3304 3303 3300 3286 3259 3210 3177 3177 3177 3183 3198 3198 3198 3189 3189 3189 3199 3224 3240 3247 3247 3247 3236 3208 3181 3163 3143 3068 2978 2978 2978 3085 3155 3155 3155 3154 3119 3084 3057 3038 3029 3029 2989 2817 2781 0 0 0 0 1571 1556 1544 1538 1532 1532 1528 1527 1526 1523 1519 1514 1510 1508 1504 1501 1498 1496 1495 1495 1494 1493 1493 1492 1491 1491 1490 1489 1489 1488 1487 1485 1484 1483 1482 1480 1479 1478 1476 1474 1472 1472 1472 1471 1471 1471 1471 1471 1471 1472 1472 1472 1473 1474 1474 1474 1474 1473 1472 1472 1471 1471 1470 1469 1468 1467 1467 1466 1466 1465 1465 1464 1464 1464 1463 1463 1461 1461 1460 1459 1459 1458 1457 1456 1456 1456 1456 1456 1457 1457 1457 1456 1456 1456 1456 1456 1456 1455 1454 1453 1451 1451 1450 1447 1445 1444 1442 1441 1440 1440 1440 1438 1438 1436 1436 1435 1434 1434 1433 1432 1432 1432 1432 1431 1430 1430 1429 1429 1429 1429 1428 1428 1427 1427 1426 1426 1425 1425 1423 1422 1421 1419 1419 1419 1418 1416 1416 1413 1412 1412 1412 1411 1410 1410 1410 1409 1408 1408 1407 1407 1406 1405 1405 1405 1404 1404 1403 1403 1401 1401 1401 1401 1399 1398 1398 1397 1396 1395 1395 1394 1393 1392 1391 1389 1388 1388 1387 1386 1386 1385 1385 1384 1384 1383 1383 1382 1381 1380 1380 1380 1379 1378 1378 1377 1377 1377 1377 1377 1376 1375 1375 1375 1373 1373 1373 1372 1372 1372 1372 1371 1371 1371 1370 1369 1369 1369 1368 1368 1367 1365 1364 1363 1362 1361 1360 1360 1359 1358 1357 1357 1357 1357 1357 1357 1357 1357 1356 1355 1355 1355 1354 1353 1352 1350 1350 1349 1349 1349 1349 1349 1349 1348 1346 1346 1346 1345 1345 1344 1343 1343 1343 1342 1341 1340 1340 1340 1340 1340 1339 1339 1338 1338 1338 1338 1337 1336 1336 1335 1334 1334 1334 1333 1332 1332 1332 1331 1331 1331 1331 1331 1331 1331 1331 1330 1330 1329 1329 1328 1328 1328 1328 1328 1328 1329 1329 1329 1329 1330 1331 1331 1331 1331 1331 1331 1331 0 0 0 1632 1677 1702 1713 1716 1719 1726 1729 1732 1736 1740 1744 1748 1752 1756 1757 1759 1761 1764 1767 1768 1770 1771 1773 1774 1776 1778 1780 1781 1782 1784 1784 1786 1788 1790 1793 1795 1797 1799 1801 1804 1808 1811 1814 1814 1823 1831 1837 1841 1844 1846 1849 1854 1859 1863 1866 1869 1872 1875 1878 1882 1885 1888 1890 1893 1897 1900 1902 1905 1909 1911 1913 1914 1915 1915 1917 1917 1917 1919 1919 1920 1920 1920 1919 1918 1917 1912 1906 1904 1903 1902 1902 1896 1895 1893 1883 1872 1865 1864 1840 1824 1813 0 0 0 0 0 0 0 0 0 0 0 0 0 0 0 0 0 0 0 0 0 0 0 0
0 0 0 0 0 0 0 0 0 0 0 0 0 0 0 0 0 0 0 2160 2160 2160 2162 2162 2162 2162 2165 2180 2188 2188 2188 2190 2193 2216 2219 2219 2219 2203 2203 2203 2205 2205 2209 2211 2212 2214 2214 2214 0 0 0 0 0 0 0 0 0 0 0 0 0 0 0 0 0 0 0 0 0 0 0 0 0 0 0 0 0 0 0 0 0 0 0 0 0 2772 2774 2774 2772 2760 2754 2754 2754 2796 2796 2803 2796 2773 2769 2708 2708 2708 2729 2735 2754 2795 2837 2905 2940 2987 3004 3026 3054 3070 3096 3125 3153 3158 3172 3199 3237 3249 3258 3272 3278 3279 3291 3309 3309 3309 3317 3303 3303 3304 3304 3303 3300 3286 3259 3210 3177 3177 3177 3191 3224 3224 3224 3224 3199 3199 3199 3224 3240 3247 3247 3247 3235 3205 3180 3162 3139 3068 2978 2978 2978 3047 3138 3144 3144 3144 3101 3072 3010 2984 2966 2959 2897 2777 2686 0 0 0 0 1571 1556 1543 1538 1532 1530 1528 1527 1526 1523 1518 1513 1509 1506 1503 1500 1497 1496 1495 1494 1493 1492 1492 1491 1491 1490 1490 1489 1488 1487 1487 1485 1484 1483 1482 1480 1479 1478 1476 1474 1474 1473 1472 1472 1471 1471 1471 1471 1471 1472 1474 1474 1474 1474 1474 1473 1473 1472 1472 1472 1471 1471 1469 1468 1468 1467 1466 1466 1465 1465 1464 1464 1464 1462 1462 1461 1460 1460 1460 1459 1458 1458 1457 1456 1456 1456 1456 1456 1456 1456 1456 1455 1455 1455 1455 1455 1454 1454 1453 1453 1451 1450 1449 1447 1445 1443 1442 1440 1440 1439 1439 1438 1437 1436 1435 1434 1433 1432 1432 1432 1432 1431 1430 1430 1429 1429 1429 1429 1429 1428 1428 1428 1427 1427 1426 1426 1425 1424 1423 1421 1421 1419 1419 1419 1418 1416 1414 1413 1412 1412 1412 1411 1410 1410 1410 1408 1407 1407 1406 1406 1405 1405 1405 1404 1404 1403 1402 1402 1401 1400 1400 1399 1399 1397 1397 1396 1396 1395 1394 1393 1392 1391 1390 1389 1387 1387 1386 1385 1385 1384 1384 1383 1383 1383 1382 1382 1381 1380 1379 1378 1378 1378 1377 1376 1376 1375 1375 1375 1374 1374 1374 1373 1372 1372 1371 1371 1371 1370 1370 1369 1369 1369 1369 1369 1368 1367 1367 1366 1365 1365 1363 1361 1361 1360 1358 1358 1357 1356 1356 1356 1355 1355 1355 1355 1355 1355 1355 1354 1354 1353 1352 1352 1351 1350 1349 1349 1349 1349 1349 1349 1349 1346 1346 1345 1345 1345 1345 1344 1342 1341 1340 1340 1340 1339 1339 1338 1338 1338 1337 1337 1337 1337 1336 1336 1334 1333 1333 1333 1333 1333 1332 1331 1331 1331 1331 1331 1331 1331 1330 1330 1330 1330 1329 1329 1329 1329 1328 1328 1328 1328 1328 1328 1328 1328 1328 1328 1329 1330 1331 1331 1331 1332 1332 1332 1334 0 0 0 1622 1677 1702 1713 1716 1717 1722 1728 1730 1731 1739 1741 1746 1750 1754 1756 1758 1761 1763 1767 1768 1770 1771 1773 1774 1776 1778 1780 1781 1783 1784 1785 1787 1789 1791 1794 1796 1798 1801 1803 1805 1808 1812 1814 1816 1823 1831 1834 1839 1842 1846 1849 1853 1858 1863 1866 1868 1871 1874 1877 1881 1884 1887 1889 1891 1894 1898 1899 1902 1906 1909 1911 1912 1913 1914 1914 1914 1916 1917 1917 1917 1917 1916 1915 1915 1913 1910 1906 1903 1903 1901 1900 1895 1895 1893 1887 1872 1864 1851 1840 1824 1813 0 0 0 0 0 0 0 0 0 0 0 0 0 0 0 0 0 0 0 0 0 0 0 0
0 0 0 0 0 0 0 0 0 0 0 0 0 0 0 0 0 0 2120 2161 2161 2161 2162 2162 2162 2162 2162 2154 2154 2154 2164 2179 2191 2198 2200 2200 2200 2200 2195 2195 2195 2195 2195 2207 2211 2218 2218 2218 0 0 0 0 0 0 0 2767 2857 2857 0 0 0 0 0 0 0 0 0 0 0 0 0 0 0 0 0 0 0 0 0 0 0 0 0 0 0 2772 2774 2774 2772 2760 2754 2738 2738 2738 2742 2742 2742 2730 2664 2645 2645 2645 2651 2651 2659 2664 2691 2725 2805 2897 2978 3008 3054 3070 3096 3125 3153 3158 3172 3199 3231 3231 3236 3243 3243 3251 3275 3283 3289 3290 3296 3302 3303 3304 3304 3303 3300 3286 3259 3210 3180 3180 3180 3199 3235 3268 3297 3297 3297 3275 3272 3265 3259 3254 3247 3247 3236 3208 3181 3163 3143 3068 2972 2972 2972 3006 3091 3095 3095 3095 3036 2975 2952 2918 2912 2910 2824 2746 2601 0 0 0 0 1570 1556 1543 1538 1532 1525 1524 1523 1523 1522 1517 1511 1508 1505 1502 1499 1497 1495 1494 1493 1492 1491 1491 1491 1490 1489 1489 1488 1488 1487 1487 1485 1484 1484 1483 1481 1479 1478 1477 1474 1474 1473 1472 1472 1472 1472 1471 1472 1472 1472 1475 1475 1475 1475 1474 1473 1473 1472 1472 1471 1471 1470 1469 1468 1467 1467 1466 1465 1464 1464 1463 1463 1463 1462 1461 1461 1460 1459 1459 1459 1457 1456 1456 1455 1455 1455 1455 1454 1454 1454 1454 1454 1454 1454 1452 1452 1452 1452 1451 1451 1450 1448 1447 1446 1443 1442 1440 1439 1438 1438 1437 1437 1436 1435 1433 1433 1433 1432 1432 1431 1430 1430 1430 1429 1428 1428 1428 1428 1428 1428 1427 1427 1426 1426 1425 1425 1424 1423 1422 1421 1420 1419 1419 1419 1417 1414 1414 1413 1412 1411 1411 1411 1410 1409 1408 1408 1406 1406 1405 1405 1404 1404 1403 1403 1402 1402 1402 1401 1400 1399 1399 1398 1397 1396 1395 1395 1394 1394 1393 1392 1391 1390 1390 1388 1387 1386 1384 1384 1384 1383 1383 1383 1383 1383 1382 1381 1380 1379 1378 1377 1376 1375 1375 1375 1375 1375 1374 1374 1374 1373 1373 1373 1371 1371 1371 1369 1369 1369 1369 1368 1368 1368 1368 1367 1367 1366 1366 1365 1364 1363 1362 1360 1360 1358 1358 1356 1356 1356 1355 1355 1355 1355 1354 1354 1354 1353 1352 1352 1352 1352 1352 1352 1351 1349 1348 1347 1347 1347 1347 1347 1347 1346 1345 1345 1344 1344 1343 1342 1341 1339 1339 1338 1338 1338 1338 1337 1336 1336 1336 1336 1336 1335 1335 1334 1334 1333 1332 1332 1331 1331 1331 1330 1330 1330 1330 1330 1330 1330 1330 1329 1329 1329 1329 1329 1329 1328 1328 1327 1327 1327 1327 1327 1328 1328 1328 1328 1329 1330 1331 1331 1331 1332 1332 1332 1334 0 0 0 1616 1666 1702 1713 1715 1716 1719 1724 1728 1729 1733 1739 1742 1747 1751 1755 1758 1761 1763 1765 1768 1770 1771 1773 1774 1776 1778 1780 1782 1783 1785 1786 1788 1790 1792 1796 1798 1800 1802 1805 1807 1810 1813 1815 1817 1822 1830 1833 1837 1841 1846 1849 1853 1858 1862 1864 1866 1869 1872 1876 1880 1883 1885 1887 1889 1893 1896 1898 1900 1903 1906 1909 1909 1911 1912 1912 1912 1914 1915 1915 1915 1914 1912 1911 1911 1910 1907 1903 1900 1900 1899 1899 1895 1895 1893 1892 1879 1861 1848 1842 1823 1813 0 0 0 0 0 0 0 0 0 0 0 0 0 0 0 0 0 0 0 0 0 0 0 0
0 0 0 0 0 0 0 0 0 0 0 0 0 0 0 2098 2098 2108 2120 2161 2161 2161 2162 2160 2156 2153 2142 2142 2142 2145 2164 2177 2186 2195 2196 2196 2196 2196 2195 2194 2188 2188 2188 2191 2207 2219 2219 2219 0 0 0 0 0 0 2513 2843 2857 2857 2857 0 0 0 0 0 0 0 0 0 0 0 0 0 0 0 0 0 0 0 0 0 0 0 0 0 0 2727 2726 2724 2721 2713 2686 2663 2661 2661 2661 2663 2663 2663 2621 2592 2582 2554 0 0 0 0 0 0 2538 2644 2770 2833 2932 3057 3096 3125 3153 3158 3172 3199 3226 3226 3226 3226 3226 3226 3238 3238 3244 3250 3254 3267 3273 3273 3273 3237 3236 3235 3215 3199 3184 3184 3184 3218 3261 3292 3306 3306 3306 3296 3296 3296 3296 3296 3276 3261 3236 3208 3181 3163 3143 3068 2972 2907 2907 2907 2944 3034 3034 3034 2999 2930 2909 2883 2879 2863 2788 2726 2555 0 0 0 0 1571 1553 1542 1537 1530 1525 1523 1523 1522 1521 1516 1508 1504 1502 1499 1498 1495 1494 1493 1492 1491 1491 1490 1490 1489 1488 1488 1488 1487 1487 1486 1485 1485 1484 1484 1482 1480 1479 1477 1475 1474 1473 1472 1472 1472 1472 1472 1472 1472 1472 1475 1475 1475 1475 1474 1473 1472 1472 1471 1471 1470 1469 1468 1467 1467 1465 1465 1464 1463 1462 1462 1462 1462 1461 1461 1460 1459 1459 1459 1459 1456 1456 1455 1452 1452 1452 1452 1452 1451 1451 1451 1451 1451 1451 1451 1451 1451 1449 1448 1448 1447 1446 1445 1444 1442 1440 1439 1438 1437 1437 1436 1435 1434 1433 1433 1433 1432 1431 1430 1430 1429 1429 1428 1428 1428 1427 1427 1427 1427 1426 1426 1426 1426 1425 1425 1424 1424 1422 1421 1421 1420 1419 1418 1417 1414 1413 1413 1412 1412 1411 1411 1410 1409 1408 1407 1407 1406 1405 1404 1404 1403 1403 1402 1402 1401 1400 1399 1399 1399 1398 1398 1397 1397 1395 1395 1394 1394 1393 1391 1391 1391 1390 1389 1387 1386 1385 1384 1382 1382 1382 1382 1381 1381 1381 1381 1380 1380 1379 1377 1376 1376 1375 1374 1374 1374 1373 1373 1373 1372 1372 1371 1371 1370 1370 1369 1368 1368 1367 1366 1366 1366 1366 1366 1366 1366 1365 1364 1364 1362 1362 1360 1360 1359 1358 1357 1356 1356 1355 1354 1354 1353 1353 1354 1353 1353 1352 1352 1352 1352 1352 1352 1351 1350 1349 1348 1347 1347 1346 1346 1346 1346 1345 1344 1344 1344 1343 1341 1341 1340 1338 1338 1338 1337 1337 1337 1336 1335 1335 1335 1334 1334 1333 1333 1333 1333 1332 1331 1330 1329 1329 1329 1329 1329 1329 1329 1329 1329 1329 1329 1329 1328 1328 1328 1328 1328 1328 1327 1327 1327 1327 1327 1327 1327 1327 1327 1328 1328 1330 1331 1331 1331 1332 1332 1332 1334 1347 0 0 1605 1666 1692 1709 1711 1712 1714 1722 1726 1726 1727 1732 1738 1743 1748 1753 1756 1760 1763 1765 1768 1770 1771 1773 1774 1776 1778 1780 1782 1784 1785 1787 1789 1791 1793 1796 1799 1802 1803 1806 1809 1811 1814 1816 1819 1822 1827 1830 1834 1840 1845 1849 1852 1857 1861 1863 1864 1867 1872 1876 1880 1881 1884 1885 1888 1891 1895 1897 1899 1901 1903 1905 1907 1908 1910 1910 1911 1912 1912 1912 1912 1911 1908 1907 1906 1906 1904 1899 1894 1894 1893 1893 1893 1893 1893 1892 1879 1860 1844 1842 1823 1813 0 0 0 0 0 0 0 0 0 0 0 0 0 0 0 0 0 0 0 0 0 0 0 0
0 0 0 0 0 0 0 0 0 0 0 0 0 2080 2083 2098 2098 2108 2120 2160 2160 2160 2159 2154 2153 2145 2136 2136 2136 2137 2147 2167 2183 2186 2186 2186 2186 2187 2183 2183 2179 2179 2179 2184 2201 2226 2226 2226 0 0 0 0 0 0 2513 2852 2857 2857 2857 0 0 0 0 0 0 0 0 0 0 0 0 0 0 0 0 0 0 0 0 0 0 0 0 0 0 0 2633 2635 2635 2633 2622 2591 2585 2583 0 0 0 0 0 0 0 0 0 0 0 0 0 0 0 0 2585 2640 2764 2927 3052 3067 3136 3156 3161 3179 3194 3194 3194 3191 3191 3191 3212 3225 3226 3229 3230 3230 3230 3230 3224 3219 3191 3191 3188 3187 3187 3191 3191 3236 3268 3292 3307 3309 3312 3309 3309 3312 3316 3316 3316 3289 3236 3236 3200 3189 3176 3172 3120 2958 2900 2845 2845 2845 2907 2907 2907 2902 2876 2860 2852 2845 2756 2698 2555 0 0 0 0 1572 1553 1538 1534 1530 1525 1522 1521 1521 1518 1514 1508 1504 1501 1499 1495 1494 1492 1491 1491 1490 1490 1489 1489 1489 1488 1488 1487 1487 1487 1487 1486 1485 1485 1485 1483 1482 1479 1478 1476 1474 1473 1472 1472 1472 1472 1472 1472 1472 1472 1475 1475 1475 1474 1473 1472 1471 1471 1470 1470 1469 1469 1468 1467 1466 1465 1464 1463 1462 1462 1461 1461 1461 1460 1459 1459 1458 1458 1458 1457 1455 1454 1453 1451 1450 1450 1450 1450 1449 1447 1447 1447 1447 1447 1448 1448 1448 1446 1444 1444 1443 1443 1443 1442 1440 1438 1437 1437 1435 1435 1434 1433 1433 1432 1432 1432 1431 1430 1430 1429 1428 1428 1428 1426 1426 1426 1426 1426 1425 1426 1426 1425 1425 1424 1424 1423 1422 1421 1420 1420 1419 1419 1416 1413 1412 1411 1411 1411 1411 1411 1410 1409 1408 1406 1406 1406 1405 1404 1403 1402 1401 1401 1401 1400 1400 1399 1399 1399 1398 1397 1396 1396 1396 1395 1394 1393 1392 1391 1391 1390 1390 1389 1388 1386 1385 1384 1383 1382 1382 1381 1380 1380 1380 1379 1379 1379 1378 1377 1376 1376 1376 1375 1374 1374 1373 1373 1372 1371 1371 1371 1370 1370 1369 1368 1368 1367 1366 1366 1365 1365 1365 1365 1365 1365 1365 1364 1363 1363 1362 1360 1359 1358 1357 1356 1355 1355 1355 1354 1354 1353 1353 1352 1352 1352 1352 1352 1352 1351 1351 1351 1350 1350 1349 1348 1347 1347 1346 1345 1345 1345 1345 1344 1344 1343 1343 1341 1340 1338 1338 1336 1336 1336 1336 1335 1334 1334 1334 1334 1334 1333 1333 1332 1331 1331 1331 1331 1331 1329 1329 1329 1329 1329 1329 1328 1329 1328 1328 1328 1328 1328 1328 1328 1328 1327 1327 1327 1327 1326 1326 1326 1327 1326 1327 1327 1327 1328 1328 1329 1330 1331 1331 1331 1331 1331 1332 1337 0 0 1594 1650 1691 1703 1707 1708 1712 1720 1725 1726 1727 1730 1734 1738 1744 1752 1756 1758 1759 1762 1766 1769 1771 1772 1774 1776 1778 1780 1782 1784 1786 1787 1790 1792 1795 1797 1800 1803 1805 1807 1809 1812 1814 1816 1819 1822 1827 1829 1833 1838 1845 1848 1852 1856 1859 1861 1863 1866 1871 1875 1878 1880 1881 1884 1887 1890 1892 1894 1896 1899 1900 1902 1904 1906 1906 1907 1907 1907 1907 1907 1907 1906 1905 1902 1900 1899 1895 1891 1891 1891 1892 1893 1893 1893 1892 1892 1879 1853 1842 1840 1822 0 0 0 0 0 0 0 0 0 0 0 0 0 0 0 0 0 0 0 0 0 0 0 0 0
0 0 0 0 0 0 0 0 0 0 0 0 2047 2080 2083 2098 2098 2098 2102 2108 2127 2143 2152 2152 2152 2140 2131 2131 2131 2137 2147 2167 2181 2182 2182 2181 2165 2159 2159 2159 2162 2168 2176 2179 2201 2226 2226 2226 0 0 0 0 0 0 0 2875 2875 2875 0 0 0 0 0 0 0 0 0 0 0 0 0 0 0 0 0 0 0 0 0 0 0 0 0 0 0 0 0 0 0 0 0 0 0 0 0 0 0 0 0 0 0 0 0 0 0 0 0 0 0 0 0 0 2617 2783 2984 3053 3069 3104 3147 3168 3168 3168 3164 3164 3164 3180 3206 3215 3217 3219 3219 3215 3215 3208 3207 3202 3190 3190 3188 3188 3191 3199 3203 3237 3269 3292 3307 3309 3312 3309 3309 3312 3316 3316 3316 3292 3269 3250 3249 3249 3248 3243 3240 3161 3061 2842 2757 2714 2714 2714 2759 2829 2845 2847 2847 2845 2756 2681 2555 0 0 0 0 0 1553 1538 1533 1530 1526 1522 1520 1518 1514 1512 1507 1502 1499 1495 1493 1492 1491 1491 1490 1490 1489 1489 1489 1488 1487 1487 1487 1487 1487 1486 1486 1485 1485 1485 1483 1482 1479 1478 1476 1474 1473 1472 1472 1472 1472 1472 1472 1472 1472 1473 1473 1473 1473 1471 1471 1470 1470 1469 1469 1469 1468 1467 1467 1465 1464 1463 1463 1462 1461 1460 1460 1460 1459 1458 1457 1457 1457 1456 1456 1454 1452 1450 1448 1448 1448 1448 1448 1447 1447 1444 1443 1443 1443 1445 1445 1445 1443 1441 1441 1440 1440 1440 1439 1438 1436 1435 1435 1434 1434 1434 1433 1432 1432 1431 1431 1431 1430 1429 1429 1428 1427 1426 1426 1426 1425 1425 1425 1425 1424 1424 1424 1423 1423 1422 1421 1420 1420 1420 1419 1417 1416 1413 1411 1410 1410 1410 1410 1410 1409 1408 1406 1405 1405 1404 1404 1404 1403 1402 1401 1401 1400 1400 1399 1399 1398 1397 1397 1396 1395 1395 1394 1394 1393 1393 1392 1391 1390 1390 1389 1388 1388 1386 1384 1383 1383 1382 1382 1380 1380 1380 1380 1379 1379 1379 1379 1378 1377 1376 1376 1375 1375 1374 1374 1372 1372 1371 1371 1370 1370 1369 1368 1367 1367 1366 1366 1366 1366 1365 1365 1365 1365 1365 1364 1363 1363 1362 1361 1360 1359 1358 1357 1355 1354 1353 1353 1353 1353 1352 1352 1352 1352 1352 1352 1352 1351 1351 1350 1350 1350 1350 1350 1348 1348 1347 1346 1346 1345 1345 1344 1344 1343 1343 1342 1342 1341 1339 1337 1337 1336 1336 1335 1335 1335 1334 1333 1333 1333 1333 1332 1331 1331 1330 1329 1329 1329 1329 1327 1327 1327 1327 1327 1327 1327 1328 1328 1328 1328 1328 1328 1328 1327 1327 1327 1327 1326 1326 1326 1326 1326 1326 1326 1326 1326 1327 1327 1328 1329 1329 1329 1329 1329 1331 1331 1331 1332 0 0 0 1643 1677 1700 1706 1708 1709 1713 1721 1724 1726 1728 1733 1737 1739 1746 1753 1756 1757 1758 1763 1766 1770 1771 1773 1776 1778 1780 1782 1784 1786 1788 1791 1793 1796 1798 1801 1803 1805 1807 1810 1813 1815 1817 1819 1823 1826 1829 1832 1837 1843 1847 1851 1855 1857 1859 1862 1865 1869 1872 1875 1877 1879 1882 1884 1887 1889 1892 1894 1897 1897 1898 1900 1901 1902 1902 1902 1902 1902 1902 1901 1901 1901 1897 1894 1892 1890 1889 1889 1889 1890 1891 1891 1890 1887 1873 1849 1845 1831 1827 1807 0 0 0 0 0 0 0 0 0 0 0 0 0 0 0 0 0 0 0 0 0 0 0 0 0
2016 0 0 0 0 0 0 0 0 0 0 0 2047 2049 2054 2098 2098 2098 2102 2108 2117 2128 2145 2145 2145 2137 2128 2128 2128 2131 2131 2140 2150 2150 2150 2128 2128 2127 2127 2127 2127 2127 2135 2165 2199 2226 2226 2226 0 0 0 0 0 0 0 0 0 0 0 0 0 0 0 0 0 0 0 0 0 0 0 0 0 0 0 0 0 0 0 0 0 0 0 0 0 0 0 0 0 0 0 0 0 0 0 0 0 0 0 0 0 0 0 0 0 0 0 0 0 0 0 0 0 2604 2786 2919 2921 3029 3121 3159 3159 3159 3160 3160 3162 3178 3199 3206 3207 3207 3207 3206 3206 3203 3198 3188 3182 3182 3182 3202 3202 3207 3220 3242 3271 3288 3300 3305 3307 3308 3309 3309 3312 3309 3309 3297 3275 3274 3274 3275 3262 3262 3262 3209 3113 2991 2745 2626 2543 2543 2543 2682 2758 2845 2845 2845 2756 2681 2556 0 0 0 0 0 1553 1538 1533 1530 1526 1523 1519 1515 1511 1507 1502 1500 1498 1494 1491 1491 1490 1490 1490 1489 1489 1488 1488 1488 1487 1487 1487 1486 1486 1486 1486 1485 1484 1484 1483 1482 1479 1478 1476 1474 1473 1472 1472 1472 1472 1472 1472 1472 1472 1472 1472 1472 1472 1471 1470 1469 1468 1468 1468 1467 1467 1466 1464 1464 1463 1462 1461 1461 1460 1459 1459 1459 1458 1458 1456 1456 1454 1454 1453 1453 1451 1449 1446 1446 1446 1446 1445 1445 1445 1444 1441 1440 1440 1440 1440 1440 1440 1439 1439 1439 1439 1439 1438 1436 1434 1433 1433 1432 1432 1432 1432 1431 1431 1430 1430 1429 1429 1428 1428 1427 1426 1425 1425 1425 1424 1424 1424 1424 1422 1422 1422 1422 1420 1419 1419 1419 1419 1418 1417 1416 1415 1413 1410 1409 1409 1409 1409 1408 1408 1406 1404 1403 1403 1403 1402 1401 1401 1400 1400 1399 1399 1399 1398 1398 1397 1395 1395 1395 1394 1394 1394 1393 1392 1392 1391 1390 1389 1388 1388 1387 1387 1385 1384 1383 1383 1382 1382 1380 1380 1380 1379 1379 1378 1378 1377 1377 1377 1376 1376 1375 1375 1374 1373 1372 1372 1370 1370 1369 1369 1368 1367 1367 1365 1363 1363 1363 1363 1363 1363 1362 1362 1362 1362 1362 1361 1361 1359 1359 1358 1356 1356 1354 1353 1353 1352 1352 1352 1352 1351 1351 1351 1351 1351 1351 1351 1350 1350 1349 1349 1349 1348 1347 1347 1346 1346 1345 1345 1344 1344 1344 1343 1342 1341 1340 1340 1337 1337 1337 1335 1335 1335 1334 1334 1332 1332 1332 1332 1331 1331 1331 1329 1328 1328 1328 1327 1327 1326 1326 1326 1326 1326 1327 1327 1328 1328 1328 1328 1328 1327 1327 1327 1327 1326 1326 1326 1325 1325 1325 1325 1326 1326 1326 1326 1327 1327 1327 1328 1329 1329 1329 1329 1328 1327 1327 1328 0 0 0 0 1677 1699 1705 1708 1709 1713 1717 1722 1724 1726 1730 1735 1739 1742 1748 1753 1757 1757 1760 1764 1768 1771 1773 1776 1778 1780 1782 1784 1786 1788 1791 1793 1797 1799 1801 1804 1805 1808 1810 1813 1816 1818 1820 1823 1826 1829 1832 1837 1843 1847 1850 1852 1855 1858 1861 1864 1867 1869 1873 1875 1877 1880 1882 1885 1887 1889 1891 1892 1893 1895 1896 1896 1897 1897 1896 1896 1896 1896 1895 1895 1893 1892 1889 1887 1887 1887 1887 1887 1888 1888 1888 1886 1880 1862 1839 1837 1825 1809 1789 0 0 0 0 0 0 0 0 0 0 0 0 0 0 0 0 0 0 0 0 0 0 0 0 0
2027 2041 0 0 0 0 0 0 0 0 0 2001 2012 2013 2054 2098 2098 2098 2102 2105 2105 2125 2127 2135 2135 2135 2128 2126 2121 2085 0 0 0 2081 2092 2107 2108 2123 2123 2123 2118 2118 2118 2165 2199 2226 2226 2226 0 0 0 0 0 0 2753 2855 2855 0 0 0 0 0 0 0 0 0 0 0 0 0 0 0 0 0 0 0 0 0 0 0 0 0 0 0 0 0 0 0 0 0 0 0 0 0 0 0 0 0 0 0 0 0 0 0 0 0 0 0 0 0 0 0 0 0 0 2707 2842 2844 3036 3097 3148 3150 3151 3157 3159 3177 3188 3197 3197 3198 3198 3198 3198 3198 3193 3173 3173 3173 3182 3202 3202 3211 3231 3242 3271 3283 3287 3288 3295 3295 3295 3293 3288 3288 3288 3303 3303 3303 3277 3277 3275 3262 3262 3209 3124 2991 2757 2622 2540 2540 2540 2682 2758 2848 2848 2848 2795 2681 2561 0 0 0 0 0 1558 1539 1533 1530 1526 1523 1519 1513 1508 1504 1499 1498 1496 1493 1491 1489 1489 1489 1489 1488 1487 1487 1487 1486 1486 1486 1485 1485 1485 1485 1485 1484 1484 1484 1483 1481 1479 1478 1476 1474 1473 1472 1472 1471 1470 1470 1470 1469 1470 1470 1470 1470 1470 1469 1468 1468 1468 1467 1466 1466 1465 1465 1464 1462 1461 1461 1460 1460 1459 1458 1458 1458 1457 1457 1455 1453 1453 1452 1452 1451 1450 1447 1445 1444 1444 1443 1443 1442 1442 1441 1439 1438 1438 1438 1438 1438 1438 1437 1437 1436 1436 1436 1436 1434 1433 1432 1432 1431 1431 1431 1430 1430 1430 1429 1429 1428 1428 1427 1427 1425 1425 1424 1424 1424 1424 1424 1424 1422 1422 1422 1422 1420 1420 1419 1418 1417 1417 1417 1417 1416 1414 1412 1410 1409 1409 1407 1406 1405 1404 1403 1403 1403 1403 1403 1402 1401 1399 1399 1399 1399 1399 1397 1397 1396 1396 1395 1393 1393 1393 1392 1392 1391 1391 1390 1389 1389 1388 1388 1388 1387 1386 1385 1384 1383 1383 1382 1382 1380 1380 1379 1379 1379 1378 1378 1377 1376 1376 1376 1375 1375 1375 1374 1373 1372 1371 1370 1369 1369 1368 1367 1366 1364 1362 1361 1360 1360 1360 1360 1361 1361 1361 1361 1361 1360 1360 1360 1359 1357 1356 1356 1355 1354 1352 1352 1352 1351 1351 1351 1350 1350 1350 1350 1350 1350 1350 1349 1349 1348 1348 1348 1347 1347 1346 1346 1345 1345 1344 1344 1343 1343 1342 1342 1340 1340 1338 1337 1336 1335 1335 1335 1334 1333 1333 1332 1331 1331 1331 1330 1329 1329 1328 1327 1327 1327 1327 1326 1326 1325 1324 1324 1324 1325 1327 1327 1327 1327 1327 1327 1327 1327 1326 1326 1326 1326 1325 1325 1325 1325 1325 1325 1326 1326 1326 1326 1326 1326 1327 1327 1328 1328 1328 1327 1327 1327 1327 0 0 0 0 1672 1699 1705 1708 1709 1712 1717 1719 1722 1723 1728 1732 1735 1737 1742 1748 1755 1757 1759 1761 1765 1769 1772 1774 1778 1780 1782 1784 1786 1789 1791 1794 1797 1800 1801 1804 1806 1808 1810 1813 1816 1818 1821 1823 1826 1828 1832 1836 1842 1847 1850 1852 1854 1857 1859 1861 1864 1867 1870 1873 1874 1877 1880 1881 1885 1886 1888 1888 1889 1890 1892 1892 1893 1893 1892 1891 1889 1889 1888 1888 1887 1886 1884 1884 1884 1884 1884 1884 1884 1884 1883 1878 1873 1856 1838 1834 1823 1804 0 0 0 0 0 0 0 0 0 0 0 0 0 0 0 0 0 0 0 0 0 0 0 0 0 0
2042 2055 2055 0 0 0 0 0 0 0 0 1992 1995 2011 2050 2088 2115 2115 2115 2115 2115 2116 2118 2132 2132 2132 2126 2119 2118 2028 2021 2021 2021 2042 2065 2087 2090 2113 2115 2115 2115 2115 2115 2165 2199 2226 2226 2226 2181 0 0 0 0 2538 2826 2842 2842 2842 0 0 0 0 0 0 0 0 0 0 0 0 0 0 0 0 0 0 0 0 0 0 0 0 0 0 0 0 0 0 0 0 0 0 0 0 0 0 0 0 0 0 0 0 0 0 0 0 0 0 0 0 0 0 0 0 0 0 2662 2664 2823 3002 3108 3135 3150 3156 3157 3161 3165 3172 3177 3182 3194 3198 3198 3198 3191 3173 3173 3173 3182 3202 3202 3215 3231 3241 3268 3274 3278 3283 3283 3283 3281 3277 3277 3277 3286 3297 3297 3297 3277 3277 3275 3262 3262 3209 3124 2991 2788 2622 2540 2540 2540 2682 2758 2860 2860 2860 2795 2649 2561 0 0 0 0 0 1559 1539 1533 1527 1526 1522 1518 1512 1507 1502 1499 1496 1494 1492 1490 1489 1488 1488 1487 1487 1486 1485 1485 1485 1485 1484 1484 1484 1484 1483 1483 1483 1482 1481 1479 1479 1477 1477 1475 1473 1472 1472 1471 1470 1468 1467 1467 1467 1467 1467 1468 1468 1468 1467 1467 1467 1466 1466 1465 1465 1465 1464 1462 1461 1461 1460 1459 1459 1458 1458 1457 1457 1457 1456 1454 1453 1452 1450 1449 1449 1448 1447 1444 1443 1441 1441 1439 1439 1439 1438 1437 1437 1437 1437 1437 1437 1435 1435 1435 1433 1433 1433 1433 1433 1432 1430 1430 1429 1429 1429 1429 1429 1428 1428 1428 1427 1427 1426 1426 1425 1424 1423 1423 1423 1423 1423 1422 1422 1421 1421 1420 1420 1419 1418 1417 1416 1416 1415 1414 1414 1413 1411 1409 1409 1408 1407 1406 1405 1404 1403 1403 1403 1402 1402 1400 1400 1399 1399 1398 1398 1398 1397 1396 1395 1394 1393 1392 1392 1392 1392 1391 1390 1389 1388 1388 1388 1386 1386 1386 1386 1386 1384 1384 1383 1382 1382 1381 1380 1380 1379 1379 1378 1378 1378 1377 1376 1375 1375 1375 1375 1373 1372 1371 1371 1370 1370 1369 1368 1367 1366 1365 1363 1360 1358 1358 1358 1358 1359 1359 1359 1359 1359 1359 1359 1358 1358 1357 1356 1356 1355 1354 1353 1352 1352 1351 1351 1350 1350 1350 1350 1350 1350 1350 1350 1349 1349 1349 1348 1348 1347 1346 1346 1346 1346 1345 1344 1344 1343 1343 1342 1342 1341 1340 1339 1338 1337 1335 1335 1334 1333 1333 1333 1332 1332 1331 1330 1330 1329 1328 1328 1327 1326 1326 1326 1325 1325 1325 1324 1324 1324 1324 1325 1326 1326 1327 1327 1327 1327 1326 1326 1326 1326 1326 1325 1325 1324 1324 1324 1324 1324 1325 1325 1325 1325 1326 1326 1326 1326 1327 1327 1327 1327 1327 1327 1327 1340 1412 0 0 1672 1697 1705 1708 1709 1711 1714 1718 1720 1722 1725 1730 1732 1734 1738 1743 1750 1754 1756 1758 1760 1765 1769 1772 1776 1779 1781 1784 1786 1789 1791 1794 1797 1800 1802 1804 1806 1808 1810 1814 1816 1818 1821 1823 1826 1828 1831 1835 1841 1845 1849 1851 1853 1855 1857 1858 1859 1864 1868 1870 1871 1875 1877 1879 1881 1883 1884 1884 1885 1886 1887 1887 1888 1887 1887 1887 1885 1883 1883 1883 1881 1880 1880 1879 1879 1879 1879 1879 1877 1877 1875 1873 1859 1839 1832 1825 1823 1804 0 0 0 0 0 0 0 0 0 0 0 0 0 0 0 0 0 0 0 0 0 0 0 0 0 0
2066 2064 2064 0 0 0 0 0 0 0 0 1971 1979 2000 2030 2088 2115 2115 2115 2100 2100 2100 2114 2115 2124 2124 2124 2118 2088 2028 2018 2016 2016 2016 2035 2065 2090 2107 2118 2118 2118 2118 2118 2181 2199 2229 2230 2230 2236 2253 0 0 0 2568 2826 2830 2830 2830 0 0 0 0 0 0 0 0 0 0 0 0 0 0 0 0 0 0 0 0 0 0 0 0 0 0 0 0 0 0 0 0 0 0 0 0 0 0 0 0 0 0 0 0 0 0 0 0 0 0 0 0 0 0 0 0 0 0 0 2588 2591 2797 3011 3082 3133 3150 3150 3150 3150 3150 3157 3175 3189 3197 3197 3197 3191 3173 3171 3171 3171 3188 3206 3215 3231 3241 3244 3267 3272 3272 3272 3271 3269 3269 3271 3276 3285 3292 3292 3292 3277 3242 3242 3237 3227 3200 3115 2975 2788 2622 2540 2540 2540 2697 2739 2860 2860 2860 2795 2649 2561 0 0 0 0 0 1559 1542 1532 1526 1524 1521 1515 1509 1506 1502 1499 1496 1494 1491 1489 1488 1487 1487 1486 1486 1485 1484 1484 1484 1484 1483 1483 1483 1482 1481 1481 1481 1480 1478 1476 1474 1474 1473 1472 1471 1471 1471 1470 1468 1466 1466 1466 1466 1467 1467 1467 1467 1466 1466 1466 1466 1466 1465 1464 1464 1463 1462 1461 1460 1459 1459 1458 1458 1457 1457 1457 1456 1456 1454 1452 1452 1451 1449 1449 1448 1446 1444 1444 1442 1441 1440 1439 1438 1438 1437 1437 1437 1437 1436 1436 1435 1435 1434 1434 1432 1431 1431 1431 1431 1430 1430 1428 1428 1428 1427 1427 1427 1427 1427 1427 1426 1425 1425 1424 1424 1423 1422 1422 1422 1421 1421 1421 1420 1420 1420 1420 1420 1419 1418 1416 1416 1416 1415 1413 1412 1411 1409 1408 1408 1408 1407 1406 1405 1403 1402 1402 1402 1402 1401 1400 1400 1398 1398 1397 1397 1397 1396 1395 1395 1394 1393 1392 1392 1391 1390 1388 1388 1388 1388 1387 1386 1386 1386 1385 1384 1384 1383 1383 1382 1381 1381 1381 1380 1380 1379 1379 1378 1378 1377 1376 1376 1375 1374 1373 1373 1373 1372 1371 1370 1369 1369 1368 1367 1366 1365 1363 1362 1360 1357 1357 1357 1357 1358 1358 1358 1358 1358 1358 1357 1357 1356 1355 1355 1355 1354 1353 1353 1351 1351 1350 1350 1350 1349 1349 1349 1349 1349 1349 1349 1349 1349 1348 1348 1347 1347 1346 1346 1346 1345 1344 1344 1344 1343 1343 1341 1341 1340 1339 1338 1337 1336 1335 1334 1333 1332 1331 1331 1331 1330 1329 1329 1329 1328 1327 1326 1326 1325 1325 1324 1324 1323 1323 1323 1323 1323 1323 1325 1326 1326 1326 1326 1326 1326 1326 1326 1326 1325 1325 1325 1324 1324 1324 1324 1324 1324 1324 1324 1324 1325 1325 1325 1325 1326 1326 1326 1326 1326 1327 1327 1333 1337 1387 0 0 1671 1696 1706 1708 1710 1711 1713 1716 1718 1721 1723 1727 1730 1733 1736 1742 1746 1751 1754 1756 1758 1761 1766 1771 1775 1776 1779 1783 1786 1789 1791 1794 1798 1801 1803 1804 1806 1808 1811 1814 1816 1818 1821 1823 1825 1828 1831 1834 1838 1841 1845 1847 1849 1853 1854 1854 1856 1860 1863 1866 1870 1871 1874 1875 1878 1880 1881 1882 1882 1882 1880 1880 1880 1880 1881 1881 1881 1880 1880 1880 1877 1875 1872 1872 1872 1874 1874 1874 1873 1869 1869 1864 1849 1835 1831 1825 1823 0 0 0 0 0 0 0 0 0 0 0 0 0 0 0 0 0 0 0 0 0 0 0 0 0 0 0
2071 2064 2064 0 0 0 0 0 0 0 0 1950 1965 1987 2025 2088 2115 2115 2115 2096 2096 2096 2101 2102 2114 2114 2114 2107 2064 2026 2012 2012 2012 2016 2034 2065 2090 2107 2118 2122 2125 2127 2154 2193 2203 2229 2230 2255 2264 2286 0 0 0 2574 2826 2826 2826 2822 0 0 0 0 0 0 0 0 0 0 0 0 0 0 0 0 0 0 0 0 0 0 0 0 0 0 0 0 0 0 0 0 0 0 0 0 0 0 0 0 0 0 0 0 0 0 0 0 0 0 0 0 0 0 0 0 0 0 0 0 0 2598 2846 3011 3106 3138 3138 3138 3138 3138 3152 3173 3187 3197 3197 3197 3191 3180 3165 3165 3165 3185 3200 3211 3228 3231 3238 3265 3265 3266 3266 3266 3264 3262 3262 3262 3272 3284 3284 3284 3252 3218 3216 3205 3188 3186 3115 2975 2804 2713 2706 2706 2706 2758 2759 2762 2762 2762 2699 2532 0 0 0 0 0 0 1575 1542 1532 1524 1520 1519 1512 1508 1506 1502 1497 1494 1491 1490 1488 1487 1486 1486 1486 1485 1484 1484 1484 1483 1482 1482 1482 1482 1480 1480 1480 1479 1476 1476 1474 1473 1472 1471 1470 1470 1470 1470 1469 1466 1466 1466 1466 1466 1466 1466 1466 1466 1465 1465 1465 1465 1464 1464 1463 1462 1462 1461 1460 1459 1459 1458 1457 1456 1455 1455 1454 1454 1454 1452 1451 1450 1447 1447 1447 1446 1445 1444 1442 1441 1440 1440 1438 1438 1437 1436 1436 1436 1436 1436 1435 1435 1435 1434 1433 1432 1431 1430 1429 1429 1429 1428 1427 1426 1426 1426 1426 1426 1426 1426 1426 1426 1424 1423 1423 1422 1422 1422 1421 1420 1420 1420 1420 1420 1420 1419 1419 1418 1418 1417 1416 1414 1413 1413 1412 1409 1408 1407 1407 1406 1406 1406 1406 1404 1403 1402 1402 1401 1401 1400 1400 1400 1398 1397 1396 1396 1396 1395 1394 1393 1393 1393 1392 1391 1389 1388 1387 1387 1386 1386 1386 1386 1385 1385 1384 1383 1383 1382 1382 1381 1381 1381 1381 1380 1380 1379 1378 1378 1377 1376 1375 1375 1374 1373 1373 1372 1372 1371 1370 1370 1369 1368 1367 1366 1364 1363 1361 1360 1358 1357 1357 1357 1357 1357 1357 1358 1358 1358 1358 1356 1356 1356 1355 1355 1354 1353 1353 1352 1351 1350 1350 1350 1349 1349 1349 1349 1349 1349 1349 1349 1348 1348 1348 1347 1347 1347 1346 1346 1345 1345 1344 1344 1343 1343 1342 1341 1341 1339 1338 1338 1337 1336 1334 1333 1331 1330 1329 1329 1329 1329 1328 1328 1327 1327 1326 1325 1325 1325 1323 1323 1322 1322 1322 1322 1322 1322 1322 1324 1324 1324 1324 1325 1325 1325 1325 1325 1325 1325 1324 1324 1324 1324 1323 1323 1323 1323 1323 1323 1323 1323 1323 1324 1324 1325 1325 1325 1325 1325 1325 1326 1333 1335 1385 0 0 1663 1691 1707 1709 1711 1711 1713 1716 1718 1720 1721 1725 1727 1731 1736 1740 1743 1748 1752 1755 1757 1760 1765 1769 1772 1775 1778 1782 1785 1789 1791 1794 1798 1801 1803 1804 1806 1808 1811 1814 1817 1818 1821 1823 1825 1827 1831 1834 1837 1838 1839 1841 1843 1846 1849 1852 1855 1857 1860 1863 1866 1867 1870 1872 1876 1877 1878 1878 1878 1876 1875 1874 1874 1874 1877 1877 1877 1876 1876 1875 1872 1869 1868 1868 1868 1868 1868 1867 1865 1862 1856 1856 1848 1835 1828 1825 1823 0 0 0 0 0 0 0 0 0 0 0 0 0 0 0 0 0 0 0 0 0 0 0 0 0 0 0
2071 2064 2064 0 0 0 0 0 0 0 0 1950 1965 1987 2025 2079 2111 2111 2111 2096 2096 2096 2097 2097 2098 2097 2094 2089 2054 2026 2012 2012 2012 2016 2034 2065 2105 2107 2118 2130 2153 2164 2179 2193 2214 2229 2230 2261 2276 2303 0 0 0 0 2736 2736 2736 0 0 0 0 0 0 0 0 0 0 0 0 0 0 0 0 0 0 0 0 0 0 0 0 0 0 0 0 0 0 0 0 0 0 0 0 0 0 0 0 0 0 0 0 0 0 0 0 0 0 0 0 0 0 0 0 0 0 0 0 0 0 2516 2622 2856 3074 3138 3138 3138 3138 3138 3150 3172 3186 3193 3193 3193 3191 3180 3165 3165 3165 3177 3198 3198 3205 3212 3227 3261 3261 3261 3264 3261 3259 3247 3246 3246 3246 3253 3253 3253 3229 3201 3194 3193 3169 3159 3114 2975 2866 2812 2804 2795 2795 2795 2795 2766 2688 2665 2568 0 0 0 0 0 0 0 1572 1546 1533 1523 1517 1516 1511 1507 1505 1501 1496 1493 1491 1490 1488 1486 1485 1484 1484 1483 1483 1483 1482 1482 1482 1481 1481 1480 1480 1480 1480 1477 1475 1475 1472 1470 1470 1470 1469 1469 1469 1469 1468 1466 1465 1465 1465 1465 1465 1465 1464 1464 1464 1464 1464 1464 1464 1463 1462 1460 1459 1459 1458 1458 1458 1457 1456 1456 1454 1454 1453 1453 1452 1452 1451 1448 1447 1446 1445 1445 1444 1443 1442 1441 1440 1440 1438 1437 1437 1436 1436 1436 1436 1436 1435 1434 1434 1433 1432 1431 1430 1429 1428 1427 1427 1427 1426 1426 1426 1426 1426 1426 1426 1426 1426 1425 1424 1423 1422 1421 1420 1420 1420 1419 1419 1419 1419 1419 1419 1418 1418 1417 1415 1414 1413 1412 1411 1410 1409 1408 1406 1406 1406 1406 1405 1404 1404 1403 1403 1402 1402 1400 1400 1400 1399 1399 1397 1397 1396 1395 1394 1394 1394 1393 1392 1392 1390 1389 1388 1387 1386 1386 1386 1385 1385 1385 1384 1383 1383 1383 1383 1382 1381 1381 1381 1380 1380 1379 1379 1378 1377 1377 1376 1376 1374 1373 1373 1373 1372 1372 1371 1370 1370 1368 1367 1367 1366 1365 1364 1361 1360 1359 1358 1357 1356 1355 1355 1355 1356 1356 1356 1356 1356 1356 1355 1355 1355 1354 1354 1353 1352 1351 1351 1350 1350 1349 1349 1348 1348 1348 1348 1348 1348 1348 1348 1348 1348 1347 1347 1346 1346 1345 1345 1345 1344 1343 1343 1342 1342 1341 1339 1338 1337 1336 1335 1333 1331 1331 1331 1329 1328 1328 1327 1326 1326 1326 1326 1325 1325 1324 1324 1323 1322 1321 1321 1321 1321 1321 1321 1321 1321 1323 1323 1323 1323 1323 1324 1324 1324 1324 1324 1324 1324 1324 1323 1323 1323 1323 1323 1323 1323 1323 1323 1323 1323 1323 1323 1323 1323 1324 1324 1324 1325 1325 1333 1335 1361 0 0 1662 1691 1707 1709 1711 1712 1713 1716 1718 1720 1721 1723 1725 1728 1731 1735 1739 1744 1749 1751 1756 1760 1764 1768 1771 1774 1778 1781 1785 1789 1791 1794 1797 1801 1803 1804 1806 1808 1811 1814 1817 1818 1821 1822 1824 1826 1829 1833 1835 1836 1838 1838 1841 1844 1845 1849 1852 1855 1856 1859 1861 1863 1865 1868 1871 1872 1872 1872 1872 1871 1871 1870 1870 1870 1872 1872 1872 1872 1871 1870 1867 1865 1862 1862 1862 1862 1862 1862 1855 1849 1847 1845 1841 1834 1823 1822 0 0 0 0 0 0 0 0 0 0 0 0 0 0 0 0 0 0 0 0 0 0 0 0 0 0 0 0
2064 2060 2060 0 0 0 0 0 0 0 1908 1950 1965 1987 2025 2069 2107 2107 2107 2094 2094 2094 2096 2096 2097 2096 2093 2075 2054 2026 2021 2021 2021 2026 2034 2116 2118 2133 2134 2147 2153 2164 2179 2193 2216 2226 2251 2265 2278 2303 0 0 0 0 0 0 0 0 0 0 0 0 0 0 0 0 0 0 0 0 0 0 0 0 0 0 0 0 0 0 0 0 0 0 0 0 0 0 0 0 0 0 0 0 0 0 0 0 0 0 0 0 0 0 0 0 0 0 0 0 0 0 0 0 0 0 0 0 0 0 2608 2740 3035 3138 3138 3138 3138 3138 3147 3161 3170 3179 3191 3191 3191 3180 3162 3162 3162 3165 3170 3177 3189 3193 3219 3249 3258 3259 3259 3255 3255 3235 3228 3227 3227 3227 3229 3229 3229 3201 3180 3177 3165 3125 3084 3006 2965 2941 2937 2935 2916 2852 2812 2805 2662 2573 0 0 0 0 0 0 0 0 1572 1546 1532 1520 1515 1510 1508 1506 1505 1501 1496 1493 1491 1488 1486 1485 1484 1484 1482 1482 1482 1482 1481 1481 1481 1481 1480 1480 1479 1479 1477 1476 1475 1474 1472 1470 1470 1470 1469 1468 1468 1467 1467 1466 1464 1464 1464 1464 1463 1463 1463 1463 1463 1463 1463 1463 1462 1462 1459 1459 1458 1458 1458 1458 1457 1457 1456 1455 1454 1453 1451 1451 1451 1451 1451 1448 1447 1445 1444 1444 1443 1443 1441 1440 1440 1440 1438 1437 1437 1436 1435 1435 1435 1434 1434 1434 1433 1432 1431 1430 1429 1428 1427 1427 1426 1426 1426 1426 1426 1425 1425 1425 1425 1425 1425 1425 1424 1422 1421 1420 1418 1418 1418 1418 1418 1418 1418 1418 1418 1418 1417 1415 1413 1412 1411 1410 1410 1409 1408 1408 1406 1406 1405 1405 1404 1404 1404 1403 1402 1401 1400 1399 1399 1399 1399 1398 1397 1396 1395 1395 1394 1394 1393 1393 1391 1390 1389 1388 1387 1387 1386 1386 1386 1385 1384 1384 1383 1383 1382 1382 1382 1381 1381 1380 1380 1380 1379 1379 1378 1377 1377 1376 1376 1374 1373 1373 1373 1372 1371 1371 1371 1369 1369 1368 1366 1366 1365 1364 1363 1361 1360 1358 1358 1357 1356 1355 1355 1355 1355 1356 1356 1356 1356 1355 1355 1355 1354 1354 1354 1353 1352 1351 1350 1350 1349 1349 1348 1348 1348 1348 1348 1348 1348 1347 1347 1347 1347 1347 1346 1346 1345 1345 1345 1345 1343 1343 1342 1342 1341 1341 1339 1338 1337 1336 1334 1332 1331 1331 1330 1329 1327 1327 1325 1325 1325 1325 1325 1324 1324 1324 1323 1322 1321 1321 1320 1320 1320 1320 1320 1320 1321 1321 1322 1323 1323 1323 1323 1323 1324 1324 1324 1323 1323 1323 1323 1322 1322 1322 1322 1322 1322 1322 1322 1321 1321 1321 1322 1322 1322 1323 1323 1324 1325 1325 1332 1334 1357 0 0 1658 1696 1707 1710 1712 1713 1713 1716 1718 1720 1721 1722 1724 1725 1727 1731 1736 1740 1744 1749 1752 1757 1762 1768 1770 1774 1778 1781 1784 1786 1789 1792 1796 1799 1801 1803 1806 1808 1812 1814 1816 1818 1820 1821 1824 1825 1828 1830 1832 1833 1835 1837 1840 1842 1844 1847 1849 1851 1853 1854 1858 1860 1861 1863 1864 1864 1865 1864 1864 1864 1864 1864 1865 1867 1868 1868 1868 1866 1866 1865 1863 1861 1860 1858 1858 1856 1856 1856 1850 1844 1840 1838 1837 1829 1822 0 0 0 0 0 0 0 0 0 0 0 0 0 0 0 0 0 0 0 0 0 0 0 0 0 0 0 0 0
2060 2043 2043 0 0 0 0 0 0 0 1959 1964 1979 1999 2030 2068 2098 2098 2098 2092 2092 2092 2092 2092 2092 2091 2075 2055 2054 2034 2032 2026 2026 2026 2034 2116 2129 2133 2134 2147 2153 2164 2179 2193 2216 2226 2251 2265 2278 2303 0 0 0 0 0 0 0 0 0 0 0 0 0 0 0 0 0 0 0 0 0 0 0 0 0 0 0 0 0 0 0 0 0 0 0 0 0 0 0 0 0 0 0 0 0 0 0 0 0 0 0 0 0 0 0 0 0 0 0 0 0 0 0 0 0 0 0 0 0 0 2519 2730 2998 3131 3136 3136 3140 3147 3147 3150 3156 3162 3171 3171 3171 3167 3149 3147 3147 3146 3147 3160 3163 3179 3216 3244 3244 3245 3245 3243 3211 3208 3208 3208 3212 3223 3229 3229 3229 3201 3180 3139 3135 3121 3072 3006 3006 3006 2996 2996 2993 2904 2759 2702 2657 0 0 0 0 0 0 0 0 0 1575 1546 1532 1514 1513 1509 1507 1505 1503 1499 1494 1491 1489 1488 1485 1484 1484 1483 1482 1481 1481 1480 1480 1480 1480 1480 1479 1479 1478 1478 1476 1475 1474 1474 1472 1470 1470 1469 1469 1468 1467 1467 1466 1466 1464 1464 1463 1463 1463 1462 1462 1462 1462 1462 1462 1461 1461 1459 1458 1458 1458 1458 1458 1457 1457 1456 1456 1455 1452 1450 1449 1448 1448 1448 1446 1446 1446 1445 1443 1443 1443 1443 1441 1440 1439 1438 1437 1437 1437 1436 1435 1434 1434 1434 1433 1433 1432 1431 1430 1429 1428 1428 1426 1426 1425 1424 1424 1424 1424 1424 1424 1424 1424 1425 1425 1425 1424 1422 1421 1419 1418 1418 1417 1417 1417 1418 1418 1418 1418 1417 1416 1413 1412 1411 1410 1410 1409 1408 1407 1407 1406 1405 1405 1403 1403 1402 1402 1401 1400 1399 1398 1398 1398 1397 1397 1396 1396 1395 1395 1395 1394 1393 1393 1392 1391 1390 1388 1388 1387 1386 1386 1385 1385 1384 1384 1383 1383 1382 1382 1381 1381 1381 1380 1380 1379 1379 1379 1378 1378 1377 1376 1375 1375 1374 1373 1373 1372 1372 1371 1370 1370 1368 1368 1367 1366 1366 1364 1363 1363 1361 1359 1358 1357 1357 1356 1355 1354 1354 1354 1355 1355 1355 1355 1355 1355 1354 1354 1353 1352 1352 1351 1351 1349 1349 1348 1348 1348 1348 1347 1347 1347 1347 1347 1347 1347 1347 1346 1346 1346 1346 1345 1344 1344 1344 1343 1343 1342 1342 1341 1340 1339 1338 1337 1336 1334 1332 1330 1330 1330 1327 1326 1326 1325 1325 1324 1324 1324 1324 1324 1322 1322 1321 1320 1320 1319 1319 1319 1319 1319 1319 1319 1320 1320 1322 1322 1322 1323 1323 1323 1323 1323 1323 1323 1323 1322 1322 1321 1321 1321 1321 1321 1321 1321 1321 1321 1321 1321 1321 1321 1322 1323 1323 1323 1324 1328 1334 1353 0 0 1635 1692 1707 1710 1713 1713 1714 1716 1718 1720 1721 1722 1724 1725 1726 1728 1731 1736 1740 1743 1746 1751 1760 1767 1769 1774 1777 1780 1783 1785 1787 1791 1795 1799 1801 1803 1805 1808 1812 1814 1816 1817 1819 1821 1823 1825 1827 1828 1829 1830 1832 1834 1838 1841 1843 1845 1847 1849 1850 1851 1854 1857 1858 1859 1861 1861 1861 1861 1859 1858 1857 1857 1857 1862 1862 1862 1861 1861 1861 1860 1860 1859 1856 1852 1851 1849 1849 1846 1845 1838 1834 1833 1825 1813 0 0 0 0 0 0 0 0 0 0 0 0 0 0 0 0 0 0 0 0 0 0 0 0 0 0 0 0 0 0
2060 2041 2041 0 0 0 0 0 0 0 1994 1998 2017 2023 2038 2068 2083 2083 2087 2088 2088 2092 2092 2092 2092 2089 2072 2055 2054 2047 2036 2026 2026 2026 2033 2116 2129 2133 2134 2138 2138 2147 2166 2189 2216 2225 2251 2265 2276 2289 0 0 0 0 0 0 0 0 0 0 0 0 0 0 0 0 0 0 0 0 0 0 0 0 0 0 0 0 0 0 0 0 0 0 0 0 0 0 0 0 0 0 0 0 0 0 0 0 0 0 0 0 0 0 0 0 0 0 0 0 0 0 0 0 0 0 0 0 0 0 2519 2730 2972 3105 3112 3129 3140 3146 3146 3146 3146 3146 3146 3146 3146 3143 3128 3128 3128 3133 3135 3138 3162 3179 3208 3216 3219 3231 3231 3231 3168 3168 3168 3184 3194 3206 3215 3215 3215 3203 3180 3135 3104 3077 3032 3006 3006 3006 2996 2996 2993 2904 2759 2702 2549 0 0 0 0 0 0 0 0 0 0 1540 1522 1513 1511 1509 1506 1503 1500 1496 1494 1489 1488 1485 1485 1484 1482 1482 1481 1481 1480 1480 1480 1480 1480 1479 1478 1477 1477 1477 1476 1475 1474 1474 1472 1470 1469 1469 1468 1468 1467 1466 1466 1465 1464 1463 1462 1462 1462 1462 1462 1462 1462 1462 1461 1461 1460 1459 1458 1458 1457 1456 1455 1455 1454 1454 1454 1454 1452 1449 1447 1447 1444 1444 1444 1445 1445 1445 1443 1443 1442 1442 1441 1440 1438 1437 1437 1437 1436 1435 1435 1434 1434 1434 1432 1431 1431 1430 1429 1429 1428 1426 1426 1425 1424 1423 1423 1423 1422 1422 1422 1423 1423 1425 1425 1425 1423 1421 1420 1419 1418 1418 1417 1417 1417 1417 1417 1417 1416 1415 1413 1412 1412 1410 1410 1409 1408 1407 1406 1405 1405 1405 1403 1403 1402 1402 1401 1401 1399 1398 1397 1397 1397 1396 1396 1395 1395 1395 1394 1393 1393 1392 1392 1391 1391 1388 1387 1387 1386 1386 1385 1385 1384 1384 1383 1382 1382 1381 1381 1380 1380 1380 1379 1379 1379 1378 1378 1377 1377 1376 1375 1375 1374 1374 1372 1372 1372 1370 1370 1369 1369 1368 1367 1366 1366 1364 1364 1362 1361 1360 1358 1357 1356 1355 1355 1355 1354 1354 1354 1354 1354 1354 1354 1354 1354 1353 1353 1352 1352 1351 1350 1350 1349 1349 1348 1347 1347 1347 1347 1347 1347 1347 1347 1347 1347 1347 1346 1346 1345 1345 1345 1344 1344 1343 1343 1342 1342 1341 1341 1340 1339 1338 1336 1336 1333 1331 1329 1329 1328 1327 1325 1324 1324 1324 1323 1323 1323 1322 1322 1322 1322 1320 1320 1320 1319 1319 1319 1319 1319 1319 1319 1319 1319 1321 1321 1322 1323 1323 1323 1323 1323 1322 1322 1322 1321 1321 1321 1321 1320 1320 1320 1320 1320 1320 1319 1319 1319 1320 1320 1321 1322 1322 1322 1323 1323 1330 1348 0 0 0 1692 1707 1714 1715 1715 1716 1717 1719 1720 1721 1722 1724 1724 1726 1727 1729 1733 1737 1739 1741 1745 1750 1752 1762 1771 1776 1779 1782 1784 1786 1791 1794 1798 1801 1803 1805 1808 1812 1813 1815 1816 1818 1820 1822 1823 1825 1826 1827 1828 1830 1832 1836 1839 1841 1842 1845 1846 1847 1849 1852 1852 1854 1854 1854 1854 1856 1856 1856 1855 1851 1851 1851 1852 1853 1854 1854 1854 1855 1855 1855 1853 1848 1846 1846 1841 1839 1838 1834 1829 1828 1827 1819 0 0 0 0 0 0 0 0 0 0 0 0 0 0 0 0 0 0 0 0 0 0 0 0 0 0 0 0 0 0 0
2063 2041 2041 0 0 0 0 0 0 0 2018 2022 2047 2060 2067 2068 2079 2079 2079 2079 2079 2085 2090 2090 2090 2079 2064 2054 2054 2049 2039 2026 2026 2026 2027 2059 2077 2096 2096 2096 2096 2096 2113 2168 2216 2223 2240 2249 2249 2250 0 0 0 0 0 0 0 0 0 0 0 0 0 0 0 0 0 0 0 0 0 0 0 0 0 0 0 0 0 0 0 0 0 0 0 0 0 0 0 0 0 0 0 0 0 0 0 0 0 0 0 0 0 0 0 0 0 0 0 0 0 0 0 0 0 0 0 0 0 0 2519 2730 2963 3054 3085 3128 3140 3144 3144 3144 3135 3135 3135 3135 3135 3129 3119 3113 3113 3113 3122 3137 3147 3179 3200 3206 3209 3209 3209 3191 3163 3160 3160 3160 3180 3202 3215 3215 3215 3203 3177 3111 3077 3074 3030 2996 2996 2996 2996 2996 2993 2904 2714 2541 0 0 0 0 0 0 0 0 0 0 0 1533 1522 1513 1510 1509 1505 1501 1498 1496 1493 1489 1486 1484 1484 1482 1482 1481 1480 1479 1479 1479 1479 1479 1479 1478 1478 1477 1476 1475 1475 1475 1474 1473 1472 1470 1469 1469 1468 1468 1466 1466 1464 1464 1464 1463 1462 1462 1461 1461 1461 1462 1462 1462 1461 1461 1460 1459 1458 1456 1455 1454 1452 1451 1450 1449 1449 1449 1448 1446 1444 1443 1443 1442 1442 1442 1442 1442 1442 1442 1442 1441 1440 1440 1438 1437 1437 1436 1436 1435 1435 1434 1433 1433 1432 1431 1431 1430 1429 1428 1427 1426 1425 1424 1423 1423 1422 1422 1422 1422 1422 1422 1422 1423 1423 1423 1423 1421 1419 1419 1418 1418 1417 1417 1417 1417 1417 1417 1416 1414 1411 1411 1411 1409 1409 1407 1407 1406 1405 1404 1404 1403 1403 1402 1401 1401 1400 1400 1398 1397 1397 1396 1396 1395 1395 1394 1394 1394 1393 1392 1392 1391 1391 1391 1390 1388 1387 1386 1386 1386 1385 1385 1384 1383 1381 1381 1380 1380 1379 1379 1379 1378 1378 1378 1378 1377 1376 1376 1375 1375 1374 1374 1373 1372 1371 1371 1370 1370 1369 1369 1368 1368 1367 1365 1365 1363 1362 1361 1361 1360 1357 1356 1355 1355 1355 1354 1354 1354 1354 1354 1353 1353 1353 1352 1352 1352 1352 1351 1351 1350 1350 1348 1348 1347 1347 1347 1347 1347 1347 1347 1347 1347 1346 1346 1346 1346 1346 1345 1345 1344 1344 1344 1344 1343 1342 1341 1341 1341 1341 1340 1339 1338 1336 1336 1333 1331 1329 1328 1327 1326 1324 1324 1322 1322 1322 1322 1322 1322 1321 1321 1320 1319 1319 1319 1318 1318 1318 1318 1318 1318 1318 1319 1319 1320 1321 1321 1322 1322 1322 1322 1322 1322 1322 1321 1321 1320 1320 1320 1320 1320 1319 1319 1319 1319 1319 1319 1319 1319 1319 1320 1320 1320 1320 1322 1323 1330 1333 0 0 0 1692 1709 1717 1718 1718 1718 1718 1720 1720 1721 1722 1724 1724 1726 1727 1727 1730 1733 1736 1738 1741 1744 1746 1752 1762 1773 1777 1779 1783 1786 1790 1794 1798 1801 1803 1805 1808 1810 1813 1814 1815 1817 1818 1821 1822 1823 1825 1826 1826 1828 1831 1833 1837 1840 1841 1843 1845 1846 1847 1848 1849 1849 1849 1850 1850 1850 1851 1851 1851 1848 1844 1844 1844 1846 1847 1848 1851 1851 1851 1848 1845 1844 1843 1841 1838 1836 1832 1825 1825 1822 1812 0 0 0 0 0 0 0 0 0 0 0 0 0 0 0 0 0 0 0 0 0 0 0 0 0 0 0 0 0 0 0 0
2071 2041 2041 0 0 0 0 0 0 2008 2042 2048 2050 2060 2067 2076 2076 2078 2078 2078 2079 2085 2089 2089 2089 2079 2064 2054 2050 2049 2039 2025 2013 2013 2013 2025 2048 2074 2074 2074 2073 2073 2073 0 2205 2209 2210 2215 2219 0 0 0 0 0 0 0 0 0 0 0 0 0 0 0 0 0 0 0 0 0 0 0 0 0 0 0 0 0 0 0 0 0 0 0 0 0 0 0 0 0 0 0 0 0 0 0 0 0 0 0 0 0 0 0 0 0 0 0 0 0 0 0 0 0 0 0 0 0 0 0 2752 2755 2963 3040 3071 3111 3136 3136 3136 3129 3120 3120 3120 3121 3121 3121 3106 3102 3102 3102 3118 3129 3142 3173 3198 3198 3198 3188 3169 3157 3155 3154 3154 3155 3180 3198 3206 3206 3206 3203 3176 3106 3044 2940 2940 2940 2946 2946 2946 2908 2780 2760 2714 2541 0 0 0 0 0 0 0 0 0 0 0 1528 1520 1513 1508 1506 1501 1499 1497 1495 1493 1489 1486 1483 1482 1481 1480 1480 1479 1479 1479 1479 1479 1479 1478 1477 1477 1475 1475 1475 1474 1474 1474 1473 1472 1470 1469 1469 1468 1468 1466 1466 1464 1464 1462 1462 1462 1461 1461 1461 1461 1461 1461 1461 1461 1460 1460 1459 1458 1456 1455 1453 1451 1450 1449 1448 1447 1446 1445 1444 1443 1442 1442 1442 1441 1441 1441 1441 1441 1441 1441 1441 1440 1439 1438 1437 1436 1436 1436 1435 1434 1433 1433 1432 1431 1431 1430 1429 1428 1428 1427 1426 1424 1423 1422 1422 1422 1422 1422 1421 1420 1420 1420 1421 1422 1422 1422 1421 1418 1417 1417 1417 1417 1417 1416 1416 1416 1416 1413 1412 1411 1410 1409 1409 1407 1407 1406 1406 1405 1404 1403 1402 1402 1402 1401 1400 1399 1398 1397 1397 1397 1395 1395 1395 1394 1393 1393 1392 1391 1391 1391 1391 1390 1389 1388 1387 1386 1386 1386 1386 1385 1384 1383 1382 1381 1380 1379 1379 1378 1378 1378 1378 1377 1377 1377 1377 1376 1375 1375 1374 1373 1373 1372 1371 1371 1370 1369 1369 1369 1368 1367 1367 1366 1365 1364 1362 1361 1361 1360 1358 1357 1355 1355 1355 1355 1353 1353 1353 1353 1353 1353 1353 1352 1352 1352 1352 1351 1351 1350 1350 1349 1348 1347 1347 1347 1347 1347 1346 1346 1346 1346 1346 1346 1346 1346 1345 1345 1344 1344 1344 1344 1344 1343 1342 1341 1341 1341 1341 1340 1340 1338 1337 1336 1335 1333 1331 1329 1328 1326 1324 1323 1323 1322 1322 1321 1321 1321 1321 1320 1320 1319 1318 1318 1318 1317 1317 1317 1317 1317 1317 1317 1317 1318 1319 1320 1320 1321 1322 1322 1322 1321 1321 1321 1320 1320 1320 1320 1319 1319 1319 1318 1318 1318 1318 1318 1318 1318 1318 1318 1318 1319 1319 1319 1320 1322 1330 1333 0 0 0 1686 1709 1719 1719 1720 1720 1720 1720 1720 1721 1722 1724 1724 1725 1726 1727 1729 1731 1734 1735 1737 1739 1740 1746 1753 1764 1770 1772 1776 1784 1788 1793 1797 1800 1802 1805 1808 1810 1811 1813 1814 1815 1817 1819 1821 1823 1824 1824 1825 1826 1829 1832 1835 1837 1839 1840 1842 1844 1845 1845 1845 1845 1846 1846 1846 1846 1846 1846 1846 1844 1843 1841 1841 1841 1841 1843 1846 1846 1846 1841 1837 1836 1834 1834 1834 1832 1829 1820 1813 1806 0 0 0 0 0 0 0 0 0 0 0 0 0 0 0 0 0 0 0 0 0 0 0 0 0 0 0 0 0 0 0 0 0
2088 2034 0 0 0 0 0 0 0 2018 2042 2048 2050 2060 2067 2076 2076 2078 2078 2078 2079 2085 2089 2089 2089 2079 2064 2054 2049 2043 2039 2024 2010 2010 2010 2023 2037 2051 2068 2068 2068 2068 2068 0 2184 2203 2210 2210 2210 0 0 0 0 0 0 0 0 0 0 0 0 0 0 0 0 0 0 0 0 0 0 0 0 0 0 0 0 0 0 0 0 0 0 0 0 0 0 0 0 0 0 0 0 0 0 0 0 0 0 0 0 0 0 0 0 0 0 0 0 0 0 0 0 0 0 0 0 0 0 2582 2849 2852 2963 3008 3044 3070 3088 3105 3105 3105 3106 3106 3106 3106 3106 3098 3082 3082 3082 3089 3105 3129 3131 3137 3139 3142 3142 3142 3126 3125 3123 3123 3123 3134 3150 3152 3165 3165 3165 3152 3076 3002 2930 2827 2826 2770 2759 2759 2759 2760 2760 2760 2714 2541 0 0 0 0 0 0 0 0 0 0 0 1527 1516 1513 1507 1506 1501 1498 1495 1494 1492 1489 1486 1483 1481 1480 1480 1479 1479 1478 1478 1477 1477 1477 1477 1477 1476 1475 1474 1474 1473 1473 1473 1471 1471 1470 1469 1468 1467 1466 1466 1465 1464 1463 1462 1461 1461 1461 1460 1460 1460 1460 1460 1461 1461 1461 1460 1459 1458 1456 1455 1453 1451 1450 1449 1448 1447 1446 1444 1443 1442 1442 1441 1441 1440 1440 1440 1440 1440 1440 1440 1440 1440 1438 1438 1437 1436 1436 1435 1434 1434 1433 1432 1432 1431 1431 1430 1429 1428 1427 1426 1425 1424 1422 1422 1422 1422 1421 1421 1421 1420 1419 1419 1419 1419 1419 1419 1417 1416 1416 1415 1415 1415 1416 1415 1415 1415 1414 1413 1412 1410 1409 1408 1407 1407 1406 1405 1405 1404 1403 1402 1402 1402 1401 1400 1399 1399 1398 1397 1397 1397 1395 1395 1394 1393 1392 1391 1391 1390 1390 1390 1390 1389 1388 1387 1386 1386 1385 1385 1385 1385 1384 1383 1381 1381 1379 1378 1378 1377 1377 1377 1377 1376 1376 1376 1375 1375 1374 1373 1373 1372 1372 1371 1370 1370 1369 1369 1368 1368 1367 1366 1366 1365 1364 1364 1362 1361 1360 1359 1358 1356 1355 1355 1354 1353 1353 1353 1353 1352 1352 1352 1351 1351 1351 1351 1351 1350 1350 1349 1349 1347 1347 1346 1346 1346 1346 1346 1346 1346 1345 1345 1345 1345 1345 1345 1345 1345 1344 1343 1343 1343 1343 1343 1342 1341 1341 1341 1340 1339 1338 1338 1336 1335 1334 1332 1330 1329 1328 1325 1324 1322 1321 1321 1321 1321 1321 1320 1320 1320 1319 1318 1318 1317 1317 1316 1316 1316 1316 1316 1316 1316 1316 1317 1317 1318 1319 1319 1319 1320 1320 1320 1320 1320 1320 1319 1319 1319 1318 1318 1318 1318 1317 1317 1317 1317 1317 1317 1317 1318 1318 1318 1318 1318 1319 1321 1330 1332 0 0 0 1684 1713 1719 1719 1720 1720 1720 1720 1721 1721 1723 1724 1725 1725 1726 1726 1727 1729 1733 1735 1736 1737 1738 1740 1747 1756 1765 1769 1775 1780 1784 1788 1793 1797 1801 1803 1806 1808 1810 1811 1813 1815 1816 1818 1819 1821 1822 1823 1823 1825 1828 1831 1833 1835 1836 1837 1839 1841 1842 1842 1842 1842 1842 1842 1843 1843 1843 1843 1843 1843 1840 1838 1838 1838 1838 1840 1842 1842 1842 1835 1833 1833 1832 1832 1831 1828 1817 1806 1796 0 0 0 0 0 0 0 0 0 0 0 0 0 0 0 0 0 0 0 0 0 0 0 0 0 0 0 0 0 0 0 0 0 0
2092 2034 0 0 0 0 0 0 0 2018 2042 2048 2050 2052 2060 2076 2076 2079 2083 2085 2086 2087 2089 2089 2089 2087 2068 2049 2041 2041 2027 2023 2007 2007 2007 2023 2037 2051 2051 2053 2053 2053 0 0 2178 2203 2205 2205 2205 0 0 0 0 0 0 0 0 0 0 0 0 0 0 0 0 0 0 0 0 0 0 0 0 0 0 0 0 0 0 0 0 0 0 0 0 0 0 0 0 0 0 0 0 0 0 0 0 0 0 0 0 0 0 0 0 0 0 0 0 0 0 0 0 0 0 0 0 0 2611 2811 2879 2960 2963 3002 3039 3066 3070 3077 3077 3077 3079 3079 3080 3080 3080 3069 3050 3050 3050 3070 3095 3095 3095 3089 3089 3089 3110 3110 3112 3112 3112 3112 3118 3118 3118 3130 3112 3110 3110 3022 2928 2817 2679 2631 2619 2619 2619 2730 2737 2760 2780 2794 2780 2788 2788 2780 2767 2703 2620 0 0 0 0 0 1531 1513 1512 1511 1507 1506 1501 1498 1495 1493 1491 1489 1486 1482 1481 1480 1479 1479 1478 1477 1477 1477 1477 1477 1476 1476 1475 1474 1473 1473 1472 1472 1471 1471 1470 1468 1468 1467 1466 1465 1465 1464 1463 1462 1461 1461 1460 1460 1460 1460 1459 1459 1459 1460 1460 1460 1460 1459 1458 1456 1454 1453 1451 1449 1448 1448 1447 1445 1443 1442 1441 1440 1440 1439 1439 1438 1438 1438 1439 1439 1439 1439 1439 1438 1437 1436 1436 1435 1435 1434 1434 1433 1432 1431 1431 1430 1429 1428 1428 1427 1426 1424 1424 1422 1422 1422 1421 1421 1421 1421 1419 1418 1418 1418 1418 1416 1416 1415 1414 1414 1414 1414 1414 1415 1415 1415 1414 1413 1412 1411 1410 1409 1408 1407 1406 1405 1404 1404 1403 1403 1402 1401 1401 1400 1400 1399 1398 1397 1397 1396 1395 1395 1394 1393 1392 1390 1389 1389 1389 1389 1389 1388 1388 1387 1386 1385 1385 1385 1385 1385 1385 1384 1382 1381 1379 1379 1378 1378 1377 1376 1376 1376 1376 1375 1375 1375 1374 1374 1372 1372 1371 1371 1370 1370 1368 1368 1368 1367 1367 1367 1366 1365 1365 1363 1363 1362 1361 1360 1358 1357 1355 1355 1354 1353 1353 1353 1352 1352 1351 1350 1350 1350 1350 1350 1350 1350 1349 1349 1349 1348 1347 1346 1346 1346 1346 1345 1345 1345 1345 1344 1344 1344 1345 1345 1345 1344 1344 1343 1343 1343 1343 1343 1342 1342 1341 1340 1340 1340 1339 1338 1337 1335 1334 1333 1331 1329 1328 1327 1325 1323 1322 1321 1321 1321 1321 1321 1320 1320 1320 1319 1318 1318 1317 1316 1316 1316 1316 1316 1316 1316 1316 1316 1316 1317 1317 1318 1318 1318 1318 1319 1319 1319 1319 1319 1319 1319 1318 1318 1317 1317 1317 1317 1316 1316 1316 1316 1316 1317 1317 1317 1317 1317 1318 1318 1321 1329 1332 0 0 0 1683 1711 1720 1721 1721 1721 1721 1721 1721 1722 1724 1724 1725 1725 1726 1726 1727 1728 1729 1731 1733 1735 1738 1739 1744 1750 1754 1763 1771 1777 1782 1785 1787 1792 1794 1798 1802 1806 1808 1810 1812 1815 1816 1817 1819 1820 1821 1821 1822 1824 1827 1829 1832 1834 1834 1835 1836 1838 1839 1839 1839 1839 1839 1839 1839 1840 1840 1840 1840 1840 1837 1836 1835 1834 1834 1834 1837 1837 1837 1832 1831 1830 1828 1827 1822 1822 1805 1791 0 0 0 0 0 0 0 0 0 0 0 0 0 0 0 0 0 0 0 0 0 0 0 0 0 0 0 0 0 0 0 0 0 0 0
