0 0 0 0 0 0 0 0 0 0 0 0 0 0 0 0 0 0 0 0 0 0 0 0 0 0 0 0 0 0 0 0 0 0 0 0 0 0 0 0 0 0 0 0 0 0 0 0 0 0 0 0 0 0 0 0 0 0 0 0 0 0 1597 1593 1585 1585 1585 1603 1638 1657 1657 1657 1654 1654 1654 1659 1665 1673 1686 1692 1694 1697 1701 1705 1716 1727 1738 1744 1745 1745 1744 1744 1740 1711 1689 0 0 0 0 0 0 0 0 0 0 0 0 0 0 0 0 0 0 0 0 0 0 0 0 0 0 0 0 0 0 0 0 0 0 0 0 0 0 0 0 0 0 0 0 0 0 0 0 0 0 0 0 0 0 0 0 0 0 0 0 0 0 0 0 0 0 0 0 0 0 0 0 0 0 0 0 0 2226 2226 2222 2222 2218 2222 2226 2257 2290 2290 2290 2283 2283 2283 0 0 2462 2513 2550 2551 2554 2563 2563 2569 2585 2594 2594 2594 2584 2568 2521 0 0 0 0 0 2083 2071 2061 2055 2045 2031 2020 2014 2010 2008 2002 1992 1983 1977 1970 1964 1960 1956 1952 1948 1942 1937 1932 1926 1923 1921 1917 1914 1913 1912 1910 1908 1906 1906 1904 1904 1902 1900 1898 1897 1895 1893 1892 1890 1888 1887 1885 1884 1882 1880 1879 1878 1877 1876 1875 1873 1872 1871 1871 1870 1869 1868 1868 1867 1865 1865 1864 1863 1862 1860 1860 1858 1857 1856 1855 1854 1853 1853 1852 1850 1849 1849 1848 1848 1847 1847 1847 1846 1846 1844 1844 1842 1842 1841 1840 1839 1838 1838 1837 1837 1836 1834 1833 1833 1832 1831 1831 1830 1829 1829 1828 1828 1827 1826 1825 1824 1824 1822 1822 1821 1821 1821 1820 1820 1819 1818 1818 1817 1817 1815 1814 1813 1811 1811 1811 1810 1808 1806 1806 1806 1805 1804 1802 1801 1800 1799 1798 1796 1795 1794 1793 1793 1793 1793 1794 1794 1796 1798 1800 1801 1802 1804 1806 1808 1808 1809 1810 1811 1811 1811 1811 1811 1811 1811 1812 1812 1813 1814 1815 1816 1817 1817 1818 1818 1819 1820 1820 1820 1821 1822 1823 1823 1823 1824 1825 1826 1826 1827 1828 1828 1829 1829 1829 1830 1831 1832 1832 1833 1833 1834 1834 1835 1836 1838 1838 1839 1839 1840 1840 1840 1840 1841 1841 1841 1842 1843 1844 1845 1846 1847 1848 1849 1849 1850 1850 1850 1851 1851 1851 1852 1852 1852 1853 1853 1853 1852 1852 1852 1852 1854 1857 1857 1857 1856 1854 1854 1853 1852 1852 1843 1834 1831 0 0 0 0 0 0 0 0 0 0 0 0 0 0 0 1095 1081 1075 1072 1071 1070 1067 1058 1049 1043 1042 1042 1041 1040 1039 1038 1036 1034 1034 1029 1029 1029 1030 1031 1035 1038 1040 1041 1041 1041 1038 1038 1038 1038 1037 1037 1031 1027 1025 1025 1025 1025 1029 1029 1031 1032 1038 1042 1042 1044 1044 1044 1043 1042 1042 1042 1042 1042 1042 1042 1041 1041 1041 1042 1042 1042 1042 1041 1041 1041 1041 1041 1039 1038 1037 1035 1034 1034 1034 1034 1034 1034 1034 1034 1035 1035 1037 1038 1038 1039 1039 1039 1038 1037 1037 1037 1037 1039 1039 1039 1040 1043 1046 1046 1046 1047 1048 1048 1049 1050 1051 1052 1053 1054 1054 1054 1052 1051 1050 1050 1049 1048 1048 1049 1052 1056 1061 1064 1065 1065 1066 1067 1067 1068 1068 1070 1078 1086 1086 1086 1086 1080 1080 1080 1080 1081 1082 1084 1098 1105 1107 1109 1112 1114 1114
0 0 0 0 0 0 0 0 0 0 0 0 0 0 0 0 0 0 0 0 0 0 0 0 0 0 0 0 0 0 0 0 0 0 0 0 0 0 0 0 0 0 0 0 0 0 0 0 0 0 0 0 0 0 0 0 0 0 0 0 0 0 0 1593 1591 1591 1591 1603 1638 1645 1653 1653 1653 1653 1655 1659 1665 1673 1686 1693 1694 1697 1701 1705 1716 1727 1736 1743 1745 1745 1745 1744 1744 1729 1694 0 0 0 0 0 0 0 0 0 0 0 0 0 0 0 0 0 0 0 0 0 0 0 0 0 0 0 0 0 0 0 0 0 0 0 0 0 0 0 0 0 0 0 0 0 0 0 0 0 0 0 0 0 0 0 0 0 0 0 0 0 0 0 0 0 0 0 0 0 0 0 0 0 0 0 0 2198 2211 2217 2224 2224 2224 2231 2235 2261 2289 2289 2289 2269 2269 2269 0 0 2442 2496 2531 2534 2534 2543 2543 2549 2567 2572 2572 2572 2566 2552 0 0 0 0 0 2096 2074 2059 2052 2045 2037 2027 2018 2011 2009 2008 2002 1990 1980 1973 1967 1963 1959 1954 1950 1945 1941 1935 1930 1925 1921 1919 1916 1913 1912 1910 1909 1908 1905 1904 1903 1902 1901 1899 1897 1896 1894 1893 1891 1889 1887 1886 1885 1883 1881 1879 1878 1876 1876 1876 1874 1873 1872 1871 1871 1870 1870 1869 1868 1867 1865 1865 1864 1862 1861 1860 1859 1858 1857 1856 1855 1854 1852 1851 1850 1849 1849 1849 1848 1847 1846 1846 1846 1845 1845 1843 1842 1842 1842 1841 1840 1839 1838 1838 1837 1837 1835 1834 1833 1833 1832 1831 1831 1830 1829 1829 1828 1828 1827 1826 1825 1824 1824 1822 1822 1821 1821 1821 1820 1820 1819 1817 1817 1816 1816 1814 1813 1812 1811 1810 1810 1808 1807 1806 1805 1804 1804 1803 1801 1800 1800 1798 1797 1795 1794 1794 1793 1793 1793 1794 1795 1795 1796 1798 1800 1801 1803 1806 1807 1808 1811 1811 1812 1813 1813 1813 1813 1813 1813 1813 1814 1814 1815 1816 1816 1816 1817 1818 1819 1819 1819 1820 1820 1821 1822 1823 1823 1823 1824 1825 1825 1826 1826 1827 1828 1828 1828 1829 1829 1830 1831 1832 1832 1833 1833 1834 1834 1835 1836 1838 1838 1839 1840 1840 1840 1840 1841 1841 1841 1841 1842 1843 1844 1845 1846 1847 1848 1849 1849 1850 1850 1850 1850 1851 1851 1851 1851 1852 1852 1851 1851 1851 1851 1851 1851 1854 1854 1854 1854 1853 1850 1850 1843 1836 1831 1822 1811 0 0 0 0 0 0 0 0 0 0 0 0 0 0 0 1098 1087 1079 1073 1069 1063 1059 1053 1043 1033 1030 1030 1030 1031 1031 1031 1029 1028 1027 1027 1025 1025 1025 1026 1028 1031 1034 1037 1037 1037 1036 1034 1033 1032 1032 1026 1023 1018 1015 1013 1013 1013 1013 1017 1018 1025 1025 1026 1026 1032 1038 1038 1038 1036 1036 1036 1036 1036 1036 1037 1038 1038 1038 1038 1038 1037 1037 1037 1036 1036 1036 1036 1034 1034 1034 1032 1031 1031 1030 1030 1030 1030 1030 1030 1031 1032 1032 1032 1032 1032 1032 1032 1033 1033 1033 1032 1032 1032 1033 1033 1034 1035 1037 1042 1043 1043 1044 1046 1046 1047 1047 1047 1048 1049 1052 1052 1052 1051 1049 1048 1046 1045 1043 1043 1043 1045 1048 1050 1052 1052 1054 1054 1054 1054 1052 1052 1052 1054 1062 1064 1067 1067 1067 1066 1066 1066 1069 1070 1075 1082 1089 1090 1091 1092 1096 1096
0 0 0 0 0 0 0 0 0 0 0 0 0 0 0 0 0 0 0 0 0 0 0 0 0 0 0 0 0 0 0 0 0 0 0 0 0 0 0 0 0 0 0 0 0 0 0 0 0 0 0 0 0 0 0 0 0 0 0 0 0 0 0 0 1593 1593 1595 1602 1620 1630 1634 1634 1646 1659 1665 1665 1672 1681 1692 1693 1694 1697 1701 1705 1716 1727 1734 1739 1741 1742 1745 1745 1745 1745 1737 0 0 0 0 0 0 0 0 0 0 0 0 0 0 0 0 0 0 0 0 0 0 0 0 0 0 0 0 0 0 0 0 0 0 0 0 0 0 0 0 0 0 0 0 0 0 0 0 0 0 0 0 0 0 0 0 0 0 0 0 0 0 0 0 0 0 0 0 0 0 0 0 0 0 2184 2190 2198 2211 2216 2219 2220 2224 2235 2253 2279 2279 2279 2279 2240 2240 2240 0 0 2427 2472 2507 2515 2515 2521 2523 2527 2542 2542 2542 2542 2540 2533 0 0 0 0 0 2086 2068 2049 2041 2037 2032 2024 2016 2008 2005 2002 1998 1986 1978 1973 1967 1961 1957 1952 1948 1943 1936 1931 1927 1924 1920 1917 1913 1912 1910 1909 1907 1905 1903 1902 1901 1900 1899 1898 1896 1894 1893 1891 1891 1888 1887 1886 1884 1882 1880 1879 1877 1876 1876 1875 1874 1873 1872 1871 1871 1871 1870 1869 1868 1867 1866 1865 1864 1862 1861 1860 1859 1858 1857 1856 1855 1854 1852 1851 1850 1849 1849 1848 1848 1847 1846 1845 1845 1845 1843 1843 1842 1841 1841 1840 1840 1839 1838 1838 1837 1836 1835 1834 1833 1832 1832 1831 1831 1830 1829 1829 1828 1828 1827 1826 1825 1824 1824 1822 1822 1821 1820 1820 1820 1820 1819 1817 1816 1815 1814 1813 1812 1811 1810 1809 1808 1808 1806 1805 1805 1804 1803 1802 1801 1800 1799 1798 1797 1795 1794 1793 1793 1793 1793 1794 1795 1796 1797 1798 1801 1802 1805 1807 1808 1810 1811 1813 1813 1813 1814 1815 1815 1815 1815 1815 1815 1815 1815 1817 1817 1818 1819 1820 1821 1821 1822 1822 1822 1823 1824 1824 1824 1824 1825 1825 1826 1826 1827 1828 1828 1828 1829 1829 1829 1830 1831 1832 1832 1833 1833 1834 1834 1835 1836 1838 1839 1839 1840 1841 1841 1841 1842 1842 1843 1843 1844 1844 1844 1845 1846 1847 1848 1849 1849 1850 1850 1850 1850 1851 1851 1850 1850 1850 1850 1850 1849 1848 1846 1845 1845 1845 1851 1852 1852 1852 1848 1845 1839 1830 1823 1801 0 0 0 0 0 0 0 0 0 0 0 0 0 0 0 1098 1090 1084 1079 1071 1062 1048 1044 1038 1032 1024 1020 1019 1018 1018 1018 1019 1019 1019 1019 1019 1019 1020 1022 1024 1027 1029 1030 1032 1032 1032 1031 1030 1027 1026 1023 1016 1013 1010 1008 1006 1005 1005 1005 1008 1013 1013 1014 1014 1019 1019 1023 1026 1027 1027 1029 1029 1029 1029 1029 1030 1030 1030 1030 1030 1031 1031 1031 1031 1029 1026 1025 1024 1024 1024 1026 1026 1026 1026 1025 1025 1025 1025 1026 1027 1027 1028 1028 1028 1026 1025 1025 1025 1026 1026 1026 1026 1026 1026 1028 1028 1029 1029 1032 1038 1039 1039 1040 1040 1045 1046 1046 1046 1046 1046 1049 1051 1051 1051 1046 1045 1042 1040 1039 1039 1039 1040 1041 1043 1043 1043 1044 1045 1045 1045 1042 1041 1041 1041 1043 1044 1053 1053 1053 1052 1052 1052 1060 1063 1069 1072 1076 1077 1078 1078 1083 1083
0 0 0 0 0 0 0 0 0 0 0 0 0 0 0 0 0 0 0 0 0 0 0 0 0 0 0 0 0 0 0 0 0 0 0 0 0 0 0 0 0 0 0 0 0 0 0 0 0 0 0 0 0 0 0 0 0 0 0 0 0 0 0 0 1587 1589 1589 1589 1596 1608 1623 1629 1645 1659 1665 1665 1672 1681 1692 1693 1694 1697 1701 1705 1709 1721 1727 1729 1730 1730 1732 1746 1746 1746 1744 0 0 0 0 0 0 0 0 0 0 0 0 0 0 0 0 0 0 0 0 0 0 0 0 0 0 0 0 0 0 0 0 0 0 0 0 0 0 0 0 0 0 0 0 0 0 0 0 0 0 0 0 0 0 0 0 0 0 0 0 0 0 0 0 0 0 0 0 0 0 0 0 0 2185 2190 2191 2198 2207 2209 2216 2220 2224 2237 2256 2279 2279 2279 2240 2224 2224 2224 0 0 2419 2456 2485 2498 2504 2513 2513 2513 2519 2519 2521 2521 2519 2482 0 0 0 0 2119 2083 2060 2038 2033 2030 2027 2023 2014 2007 2000 1997 1993 1986 1978 1972 1967 1961 1956 1951 1946 1941 1935 1931 1926 1923 1919 1916 1912 1910 1909 1908 1907 1904 1902 1901 1899 1898 1897 1896 1894 1893 1892 1891 1889 1888 1886 1885 1884 1882 1880 1878 1876 1875 1875 1875 1874 1873 1872 1871 1871 1871 1870 1869 1868 1867 1866 1865 1864 1862 1861 1859 1858 1857 1856 1856 1855 1853 1852 1851 1850 1849 1849 1848 1847 1846 1846 1845 1844 1844 1843 1842 1842 1841 1841 1839 1839 1838 1838 1837 1837 1836 1835 1834 1833 1832 1832 1831 1830 1830 1829 1829 1828 1827 1826 1826 1825 1824 1823 1822 1822 1821 1820 1820 1820 1819 1818 1817 1816 1815 1814 1812 1811 1811 1810 1808 1808 1806 1805 1804 1803 1803 1802 1801 1801 1800 1799 1798 1796 1795 1794 1793 1793 1793 1793 1794 1796 1796 1798 1799 1801 1803 1805 1807 1808 1811 1813 1814 1814 1815 1815 1815 1816 1816 1816 1816 1817 1817 1817 1819 1820 1820 1821 1822 1823 1823 1824 1824 1825 1825 1826 1826 1826 1827 1828 1828 1828 1828 1828 1828 1829 1829 1829 1829 1830 1830 1832 1832 1833 1833 1833 1834 1835 1835 1837 1838 1839 1840 1841 1841 1842 1843 1843 1843 1844 1844 1844 1844 1845 1845 1846 1847 1848 1849 1850 1850 1850 1850 1850 1850 1850 1849 1849 1849 1848 1848 1848 1847 1846 1841 1841 1841 1846 1846 1846 1840 1835 1829 1820 1808 1773 1696 0 0 0 0 0 0 0 0 0 0 0 0 0 0 1096 1090 1087 1084 1077 1068 1053 1035 1033 1028 1020 1013 1012 1012 1012 1012 1012 1011 1011 1011 1011 1012 1014 1016 1018 1021 1024 1026 1026 1027 1027 1027 1026 1024 1022 1019 1015 1012 1008 1006 1002 997 997 997 1001 1003 1003 1004 1004 1004 1008 1011 1013 1016 1017 1018 1019 1020 1020 1020 1020 1019 1017 1016 1015 1015 1015 1016 1016 1016 1014 1011 1011 1011 1011 1012 1016 1016 1016 1015 1015 1015 1016 1021 1021 1023 1023 1023 1023 1021 1020 1020 1020 1020 1022 1023 1023 1023 1023 1023 1025 1025 1025 1026 1029 1033 1034 1035 1037 1037 1042 1044 1044 1044 1044 1044 1044 1047 1047 1047 1045 1042 1039 1037 1037 1036 1036 1036 1036 1036 1036 1037 1037 1037 1037 1037 1034 1033 1032 1032 1032 1032 1037 1043 1044 1045 1045 1046 1049 1056 1059 1059 1060 1065 1068 1071 1073 1073
0 0 0 0 0 0 0 0 0 0 0 0 0 0 0 0 0 0 0 0 0 0 0 0 0 0 0 0 0 0 1675 1694 1694 1694 1686 1686 1686 1697 1707 1707 0 0 0 0 0 0 0 0 0 0 0 0 0 0 0 0 0 0 0 0 0 0 0 0 1587 1587 1587 1587 1588 1597 1614 1627 1645 1659 1665 1665 1672 1681 1686 1691 1692 1697 1701 1705 1709 1721 1727 1727 1727 1727 1728 1743 1744 1744 1744 0 0 0 0 0 0 0 0 0 0 0 0 0 0 0 0 0 0 0 0 0 0 0 0 0 0 0 0 0 0 0 0 0 0 0 0 0 0 0 0 0 0 0 0 0 0 0 0 0 0 0 0 0 0 0 0 0 0 0 0 0 0 0 0 0 0 2058 2058 2062 2066 2066 2103 2163 2185 2194 2196 2198 2201 2204 2204 2207 2224 2238 2256 2266 2266 2266 2210 2210 2210 2217 0 0 2409 2448 2475 2491 2504 2507 2507 2507 2506 2506 2504 2503 2495 0 0 0 0 2114 2078 2075 2057 2032 2025 2025 2023 2020 2013 2005 1999 1994 1989 1983 1977 1971 1966 1960 1955 1951 1945 1940 1935 1930 1926 1923 1919 1915 1912 1910 1909 1907 1906 1904 1902 1901 1898 1897 1896 1894 1893 1891 1890 1889 1888 1886 1885 1884 1882 1880 1879 1876 1875 1875 1875 1874 1873 1873 1872 1871 1871 1871 1871 1870 1869 1867 1866 1865 1864 1862 1861 1859 1858 1857 1856 1856 1855 1853 1852 1851 1850 1849 1848 1847 1847 1845 1845 1845 1844 1843 1843 1841 1841 1841 1839 1839 1839 1838 1837 1837 1836 1836 1835 1834 1833 1832 1832 1831 1830 1830 1829 1829 1828 1827 1826 1826 1825 1824 1823 1822 1821 1820 1820 1819 1819 1818 1817 1816 1815 1815 1814 1812 1811 1811 1810 1808 1807 1806 1805 1804 1803 1802 1801 1801 1800 1800 1799 1798 1796 1795 1794 1793 1793 1793 1793 1794 1796 1797 1798 1800 1802 1803 1807 1808 1811 1811 1813 1815 1815 1816 1816 1817 1817 1818 1818 1818 1818 1819 1819 1820 1822 1822 1823 1823 1824 1825 1825 1826 1826 1827 1827 1827 1828 1829 1830 1830 1830 1830 1831 1831 1831 1831 1831 1831 1832 1833 1833 1833 1833 1834 1835 1836 1837 1839 1840 1841 1841 1842 1842 1843 1844 1844 1844 1844 1844 1844 1844 1844 1845 1846 1846 1847 1848 1849 1850 1850 1850 1850 1850 1850 1849 1848 1848 1848 1848 1848 1848 1846 1845 1840 1840 1839 1839 1838 1831 1824 0 0 0 0 0 0 0 0 0 0 0 0 0 0 0 0 1159 1119 1099 1091 1087 1087 1082 1077 1073 1061 1041 1030 1023 1018 1011 1008 1007 1007 1007 1007 1007 1008 1008 1008 1008 1008 1008 1011 1011 1017 1021 1023 1023 1023 1023 1022 1021 1019 1016 1014 1010 1006 1003 1001 996 994 994 994 996 997 998 998 998 1000 1002 1005 1007 1009 1010 1012 1012 1012 1010 1009 1008 1007 1007 1007 1007 1006 1005 1005 1005 1005 1003 1003 1002 1001 1000 1000 1000 1001 1002 1003 1004 1009 1011 1014 1016 1019 1019 1019 1017 1015 1015 1015 1015 1016 1018 1018 1018 1018 1018 1018 1019 1024 1024 1024 1024 1027 1030 1031 1031 1033 1036 1041 1041 1041 1039 1039 1039 1043 1043 1043 1040 1037 1035 1033 1032 1032 1032 1031 1031 1031 1031 1031 1031 1031 1030 1029 1027 1027 1027 1026 1026 1026 1026 1031 1036 1038 1039 1040 1042 1048 1050 1050 1052 1055 1064 1066 1067 1067
0 0 0 0 0 0 0 0 0 0 0 0 0 0 0 0 0 0 0 0 0 0 0 0 0 0 0 0 0 0 0 1698 1707 1709 1709 1707 1707 1709 1707 1706 0 0 0 0 0 0 0 0 0 0 0 0 0 0 0 0 0 0 0 0 0 0 0 0 1573 1574 1576 1584 1588 1597 1606 1611 1626 1638 1649 1656 1664 1673 1679 1684 1686 1697 1702 1705 1709 1721 1721 1721 1721 1721 1721 1743 1743 1743 1737 0 0 0 0 0 0 0 0 0 0 0 0 0 0 0 0 0 0 0 0 0 0 0 0 0 0 0 0 0 0 0 0 0 0 0 0 0 0 0 0 0 0 0 0 0 0 0 0 0 0 0 0 0 0 0 0 0 0 0 0 0 0 0 0 0 0 2058 2068 2068 2070 2088 2120 2163 2185 2194 2196 2196 2195 2198 2201 2206 2224 2240 2253 2263 2263 2263 2209 2207 2207 2207 0 0 2394 2429 2461 2488 2500 2503 2505 2505 2505 2502 2502 2502 2484 0 0 0 0 2109 2078 2074 2050 2030 2025 2021 2021 2019 2011 2005 1996 1992 1987 1981 1975 1971 1966 1960 1955 1950 1945 1940 1935 1930 1926 1923 1919 1915 1912 1909 1908 1907 1906 1903 1900 1899 1897 1896 1895 1893 1892 1890 1889 1888 1887 1886 1883 1882 1882 1880 1878 1876 1875 1874 1874 1873 1873 1873 1872 1871 1871 1871 1871 1870 1869 1868 1866 1865 1864 1862 1861 1859 1858 1857 1856 1855 1855 1853 1852 1851 1850 1849 1848 1847 1846 1845 1844 1843 1843 1843 1842 1841 1840 1840 1839 1839 1838 1837 1837 1836 1836 1835 1835 1834 1833 1832 1831 1831 1830 1830 1829 1829 1828 1827 1826 1826 1824 1823 1823 1822 1821 1820 1820 1819 1818 1817 1817 1815 1814 1814 1813 1812 1811 1810 1809 1808 1806 1805 1804 1803 1802 1801 1800 1800 1800 1799 1799 1798 1796 1795 1794 1793 1793 1793 1793 1795 1797 1797 1799 1801 1802 1805 1807 1809 1811 1813 1814 1815 1817 1817 1818 1818 1818 1820 1820 1820 1820 1820 1820 1821 1823 1823 1825 1825 1826 1826 1827 1827 1827 1828 1828 1828 1830 1830 1831 1832 1832 1832 1832 1832 1832 1833 1833 1833 1833 1833 1833 1834 1834 1835 1837 1837 1838 1840 1841 1843 1843 1844 1844 1844 1844 1845 1845 1846 1846 1846 1846 1846 1846 1847 1847 1848 1848 1849 1850 1850 1850 1850 1850 1850 1849 1848 1848 1848 1848 1848 1846 1845 1842 1838 1838 1838 1838 1828 1816 0 0 0 0 0 0 0 0 0 0 0 0 0 0 0 0 0 1116 1099 1089 1085 1083 1079 1076 1067 1064 1052 1033 1020 1014 1010 1007 1005 1004 1001 1001 1001 1001 1002 1003 1003 1004 1005 1006 1007 1008 1010 1018 1019 1019 1019 1018 1017 1016 1014 1013 1010 1005 1001 999 997 993 990 990 990 993 993 993 993 993 993 997 998 999 1001 1002 1003 1003 1003 1000 999 999 999 999 1000 1000 1000 999 998 998 996 994 994 994 994 993 992 992 992 992 994 1000 1001 1001 1003 1007 1007 1007 1008 1007 1007 1007 1008 1010 1010 1013 1015 1015 1015 1012 1012 1012 1019 1021 1021 1021 1022 1025 1028 1028 1030 1031 1032 1033 1033 1035 1035 1035 1036 1036 1036 1033 1030 1029 1025 1025 1025 1025 1026 1026 1026 1026 1025 1023 1022 1022 1021 1022 1022 1021 1021 1021 1021 1021 1021 1027 1030 1033 1033 1037 1041 1045 1046 1049 1052 1055 1060 1060 1060
0 0 0 0 0 0 0 0 0 0 0 0 0 0 0 0 0 0 0 0 0 0 0 0 0 0 0 0 0 0 0 1707 1714 1714 1715 1714 1713 1713 1705 1704 0 0 0 0 0 0 0 0 0 0 0 0 0 0 0 0 0 0 0 0 0 0 0 0 1567 1571 1573 1581 1587 1597 1606 1611 1626 1638 1649 1656 1658 1661 1665 1676 1684 1695 1702 1708 1713 1717 1718 1718 1721 1721 1721 1737 1737 1737 1726 0 0 0 0 0 0 0 0 0 0 0 0 0 0 0 0 0 0 0 0 0 0 0 0 0 0 0 0 0 0 0 0 0 0 0 0 0 0 0 0 0 0 0 0 0 0 0 0 0 0 0 0 0 0 0 0 0 0 0 0 0 0 1977 2004 2032 2043 2064 2069 2076 2087 2100 2125 2163 2185 2194 2196 2196 2195 2197 2198 2203 2217 2240 2246 2246 2246 2245 2195 2181 2181 2181 0 0 2381 2400 2441 2486 2499 2499 2499 2500 2500 2498 2497 2486 2469 0 0 0 0 2108 2078 2059 2048 2029 2021 2020 2019 2016 2011 2004 1996 1990 1984 1979 1975 1970 1965 1960 1953 1949 1943 1939 1933 1930 1926 1923 1919 1915 1911 1908 1907 1906 1904 1901 1900 1898 1896 1895 1894 1892 1891 1890 1888 1886 1885 1884 1882 1881 1880 1879 1876 1875 1874 1873 1872 1872 1871 1871 1871 1871 1871 1871 1871 1870 1869 1868 1866 1865 1864 1862 1861 1859 1858 1857 1856 1855 1854 1853 1852 1851 1850 1849 1847 1847 1845 1844 1843 1843 1843 1842 1842 1840 1840 1840 1839 1839 1838 1837 1837 1836 1836 1835 1835 1834 1833 1832 1832 1831 1830 1830 1829 1829 1828 1827 1826 1825 1824 1823 1822 1822 1821 1819 1818 1817 1817 1816 1815 1815 1814 1813 1813 1812 1811 1809 1809 1807 1806 1805 1804 1803 1802 1801 1800 1800 1800 1799 1798 1798 1796 1795 1795 1793 1793 1793 1794 1796 1797 1799 1800 1802 1803 1805 1808 1810 1812 1814 1816 1817 1819 1820 1821 1821 1821 1822 1822 1822 1822 1822 1822 1823 1824 1825 1826 1826 1827 1827 1827 1828 1828 1829 1829 1830 1830 1832 1833 1833 1833 1833 1834 1834 1834 1834 1834 1834 1834 1834 1834 1835 1836 1837 1838 1839 1840 1842 1842 1844 1845 1846 1846 1846 1846 1847 1847 1847 1847 1847 1847 1847 1847 1848 1848 1848 1848 1849 1850 1850 1850 1850 1850 1849 1849 1848 1848 1848 1847 1845 1845 1842 1842 1836 1831 1831 1825 1807 0 0 0 0 0 0 0 0 0 0 0 0 0 0 0 0 1128 1116 1100 1090 1082 1079 1077 1075 1069 1063 1055 1037 1020 1010 1008 1006 1004 1001 1001 1000 998 998 997 997 997 999 1000 1000 1002 1004 1006 1007 1011 1014 1014 1014 1013 1012 1011 1009 1007 1004 1000 996 994 994 990 987 987 987 988 988 988 988 988 988 989 989 989 990 990 990 990 990 988 988 988 989 990 991 992 993 993 993 991 989 988 988 988 988 988 988 987 987 987 988 991 993 994 994 996 996 996 994 994 994 994 996 997 998 998 1001 1003 1004 1004 1004 1006 1010 1013 1014 1015 1015 1019 1020 1024 1024 1024 1026 1027 1027 1028 1028 1028 1028 1028 1028 1025 1023 1021 1021 1020 1020 1020 1020 1021 1021 1020 1019 1017 1017 1017 1016 1017 1017 1017 1017 1017 1017 1017 1017 1020 1024 1027 1029 1034 1037 1041 1043 1044 1045 1050 1050 1054 1054
0 0 0 0 0 0 0 0 0 0 0 0 0 0 0 0 0 0 0 0 0 0 0 0 0 0 0 0 0 0 0 1707 1724 1724 1724 1724 1715 1715 1710 1698 0 0 0 0 0 0 0 0 0 0 0 0 0 0 0 0 0 0 0 0 0 0 0 0 1567 1570 1571 1578 1585 1593 1606 1611 1626 1638 1649 1656 1657 1659 1661 1670 1683 1694 1702 1708 1713 1717 1717 1717 1721 1721 1721 1736 1736 1736 1719 1719 0 0 0 0 0 0 0 0 0 0 0 0 0 0 0 0 0 0 0 0 0 0 0 0 0 0 0 0 0 0 0 0 0 0 0 0 0 0 0 0 0 0 0 0 0 0 0 0 0 0 0 0 0 0 0 0 0 0 0 1979 1979 1982 2011 2037 2043 2058 2069 2076 2087 2100 2125 2142 2174 2178 2184 2191 2191 2195 2196 2203 2217 2234 2238 2238 2234 2225 2190 2172 2172 2172 0 0 2381 2400 2423 2474 2474 2474 2474 2474 2486 2486 2486 2470 2441 0 0 0 2128 2104 2078 2054 2030 2027 2021 2015 2013 2011 2008 2001 1992 1986 1981 1977 1973 1969 1965 1958 1953 1948 1943 1938 1933 1930 1926 1923 1919 1915 1911 1908 1907 1904 1903 1900 1898 1897 1895 1894 1893 1892 1890 1888 1885 1885 1884 1882 1881 1879 1878 1877 1875 1874 1873 1872 1872 1871 1871 1871 1871 1871 1871 1871 1871 1870 1869 1868 1866 1865 1864 1862 1861 1859 1858 1857 1856 1855 1854 1853 1851 1851 1849 1848 1847 1846 1845 1844 1843 1843 1843 1842 1842 1840 1840 1840 1839 1839 1838 1837 1836 1836 1836 1835 1835 1834 1833 1832 1832 1831 1830 1830 1829 1828 1828 1827 1826 1825 1824 1823 1822 1821 1820 1818 1817 1816 1816 1815 1815 1814 1813 1812 1811 1811 1810 1809 1808 1807 1806 1804 1804 1802 1801 1800 1800 1799 1799 1799 1798 1797 1796 1796 1795 1794 1794 1794 1795 1796 1797 1799 1801 1803 1805 1806 1809 1811 1813 1814 1817 1819 1820 1822 1822 1823 1823 1823 1823 1823 1823 1824 1824 1824 1825 1825 1826 1827 1828 1828 1828 1829 1829 1830 1830 1831 1832 1833 1833 1833 1834 1834 1834 1834 1835 1835 1835 1835 1835 1835 1836 1837 1838 1838 1839 1840 1842 1844 1845 1846 1847 1847 1847 1847 1848 1848 1848 1848 1848 1848 1848 1848 1848 1848 1848 1849 1849 1849 1850 1850 1850 1850 1849 1849 1849 1849 1849 1848 1844 1841 1832 1831 1829 1824 1817 1809 1798 0 0 0 0 0 0 0 0 0 0 0 0 0 0 0 0 1118 1107 1101 1089 1079 1075 1072 1069 1067 1061 1051 1042 1028 1015 1006 1004 1000 999 998 996 994 994 994 994 994 994 994 995 996 998 1001 1003 1005 1008 1009 1009 1009 1008 1007 1005 1004 1002 999 995 993 991 990 987 986 986 985 985 984 984 984 984 984 984 984 983 982 982 982 982 982 983 984 985 985 985 984 984 984 984 984 984 983 982 981 981 981 981 981 980 980 980 981 982 983 987 987 987 987 986 985 985 985 985 987 987 988 989 991 992 995 996 996 997 1000 1002 1002 1002 1004 1006 1007 1010 1010 1011 1014 1019 1021 1021 1021 1020 1019 1019 1019 1019 1017 1017 1017 1016 1015 1015 1015 1015 1016 1016 1016 1014 1013 1013 1013 1013 1013 1015 1015 1015 1015 1015 1016 1017 1020 1024 1028 1032 1034 1037 1040 1040 1040 1043 1044 1045 1045
0 0 0 0 0 0 0 0 0 0 0 0 0 0 0 0 0 0 0 0 0 0 0 0 0 0 0 0 0 0 0 0 1729 1733 1733 1733 1720 1720 1704 1688 0 0 0 0 0 0 0 0 0 0 0 0 0 0 0 0 0 0 0 0 0 0 0 0 1567 1571 1573 1578 1588 1593 1606 1617 1628 1646 1659 1659 1659 1661 1661 1670 1683 1690 1698 1708 1713 1717 1717 1717 1720 1720 1724 1736 1736 1736 1719 1719 0 0 0 0 0 0 0 0 0 0 0 0 0 0 0 0 0 0 0 0 0 0 0 0 0 0 0 0 0 0 0 0 0 0 0 0 0 0 0 0 0 0 0 0 0 0 0 0 0 0 0 0 0 0 0 2027 2017 1991 1991 1990 1990 1990 2011 2037 2043 2058 2069 2076 2087 2100 2125 2138 2154 2170 2181 2191 2191 2195 2196 2203 2217 2224 2224 2224 2219 2208 2179 2172 2172 2172 0 0 2380 2400 2423 2453 2463 2465 2466 2466 2473 2473 2473 2463 2433 0 0 0 2112 2092 2078 2042 2027 2018 2016 2011 2006 2005 2002 1998 1989 1982 1978 1973 1969 1968 1963 1958 1953 1948 1943 1938 1933 1930 1927 1923 1919 1915 1911 1908 1906 1904 1901 1899 1898 1897 1895 1894 1893 1891 1890 1887 1885 1883 1883 1882 1880 1878 1877 1876 1875 1874 1873 1871 1871 1871 1871 1870 1870 1870 1870 1870 1870 1870 1869 1867 1866 1865 1863 1862 1861 1860 1859 1857 1856 1855 1853 1852 1850 1850 1849 1848 1847 1846 1845 1844 1843 1843 1843 1842 1842 1840 1840 1839 1839 1839 1838 1837 1836 1836 1836 1835 1835 1833 1833 1832 1831 1831 1830 1830 1829 1828 1828 1827 1826 1825 1824 1822 1821 1820 1819 1817 1816 1816 1816 1815 1814 1813 1811 1811 1810 1810 1808 1807 1807 1806 1804 1804 1803 1802 1801 1800 1800 1799 1799 1799 1797 1797 1796 1796 1795 1795 1795 1795 1796 1797 1798 1800 1802 1804 1806 1807 1810 1812 1814 1817 1818 1819 1821 1822 1823 1824 1824 1824 1824 1824 1824 1825 1825 1826 1826 1826 1827 1828 1829 1829 1829 1831 1831 1831 1832 1833 1834 1834 1835 1835 1835 1836 1836 1836 1836 1836 1836 1837 1837 1837 1837 1838 1839 1839 1840 1842 1844 1845 1847 1848 1848 1848 1849 1849 1849 1849 1849 1849 1849 1849 1849 1849 1849 1849 1849 1849 1850 1850 1850 1850 1850 1850 1849 1849 1849 1848 1848 1847 1840 1834 1824 1823 1818 1808 1800 0 0 0 0 0 0 0 0 0 0 0 0 0 0 0 1143 1126 1113 1103 1093 1084 1078 1073 1067 1063 1059 1057 1049 1041 1029 1018 1009 1004 1001 997 995 992 992 990 990 990 990 990 990 991 991 993 994 996 1000 1001 1003 1004 1004 1004 1003 1002 1001 998 997 994 993 990 988 986 984 983 983 982 982 981 981 980 980 980 980 979 978 977 977 977 977 977 978 981 981 981 980 979 979 979 978 978 978 978 977 976 976 976 976 976 976 976 976 977 977 977 978 982 982 982 980 978 978 978 978 980 980 980 981 982 984 985 988 988 988 988 990 990 990 990 990 991 994 998 998 1000 1000 1000 1004 1004 1005 1005 1005 1005 1010 1011 1011 1011 1011 1011 1010 1010 1010 1010 1010 1009 1009 1009 1010 1010 1011 1011 1013 1013 1013 1013 1014 1015 1016 1019 1022 1026 1029 1031 1034 1035 1035 1035 1035 1037 1039 1039
0 0 0 0 0 0 0 0 0 0 0 0 0 0 0 0 0 0 0 0 0 0 0 0 0 0 0 0 0 0 0 0 1735 1735 1735 1733 1721 1721 1703 1688 0 0 0 0 0 0 0 0 0 0 0 0 0 0 0 0 0 0 0 0 0 0 0 0 0 1574 1578 1578 1591 1600 1606 1619 1635 1662 1666 1666 1666 1666 1666 1670 1681 1690 1693 1705 1706 1710 1713 1714 1715 1716 1724 1736 1736 1736 1720 1719 0 0 0 0 0 0 0 0 0 0 0 0 0 0 0 0 0 0 0 0 0 0 0 0 0 0 0 0 0 0 0 0 0 0 0 0 0 0 0 0 0 0 0 0 0 0 0 0 0 0 0 0 0 2027 2041 2041 2041 2015 2006 1990 1990 1990 2013 2037 2050 2059 2068 2076 2087 2093 2107 2130 2139 2168 2180 2192 2192 2192 2193 2193 2206 2206 2206 2205 2198 2198 2179 2172 2172 2172 0 0 2381 2400 2423 2452 2452 2452 2458 2458 2458 2458 2458 2458 2419 0 0 0 2107 2089 2069 2042 2022 2013 2008 2007 2004 2000 1999 1994 1989 1982 1976 1971 1968 1966 1962 1957 1952 1947 1942 1937 1933 1931 1928 1924 1919 1915 1911 1908 1905 1903 1900 1899 1898 1897 1895 1894 1892 1891 1889 1887 1884 1883 1882 1881 1879 1878 1876 1876 1875 1873 1872 1871 1870 1870 1870 1870 1870 1870 1869 1869 1869 1869 1868 1867 1866 1865 1863 1862 1860 1860 1859 1857 1856 1854 1853 1852 1850 1850 1849 1848 1848 1846 1845 1844 1844 1843 1842 1842 1842 1840 1840 1839 1839 1839 1838 1837 1836 1836 1836 1835 1835 1833 1833 1832 1831 1831 1830 1830 1829 1828 1827 1827 1826 1824 1823 1822 1820 1818 1818 1817 1816 1815 1815 1814 1813 1812 1811 1810 1808 1808 1807 1807 1806 1804 1804 1803 1802 1801 1801 1800 1799 1799 1799 1798 1797 1797 1796 1796 1796 1796 1796 1796 1796 1797 1799 1800 1802 1805 1806 1808 1810 1813 1815 1818 1819 1819 1821 1822 1823 1824 1825 1825 1825 1826 1826 1826 1826 1826 1826 1827 1828 1829 1829 1830 1831 1832 1833 1834 1834 1835 1835 1836 1836 1836 1837 1837 1837 1837 1837 1837 1838 1838 1838 1839 1839 1840 1841 1841 1842 1844 1845 1846 1848 1849 1849 1850 1850 1850 1850 1851 1851 1851 1851 1850 1850 1850 1850 1850 1850 1850 1850 1851 1850 1850 1850 1850 1848 1848 1848 1848 1848 1845 1834 1825 1824 1811 1802 1794 0 0 0 0 0 0 0 0 0 0 0 0 0 0 1147 1134 1123 1110 1099 1090 1081 1075 1069 1064 1059 1054 1051 1046 1038 1031 1019 1010 1005 1001 998 995 992 991 989 988 987 987 986 986 987 987 988 990 990 992 996 997 999 999 999 999 998 996 996 994 993 991 989 986 985 982 981 979 979 979 978 978 977 976 976 975 975 975 974 973 972 972 972 972 974 976 977 977 977 975 975 975 975 974 973 973 973 972 972 971 971 971 972 972 972 972 972 972 972 974 975 975 975 973 973 973 973 974 975 975 975 976 977 978 980 981 981 981 981 981 981 981 981 981 983 989 989 989 985 984 984 984 984 984 986 989 996 1003 1003 1004 1004 1004 1004 1004 1005 1005 1005 1002 1002 1002 1004 1007 1009 1010 1010 1010 1010 1011 1014 1015 1015 1016 1019 1023 1026 1030 1030 1031 1031 1031 1031 1034 1036 1036
0 0 0 0 0 0 0 0 0 0 0 0 0 0 0 0 0 0 0 0 0 0 0 0 0 0 0 0 0 0 0 0 0 1735 1735 1733 1720 1720 1703 1689 0 0 0 0 0 0 0 0 0 0 0 0 0 0 0 0 0 0 0 0 0 0 0 0 1580 1583 1593 1593 1595 1600 1608 1622 1637 1666 1668 1668 1668 1668 1668 1674 1680 1686 1692 1705 1706 1710 1713 1714 1715 1718 1725 1738 1738 1742 1742 1731 0 0 0 0 0 0 0 0 0 0 0 0 0 0 0 0 0 0 0 0 0 0 0 0 0 0 0 0 0 0 0 0 0 0 0 0 0 0 0 0 0 0 0 0 0 0 0 0 0 0 0 1993 2017 2027 2045 2045 2045 2036 2023 2004 2004 2004 2018 2040 2052 2060 2062 2070 2072 2080 2104 2130 2139 2163 2178 2192 2192 2192 2191 2191 2191 2193 2198 2198 2198 2198 2183 2183 2183 0 0 0 2388 2400 2423 2423 2423 2434 2434 2434 2455 2458 2458 2458 2411 0 0 0 2107 2078 2060 2042 2022 2013 2008 2006 2002 2000 1999 1994 1989 1982 1976 1970 1966 1964 1961 1957 1952 1946 1942 1937 1933 1931 1928 1924 1919 1914 1910 1908 1905 1903 1900 1899 1897 1896 1894 1893 1892 1891 1889 1886 1884 1882 1881 1880 1879 1878 1876 1875 1874 1873 1871 1870 1870 1869 1869 1869 1869 1869 1869 1869 1868 1868 1868 1867 1866 1865 1863 1862 1860 1860 1859 1857 1856 1854 1853 1852 1850 1850 1849 1848 1848 1847 1846 1845 1844 1843 1843 1842 1841 1840 1840 1839 1838 1838 1838 1837 1836 1836 1835 1835 1834 1833 1833 1832 1832 1831 1830 1830 1829 1828 1826 1826 1825 1824 1823 1821 1820 1818 1817 1815 1815 1815 1814 1814 1813 1812 1811 1810 1808 1808 1807 1806 1805 1804 1803 1802 1801 1800 1800 1800 1799 1798 1798 1797 1797 1797 1796 1796 1796 1796 1796 1796 1797 1798 1799 1801 1803 1805 1807 1810 1812 1815 1816 1818 1820 1820 1821 1822 1823 1824 1825 1826 1826 1826 1826 1826 1827 1827 1828 1828 1829 1830 1830 1832 1833 1833 1833 1834 1835 1836 1836 1837 1837 1838 1838 1838 1838 1838 1839 1839 1839 1840 1840 1841 1841 1843 1843 1844 1844 1845 1846 1848 1850 1850 1851 1851 1851 1851 1851 1851 1851 1851 1851 1851 1851 1850 1850 1850 1851 1851 1851 1851 1851 1851 1850 1849 1848 1848 1847 1847 1843 1836 1832 1822 1811 1797 1782 0 0 0 0 0 0 0 0 0 0 0 0 0 0 1140 1127 1116 1107 1098 1086 1076 1070 1069 1063 1056 1051 1049 1042 1036 1030 1023 1014 1007 1002 999 995 993 990 988 986 986 985 983 983 983 983 984 984 986 987 988 990 992 995 995 995 995 994 993 993 991 990 988 986 983 981 979 977 976 975 975 974 974 973 973 972 972 972 971 971 971 970 970 970 970 972 974 974 974 974 972 971 971 971 970 970 969 969 969 969 968 968 968 968 967 967 967 967 967 967 969 970 970 970 969 969 969 969 969 969 969 970 970 971 971 972 974 975 975 975 975 975 975 975 976 977 978 978 978 975 974 974 972 972 972 975 977 984 987 987 987 990 992 992 993 998 998 998 996 996 996 998 1002 1006 1007 1007 1007 1008 1009 1010 1012 1013 1013 1016 1020 1024 1026 1026 1027 1027 1027 1027 1032 1035 1035
0 0 0 0 0 0 0 0 0 0 0 0 0 0 0 0 0 0 0 0 0 0 0 0 0 0 0 0 0 0 0 0 0 0 1733 1721 1720 1720 1703 0 0 0 0 0 0 0 0 0 0 0 0 0 0 0 0 0 0 0 0 0 0 0 0 0 0 1580 1583 1596 1599 1600 1608 1627 1643 1667 1672 1672 1672 1672 1672 1674 1680 1683 1690 1697 1706 1710 1713 1714 1715 1718 1726 1742 1742 1747 1747 1731 0 0 0 0 0 0 0 0 0 0 0 0 0 0 0 0 0 0 0 0 0 0 0 0 0 0 0 0 0 0 0 0 0 0 0 0 0 0 0 0 0 0 0 0 0 0 0 0 0 0 1975 1996 2017 2026 2057 2057 2057 2044 2030 2018 2018 2018 2025 2042 2058 2060 2060 2061 2062 2075 2097 2129 2139 2161 2178 2192 2192 2192 2189 2189 2189 2193 2198 2198 2198 2198 2190 2190 2190 0 0 2355 2388 2401 2424 2424 2424 2434 2434 2434 2454 2457 2457 2457 2411 0 0 0 2107 2076 2058 2042 2022 2013 2008 2004 2002 2000 1997 1994 1989 1982 1975 1970 1965 1963 1959 1956 1952 1945 1940 1937 1934 1931 1928 1924 1918 1914 1910 1908 1905 1903 1900 1899 1897 1895 1894 1893 1892 1891 1888 1886 1884 1882 1880 1879 1878 1877 1875 1875 1874 1872 1871 1870 1869 1868 1868 1868 1868 1868 1868 1868 1868 1868 1867 1866 1866 1864 1863 1862 1860 1859 1858 1857 1856 1854 1853 1852 1850 1850 1850 1848 1848 1847 1846 1845 1844 1844 1843 1842 1841 1841 1840 1839 1838 1838 1837 1837 1836 1835 1835 1835 1834 1833 1833 1832 1832 1831 1830 1829 1829 1827 1826 1825 1824 1824 1822 1820 1819 1818 1817 1815 1815 1814 1813 1813 1813 1811 1810 1809 1808 1808 1806 1806 1804 1803 1802 1802 1801 1800 1800 1799 1799 1798 1798 1797 1797 1797 1796 1796 1796 1796 1796 1796 1797 1798 1800 1802 1804 1807 1808 1810 1813 1815 1816 1819 1820 1821 1822 1822 1823 1825 1825 1826 1826 1827 1827 1827 1828 1828 1828 1829 1830 1830 1831 1833 1834 1834 1834 1835 1836 1836 1838 1838 1838 1838 1839 1839 1839 1840 1840 1840 1841 1841 1842 1842 1843 1844 1844 1845 1845 1845 1847 1849 1850 1852 1853 1853 1853 1853 1853 1853 1853 1853 1853 1852 1852 1850 1850 1850 1851 1851 1851 1851 1851 1851 1849 1848 1847 1847 1847 1847 1841 1836 1824 1817 1795 1776 0 0 0 0 0 0 0 0 0 0 0 0 0 1150 1134 1119 1107 1100 1094 1086 1079 1066 1063 1057 1053 1047 1043 1040 1035 1029 1022 1016 1010 1005 1001 998 994 991 989 987 985 984 983 982 981 981 981 981 982 982 984 985 986 989 992 993 993 993 990 989 988 988 986 985 982 980 978 975 974 973 972 972 972 971 970 969 969 969 969 968 968 968 968 968 968 968 970 970 970 970 969 969 968 968 968 968 967 966 966 966 966 965 964 964 963 963 963 962 962 963 963 964 965 965 965 965 964 964 963 963 963 963 964 965 965 966 967 968 968 968 968 969 970 970 970 968 968 968 968 968 968 966 966 966 966 966 966 969 973 973 974 974 976 976 982 984 987 988 988 988 988 988 989 994 998 999 1002 1003 1004 1005 1007 1009 1009 1009 1011 1015 1019 1023 1023 1023 1023 1023 1024 1029 1032 1032
0 0 0 0 0 0 0 0 0 0 0 0 0 0 0 0 0 0 0 0 0 0 0 0 0 0 0 0 0 0 0 0 0 0 1720 1720 1712 1712 1705 0 0 0 0 0 0 0 0 0 0 0 0 0 0 0 0 0 0 0 0 0 0 0 0 0 0 0 0 1606 1619 1623 1629 1646 1659 1673 1679 1679 1679 1674 1674 1674 1680 1682 1688 1697 1709 1716 1719 1721 1722 1723 1729 1742 1742 1747 1747 1736 0 0 0 0 0 0 0 0 0 0 0 0 0 0 0 0 0 0 0 0 0 0 0 0 0 0 0 0 0 0 0 0 0 0 0 0 0 0 0 0 0 0 0 0 0 0 0 0 1944 1978 1996 1997 2018 2026 2057 2057 2057 2051 2036 2027 2027 2027 2033 2055 2055 2056 2056 2056 2056 2063 2093 2129 2139 2159 2178 2191 2191 2191 2188 2188 2188 2193 2213 2213 2213 2211 2211 2211 2247 0 0 2379 2408 2420 2427 2427 2427 2434 2434 2434 2454 2457 2457 2457 0 0 0 0 2105 2075 2056 2037 2022 2018 2010 2003 2001 2000 1997 1993 1988 1982 1975 1970 1965 1962 1957 1954 1949 1945 1940 1937 1934 1931 1928 1923 1918 1914 1910 1908 1905 1904 1901 1899 1897 1895 1894 1892 1891 1890 1888 1886 1883 1881 1879 1878 1877 1876 1874 1873 1873 1871 1870 1870 1869 1868 1868 1868 1868 1868 1868 1868 1868 1867 1867 1866 1865 1864 1863 1862 1860 1859 1858 1857 1855 1854 1853 1852 1851 1850 1850 1849 1848 1847 1846 1845 1844 1844 1843 1842 1841 1841 1840 1839 1838 1837 1837 1836 1836 1835 1835 1834 1834 1833 1833 1832 1832 1831 1830 1829 1828 1827 1825 1824 1823 1822 1821 1820 1819 1818 1817 1815 1814 1814 1813 1813 1812 1811 1810 1809 1808 1808 1806 1805 1804 1803 1802 1801 1801 1800 1800 1799 1799 1798 1798 1797 1797 1797 1796 1796 1796 1796 1796 1797 1797 1799 1801 1803 1806 1807 1808 1810 1813 1816 1818 1819 1820 1821 1822 1823 1823 1824 1826 1826 1826 1827 1827 1828 1828 1828 1829 1830 1831 1832 1832 1834 1834 1835 1836 1836 1837 1837 1838 1838 1839 1839 1839 1840 1840 1841 1841 1843 1843 1843 1843 1844 1844 1844 1845 1845 1846 1847 1848 1850 1852 1853 1854 1854 1854 1854 1854 1854 1854 1853 1853 1852 1852 1851 1851 1851 1851 1851 1851 1851 1851 1849 1847 1847 1847 1846 1846 1843 1837 1836 1819 1795 1773 0 0 0 0 0 0 0 0 0 0 0 0 0 1135 1125 1113 1097 1090 1084 1080 1075 1068 1060 1054 1050 1043 1039 1035 1033 1029 1023 1016 1012 1006 1003 1000 996 993 991 987 986 983 982 981 980 979 979 979 979 979 979 980 983 983 986 989 990 990 990 988 986 985 984 982 981 979 976 975 973 972 971 970 970 969 968 968 967 967 966 966 965 965 965 965 965 965 966 967 967 967 967 967 967 966 966 965 964 964 963 963 963 962 961 960 960 960 959 959 959 960 960 960 960 960 961 961 961 960 959 958 958 958 958 959 960 960 960 961 962 962 962 962 962 965 965 965 964 961 960 959 959 959 959 959 960 960 960 960 963 964 965 965 965 965 967 971 975 979 979 979 979 979 979 980 985 990 990 993 996 998 998 999 999 1001 1004 1006 1010 1016 1016 1017 1017 1018 1018 1021 1025 1027 1027
0 0 0 0 0 0 0 0 0 0 0 0 0 0 0 0 0 0 0 0 0 0 0 0 0 0 0 0 0 0 0 0 0 0 1712 1712 1720 1720 1712 0 0 0 0 0 0 0 0 0 0 0 0 0 0 0 0 0 0 0 0 0 0 0 0 0 0 0 0 0 1619 1652 1659 1660 1663 1673 1680 1680 1680 1674 1674 1674 1680 1682 1686 1697 1709 1724 1728 1728 1729 1731 1731 1742 1742 1747 1749 1749 0 0 0 0 0 0 0 0 0 0 0 0 0 0 0 0 0 0 0 0 0 0 0 0 0 0 0 0 0 0 0 0 0 0 0 0 0 0 0 0 0 0 0 0 0 0 0 1944 1991 1997 1998 2008 2021 2026 2057 2057 2057 2051 2046 2046 2046 2046 2056 2062 2062 2062 2050 2050 2050 2053 2084 2129 2138 2157 2174 2191 2191 2191 2188 2188 2188 2201 2225 2227 2232 2244 2244 2244 0 0 0 2416 2426 2429 2429 2429 2429 2436 2436 2440 2452 2460 2460 2460 0 0 0 0 2097 2072 2047 2032 2022 2018 2010 2003 2001 2000 1997 1993 1988 1981 1975 1969 1965 1962 1957 1952 1946 1942 1939 1936 1933 1931 1927 1923 1918 1914 1910 1908 1905 1904 1901 1899 1897 1895 1893 1891 1889 1887 1886 1884 1883 1880 1879 1878 1876 1876 1874 1873 1872 1871 1869 1868 1868 1867 1867 1867 1867 1867 1867 1867 1867 1866 1866 1865 1865 1864 1862 1862 1860 1859 1858 1856 1855 1854 1853 1852 1851 1850 1850 1849 1848 1847 1846 1845 1844 1844 1843 1842 1842 1841 1840 1839 1838 1837 1837 1836 1836 1835 1835 1834 1834 1833 1833 1832 1832 1831 1830 1829 1828 1826 1825 1824 1822 1821 1820 1819 1818 1817 1816 1815 1814 1814 1813 1812 1812 1811 1809 1808 1808 1807 1806 1805 1804 1803 1802 1801 1801 1800 1800 1799 1799 1798 1798 1797 1797 1796 1796 1796 1796 1796 1797 1798 1799 1800 1802 1803 1806 1808 1810 1812 1814 1816 1818 1819 1820 1821 1822 1823 1823 1824 1826 1826 1826 1827 1827 1828 1828 1828 1830 1831 1832 1833 1834 1835 1835 1836 1837 1838 1838 1838 1839 1839 1840 1841 1841 1841 1841 1842 1843 1843 1843 1844 1844 1844 1844 1845 1845 1846 1847 1848 1849 1851 1852 1853 1854 1854 1855 1855 1855 1855 1855 1854 1853 1852 1852 1851 1851 1851 1851 1851 1851 1851 1851 1849 1847 1846 1846 1846 1845 1837 1835 1823 1806 1768 0 0 0 0 0 0 0 0 0 0 0 0 1155 1131 1119 1108 1095 1088 1081 1075 1071 1064 1056 1049 1047 1043 1039 1034 1029 1027 1023 1019 1013 1007 1002 998 996 993 991 988 987 984 983 980 979 978 977 977 977 976 976 976 978 979 982 983 985 988 988 988 985 983 982 981 979 978 976 974 972 971 969 968 968 967 966 966 965 965 965 964 964 964 964 963 963 964 964 964 965 965 965 965 965 965 964 963 963 962 961 960 960 960 959 958 958 957 957 957 957 957 957 957 957 957 957 958 958 958 957 955 955 954 954 954 954 954 954 955 956 956 956 957 958 958 958 959 959 959 957 955 953 953 953 953 954 954 955 956 956 956 956 957 957 957 959 961 965 968 970 971 971 971 971 972 974 979 982 982 989 990 990 990 989 989 989 991 997 1003 1009 1011 1011 1011 1011 1012 1015 1019 1021 1021
0 0 0 0 0 0 0 0 0 0 0 0 0 0 0 0 0 0 0 0 0 0 0 0 0 0 0 0 0 0 0 0 0 0 0 1712 1720 1720 0 0 0 0 0 0 0 0 0 0 0 0 0 0 0 0 0 0 0 0 0 0 0 0 0 0 0 0 0 0 0 0 1659 1660 1663 1673 1685 1685 1685 1685 1683 1682 1683 1686 1686 1697 1713 1724 1730 1731 1731 1732 1732 1732 1747 1753 1756 1756 0 0 0 0 0 0 0 0 0 0 0 0 0 0 0 0 0 0 0 0 0 0 0 0 0 0 0 0 0 0 0 0 0 0 0 0 0 0 0 0 0 0 0 0 0 1933 1972 1982 1991 2016 2019 2024 2033 2033 2057 2057 2057 2051 2051 2051 2051 2054 2061 2062 2062 2062 2040 2040 2040 2053 2083 2118 2138 2147 2159 2175 2185 2186 2187 2187 2193 2208 2237 2255 2261 2262 2288 0 0 0 2416 2426 2428 2431 2431 2431 2431 2436 2436 2440 2452 2460 2460 2460 0 0 0 0 2090 2065 2043 2029 2022 2018 2010 2001 1998 1995 1992 1990 1985 1980 1974 1969 1965 1959 1954 1949 1944 1940 1938 1936 1933 1931 1927 1923 1918 1914 1910 1908 1905 1904 1901 1899 1896 1894 1893 1890 1888 1886 1884 1883 1881 1879 1878 1877 1876 1875 1874 1873 1872 1870 1869 1868 1868 1867 1867 1866 1866 1866 1865 1865 1865 1865 1865 1865 1864 1863 1862 1862 1860 1859 1858 1856 1855 1854 1853 1852 1851 1850 1850 1849 1848 1847 1846 1845 1844 1844 1843 1842 1842 1840 1840 1839 1838 1837 1837 1836 1836 1835 1835 1834 1834 1833 1832 1832 1831 1830 1829 1828 1827 1826 1825 1823 1822 1821 1820 1818 1817 1815 1814 1814 1813 1812 1812 1812 1811 1811 1809 1808 1807 1807 1806 1805 1804 1803 1802 1801 1800 1800 1800 1799 1799 1798 1798 1797 1797 1796 1796 1796 1796 1797 1798 1798 1799 1800 1802 1804 1806 1809 1811 1812 1814 1816 1818 1819 1820 1821 1822 1823 1824 1825 1826 1826 1827 1827 1828 1829 1829 1830 1831 1832 1832 1834 1835 1835 1836 1837 1837 1838 1839 1839 1840 1840 1841 1841 1842 1842 1842 1843 1844 1844 1844 1844 1844 1844 1844 1846 1846 1846 1847 1848 1849 1851 1852 1853 1854 1854 1855 1855 1855 1855 1855 1854 1853 1852 1852 1851 1850 1850 1850 1851 1851 1851 1849 1847 1846 1844 1840 1836 1829 1817 1815 1798 1777 0 0 0 0 0 0 0 0 0 0 0 1167 1148 1131 1118 1104 1091 1085 1079 1073 1068 1059 1053 1047 1042 1040 1037 1033 1026 1023 1021 1019 1015 1009 1004 998 994 993 991 989 986 985 982 980 979 978 976 975 975 975 975 975 975 976 976 978 980 983 984 984 984 982 981 979 977 976 976 973 971 970 968 967 967 966 966 964 964 963 963 962 962 961 961 961 961 961 962 962 963 963 963 963 963 963 962 962 961 960 959 959 957 957 957 955 955 955 955 955 955 955 956 956 956 956 956 956 956 955 955 954 952 952 951 951 950 950 950 950 950 951 952 952 952 952 952 952 954 954 954 953 951 949 948 948 948 949 949 949 951 951 952 952 952 952 952 954 956 959 961 961 961 962 962 965 969 971 973 974 977 981 981 981 981 980 980 980 981 987 994 1000 1001 1002 1002 1003 1003 1007 1012 1015 1015
0 0 0 0 0 0 0 0 0 0 0 0 0 0 0 0 0 0 0 0 0 0 0 0 0 0 0 0 0 0 0 0 0 0 0 0 0 0 0 0 0 0 0 0 0 0 0 0 0 0 0 0 0 0 0 0 0 0 0 0 0 0 0 0 0 0 0 0 0 0 0 1660 1662 1663 1673 1678 1685 1687 1691 1692 1692 1694 1694 1694 1709 1724 1730 1732 1732 1732 1732 1732 1744 1755 1763 1763 0 0 0 0 0 0 0 0 0 0 0 0 0 0 0 0 0 0 0 0 0 0 0 0 0 0 0 0 0 0 0 0 0 0 0 0 0 0 0 0 0 0 1940 1941 1949 1978 2000 2017 2018 2021 2021 2031 2042 2042 2052 2052 2052 2051 2051 2051 2051 2058 2068 2068 2068 2062 2040 2040 2040 2053 2083 2118 2137 2147 2159 2175 2185 2187 2188 2195 2206 2214 2243 2283 2307 2327 2363 2383 2402 2415 2425 2426 2429 2431 2435 2436 2436 2437 2441 2441 2454 2457 2457 2457 0 0 0 0 2089 2063 2042 2027 2021 2014 2003 1998 1993 1990 1988 1985 1982 1979 1973 1967 1962 1956 1950 1945 1941 1938 1936 1935 1932 1930 1925 1921 1917 1912 1909 1907 1905 1903 1901 1898 1896 1894 1892 1889 1887 1885 1883 1882 1880 1878 1877 1876 1876 1875 1873 1872 1871 1870 1869 1868 1868 1867 1866 1866 1865 1865 1865 1864 1864 1864 1864 1863 1863 1862 1862 1861 1860 1859 1858 1856 1855 1854 1853 1852 1851 1850 1849 1849 1848 1847 1846 1845 1844 1844 1843 1842 1842 1840 1840 1839 1838 1838 1837 1837 1836 1836 1834 1834 1834 1833 1832 1831 1830 1829 1828 1828 1826 1825 1824 1823 1822 1821 1820 1818 1817 1815 1814 1813 1812 1812 1812 1811 1811 1810 1809 1808 1807 1806 1805 1805 1803 1802 1801 1801 1800 1800 1800 1799 1799 1798 1798 1797 1797 1796 1796 1796 1796 1797 1798 1799 1800 1801 1802 1805 1807 1809 1811 1813 1815 1817 1818 1819 1820 1821 1823 1823 1824 1825 1826 1826 1827 1827 1828 1829 1830 1830 1831 1832 1834 1834 1835 1835 1836 1837 1838 1838 1839 1840 1840 1840 1841 1842 1843 1843 1844 1844 1844 1844 1844 1844 1844 1844 1845 1846 1846 1846 1847 1848 1849 1851 1852 1853 1854 1854 1855 1855 1855 1855 1855 1853 1853 1852 1852 1851 1850 1850 1850 1850 1850 1849 1849 1844 1842 1837 1829 1819 1807 1804 1795 1784 0 0 0 0 0 0 0 0 0 0 1182 1164 1145 1126 1116 1107 1096 1079 1067 1061 1056 1053 1049 1043 1039 1035 1033 1031 1027 1023 1020 1017 1014 1010 1005 1000 996 992 990 988 986 984 982 980 979 977 976 974 973 973 973 973 973 973 973 975 976 978 981 981 981 981 979 978 976 975 973 973 970 969 967 965 965 964 964 963 962 961 961 961 960 960 960 959 959 959 960 960 960 961 962 962 962 961 961 959 959 958 958 956 956 955 954 953 953 953 953 953 953 953 953 953 953 953 953 953 952 952 952 952 950 950 950 950 950 949 948 948 948 948 949 949 949 949 949 949 949 949 949 949 948 947 946 945 945 944 944 945 945 946 946 946 946 946 946 947 949 951 953 953 953 954 955 955 960 962 965 968 969 971 973 973 973 972 972 972 972 974 979 985 991 994 996 996 996 996 1000 1004 1007 1007
0 0 0 0 0 0 0 0 0 0 0 0 0 0 0 0 0 0 0 0 0 0 0 0 0 0 0 0 0 0 0 0 0 0 0 0 0 0 0 0 0 0 0 0 0 0 0 0 0 0 0 0 0 0 0 0 0 0 0 0 0 0 0 0 0 0 0 0 0 0 0 0 1647 1662 1673 1678 1678 1685 1691 1702 1702 1702 1705 1705 1709 1720 1730 1733 1733 1733 1733 1733 1744 1761 1786 1786 0 0 0 0 0 0 0 0 0 0 0 0 0 0 0 0 0 0 0 0 0 0 0 0 0 0 0 0 0 0 0 0 0 0 0 0 0 0 0 1937 1945 1949 1957 1967 1974 2004 2026 2031 2031 2032 2032 2032 2045 2052 2055 2055 2052 2047 2047 2047 2051 2058 2068 2068 2068 2062 2052 2052 2052 2079 2083 2118 2137 2147 2159 2175 2185 2187 2188 2198 2206 2224 2257 2311 2334 2360 2384 2408 2420 2423 2425 2426 2431 2435 2436 2436 2441 2443 2444 2448 2456 2456 2456 2456 0 0 0 2116 2085 2061 2041 2025 2018 2006 1998 1992 1988 1986 1985 1984 1980 1976 1971 1966 1960 1953 1947 1942 1939 1937 1935 1932 1930 1926 1923 1919 1915 1911 1908 1907 1905 1903 1901 1898 1896 1894 1891 1888 1887 1885 1882 1880 1878 1877 1877 1876 1875 1875 1873 1872 1870 1870 1869 1868 1867 1867 1866 1865 1865 1865 1864 1863 1863 1863 1863 1863 1862 1862 1861 1861 1860 1858 1858 1856 1855 1854 1853 1852 1851 1850 1849 1849 1848 1847 1846 1845 1844 1844 1843 1842 1841 1840 1840 1839 1838 1838 1837 1837 1836 1836 1834 1834 1833 1833 1832 1830 1830 1829 1828 1827 1826 1825 1824 1823 1822 1821 1820 1818 1816 1815 1814 1813 1812 1812 1812 1811 1810 1810 1808 1808 1806 1806 1805 1804 1803 1802 1801 1801 1800 1800 1800 1799 1799 1798 1797 1797 1797 1796 1796 1796 1797 1797 1799 1800 1800 1801 1802 1805 1809 1810 1812 1814 1815 1817 1819 1820 1821 1822 1823 1823 1824 1825 1826 1826 1827 1828 1828 1829 1830 1831 1831 1832 1834 1835 1835 1836 1837 1837 1838 1839 1839 1840 1840 1840 1841 1842 1843 1843 1844 1844 1844 1844 1844 1844 1844 1845 1845 1846 1846 1847 1847 1848 1849 1851 1852 1853 1853 1854 1854 1854 1854 1854 1854 1853 1852 1852 1851 1850 1849 1849 1849 1848 1848 1848 1847 1838 1832 1824 1814 1808 1801 1794 0 0 0 0 0 0 0 0 0 0 0 1172 1158 1144 1130 1116 1105 1095 1086 1071 1058 1052 1047 1042 1040 1035 1032 1028 1028 1025 1021 1017 1014 1012 1008 1004 1001 997 993 992 988 986 983 981 980 979 976 975 974 972 972 971 971 971 971 971 971 972 973 976 978 978 978 978 976 974 973 971 970 969 969 967 965 964 963 962 962 962 960 959 959 958 958 958 957 957 957 958 958 958 959 960 960 960 960 960 959 958 957 956 956 955 953 953 952 951 951 950 950 951 951 951 951 951 951 951 951 951 950 950 950 949 949 949 949 949 949 948 948 947 947 947 947 947 947 947 946 946 946 946 946 946 945 945 943 941 941 941 941 941 941 941 942 942 942 942 942 942 942 943 944 946 946 947 947 948 955 959 960 961 962 963 964 965 965 964 964 965 965 969 973 978 981 986 988 988 991 993 996 998 1001 1001
0 0 0 0 0 0 0 0 0 0 0 0 0 0 0 0 0 0 0 0 0 0 0 0 0 0 0 0 0 0 0 0 0 0 0 0 0 0 0 0 0 0 0 0 0 0 0 0 0 0 0 0 0 0 0 0 0 0 0 0 0 0 0 0 0 0 0 0 0 0 0 0 0 0 1669 1678 1678 1685 1691 1702 1702 1702 1698 1698 1698 1710 1724 1733 1733 1733 1735 1738 1747 1761 1786 1786 0 0 0 0 0 0 0 0 0 0 0 0 0 0 0 0 0 0 0 0 0 0 0 0 0 0 0 0 0 0 0 0 0 0 0 0 1951 1951 1951 1951 1951 1966 1973 1994 2008 2034 2040 2040 2040 2033 2033 2033 2052 2052 2052 2052 2047 2040 2040 2040 2046 2058 2068 2068 2068 2060 2060 2060 2064 2086 2119 2124 2138 2147 2164 2177 2188 2202 2211 2217 2241 2280 2309 2332 2353 2384 2402 2416 2423 2425 2425 2429 2435 2437 2445 2450 2454 2456 2462 2477 2477 2477 2467 2450 0 0 0 2115 2083 2060 2041 2023 2016 2004 1995 1991 1984 1983 1981 1980 1976 1973 1967 1961 1955 1950 1945 1941 1937 1936 1935 1931 1927 1923 1920 1916 1913 1911 1908 1907 1905 1902 1899 1898 1895 1893 1890 1887 1886 1884 1882 1880 1877 1877 1876 1876 1874 1874 1873 1872 1870 1870 1868 1867 1867 1866 1866 1865 1865 1864 1864 1863 1862 1862 1862 1862 1862 1861 1861 1861 1860 1858 1858 1856 1855 1854 1854 1852 1851 1850 1849 1849 1848 1847 1846 1846 1844 1844 1843 1842 1841 1840 1840 1839 1839 1839 1838 1837 1837 1836 1835 1834 1833 1832 1832 1830 1830 1829 1828 1826 1826 1825 1824 1823 1822 1821 1820 1818 1816 1815 1814 1813 1813 1812 1811 1811 1810 1809 1808 1808 1806 1806 1805 1804 1803 1802 1801 1801 1800 1800 1800 1800 1799 1798 1798 1797 1797 1797 1797 1797 1797 1798 1799 1800 1801 1802 1803 1806 1809 1811 1813 1815 1817 1818 1819 1820 1822 1823 1823 1824 1825 1826 1826 1827 1828 1828 1828 1829 1831 1831 1832 1834 1835 1835 1836 1837 1837 1838 1838 1840 1840 1840 1841 1841 1841 1842 1842 1843 1844 1844 1844 1845 1845 1845 1845 1845 1845 1846 1846 1847 1847 1848 1849 1850 1852 1853 1853 1853 1854 1854 1854 1854 1853 1853 1852 1851 1850 1849 1848 1847 1847 1847 1847 1847 1841 1830 1823 1814 1810 1797 1791 1770 0 0 0 0 0 0 0 0 0 0 0 1153 1139 1125 1114 1103 1095 1083 1073 1061 1049 1045 1040 1037 1035 1030 1029 1024 1021 1020 1016 1013 1010 1007 1004 1000 997 994 991 989 986 983 980 979 977 976 975 974 972 970 970 969 969 969 969 969 969 970 972 973 975 975 975 975 973 971 970 968 967 967 966 965 963 961 961 961 960 959 959 958 957 957 957 957 956 956 956 956 957 957 958 958 958 958 958 958 958 957 955 954 954 952 951 950 950 949 949 949 949 949 949 949 949 949 949 949 948 948 948 948 948 947 947 947 948 948 948 947 947 946 946 946 946 946 946 946 945 945 944 943 943 943 941 941 940 938 938 938 938 938 938 938 938 938 938 938 938 938 938 938 938 939 940 940 940 944 948 951 952 953 953 954 955 956 957 958 960 961 963 965 969 972 974 977 980 980 986 988 990 991 992 992
0 0 0 0 0 0 0 0 0 0 0 0 0 0 0 0 0 0 0 0 0 0 0 0 0 0 0 0 0 0 0 0 0 0 1736 1736 1736 0 0 0 0 0 0 0 0 0 0 0 0 0 0 0 0 0 0 0 0 0 0 0 0 0 0 0 0 0 0 0 0 0 0 0 0 0 0 1669 1671 1675 1677 1693 1698 1698 1698 1698 1698 1698 1715 1728 1729 1732 1732 1738 1747 1761 1786 1786 0 0 0 0 0 0 0 0 0 0 0 0 0 0 0 0 0 0 0 0 0 0 0 0 0 0 0 0 0 0 0 0 1925 1944 1964 1999 1999 1999 1982 1982 1982 1982 1988 2002 2032 2043 2048 2048 2048 2040 2040 2040 2064 2064 2064 2057 2046 2029 2029 2029 2035 2041 2053 2060 2060 2060 2060 2060 2070 2093 2134 2138 2156 2169 2186 2199 2211 2221 2240 2259 2284 2311 2335 2355 2375 2391 2410 2416 2423 2425 2425 2429 2435 2439 2445 2456 2472 2479 2488 2488 2488 2488 2467 2436 0 0 0 2106 2076 2059 2036 2022 2010 2002 1993 1988 1983 1982 1979 1975 1970 1964 1961 1955 1950 1945 1941 1939 1936 1934 1933 1930 1925 1921 1917 1914 1912 1909 1908 1906 1905 1902 1899 1896 1894 1893 1889 1886 1884 1882 1881 1880 1877 1877 1876 1876 1874 1873 1872 1871 1870 1869 1868 1867 1866 1865 1865 1865 1864 1864 1862 1862 1862 1862 1862 1862 1861 1861 1860 1860 1859 1858 1858 1856 1855 1854 1854 1853 1851 1850 1849 1849 1849 1848 1847 1846 1845 1844 1843 1842 1841 1841 1840 1839 1839 1839 1838 1837 1837 1836 1835 1834 1833 1832 1832 1830 1830 1829 1828 1826 1825 1825 1824 1823 1822 1821 1819 1818 1817 1815 1814 1813 1813 1812 1811 1811 1810 1809 1808 1807 1806 1806 1804 1804 1802 1802 1801 1801 1800 1800 1800 1800 1799 1798 1798 1797 1797 1797 1797 1798 1798 1799 1799 1801 1801 1802 1804 1807 1809 1812 1814 1815 1817 1819 1820 1821 1822 1823 1824 1824 1826 1826 1827 1827 1828 1828 1828 1829 1831 1832 1834 1835 1835 1835 1836 1838 1838 1838 1840 1840 1840 1841 1841 1841 1842 1842 1842 1842 1843 1844 1845 1845 1845 1845 1845 1845 1845 1846 1846 1847 1847 1847 1849 1850 1850 1851 1852 1852 1853 1853 1853 1853 1853 1853 1852 1851 1849 1848 1848 1847 1847 1846 1846 1840 1834 1825 1819 1811 1808 1793 1769 1734 0 0 0 0 0 0 0 0 0 1167 1151 1132 1119 1106 1093 1086 1077 1069 1061 1050 1044 1040 1037 1033 1029 1027 1024 1020 1017 1014 1011 1008 1007 1003 1000 997 993 991 989 987 983 981 979 977 975 973 973 972 971 970 968 968 968 967 967 967 967 968 969 970 973 973 973 971 970 968 967 965 965 964 963 962 960 960 959 959 959 957 957 957 956 956 955 955 955 955 955 955 956 956 956 956 956 956 956 956 955 954 954 952 951 950 949 949 948 947 947 947 947 947 947 947 947 947 947 947 946 946 946 946 946 946 946 946 946 946 946 946 945 944 944 944 944 944 944 944 943 942 942 941 940 940 939 939 937 936 936 936 935 935 935 934 934 934 934 936 936 937 937 936 936 936 936 936 937 941 943 944 944 945 945 946 948 951 951 955 957 958 959 960 962 965 969 970 972 972 980 982 982 983 985 985
0 0 0 0 0 0 0 0 0 0 0 0 0 0 0 0 0 0 0 0 0 0 0 0 0 0 0 0 0 0 0 0 1722 1722 1722 1722 1718 1700 0 0 0 0 0 0 0 0 0 0 0 0 0 0 0 0 0 0 0 0 0 0 0 0 0 0 0 0 0 0 0 0 0 0 0 0 0 0 0 1669 1676 1677 1679 1679 1679 1679 1679 1694 1709 1723 1726 1732 1732 1738 1744 1745 1745 1745 0 0 0 0 0 0 0 0 0 0 0 0 0 0 0 0 0 0 0 0 0 0 0 0 0 0 0 0 0 0 0 0 1972 1974 1983 1996 1999 1999 1999 1988 1988 1988 1988 2002 2032 2043 2048 2048 2048 2043 2043 2043 2064 2064 2064 2056 2039 2025 2025 2025 2025 2035 2049 2050 2052 2057 2060 2062 2080 2100 2142 2175 2178 2197 2213 2225 2231 2243 2263 2284 2306 2328 2352 2381 2405 2412 2417 2419 2423 2426 2429 2430 2435 2440 2451 2458 2472 2483 2496 2496 2496 2493 2467 0 0 0 0 2094 2071 2059 2036 2020 2009 2001 1992 1988 1982 1980 1977 1972 1966 1960 1954 1952 1946 1942 1939 1936 1933 1931 1930 1927 1924 1919 1916 1914 1909 1908 1907 1905 1905 1902 1898 1896 1894 1891 1889 1886 1883 1882 1880 1879 1877 1877 1876 1875 1874 1873 1871 1870 1870 1869 1867 1866 1866 1865 1864 1864 1863 1862 1862 1861 1861 1861 1861 1861 1861 1860 1860 1859 1859 1858 1857 1856 1856 1855 1854 1853 1851 1850 1850 1850 1850 1848 1847 1846 1845 1845 1843 1842 1841 1841 1840 1839 1839 1839 1838 1837 1837 1836 1835 1834 1833 1832 1831 1830 1829 1829 1828 1826 1825 1825 1824 1822 1820 1819 1819 1818 1817 1816 1815 1814 1813 1812 1811 1810 1809 1809 1808 1807 1806 1805 1804 1803 1802 1802 1801 1801 1800 1800 1800 1800 1799 1798 1798 1798 1798 1798 1798 1799 1799 1800 1800 1802 1802 1805 1807 1809 1811 1813 1814 1816 1818 1820 1821 1822 1823 1824 1824 1825 1826 1827 1827 1828 1828 1828 1829 1830 1832 1833 1834 1835 1836 1837 1838 1839 1839 1840 1840 1841 1841 1841 1842 1842 1842 1842 1842 1842 1843 1844 1845 1845 1845 1845 1845 1845 1845 1846 1846 1846 1847 1847 1847 1848 1849 1850 1850 1852 1852 1853 1853 1853 1853 1853 1852 1851 1849 1848 1847 1846 1846 1845 1843 1838 1831 1822 1813 1811 1801 0 0 0 0 0 0 0 0 0 0 0 1152 1138 1123 1107 1096 1085 1076 1070 1062 1057 1050 1045 1041 1036 1032 1028 1025 1022 1018 1015 1011 1009 1007 1004 1002 1000 997 993 991 988 986 983 981 979 977 975 974 972 971 971 971 969 967 967 967 966 966 966 966 967 967 969 969 969 969 969 966 965 964 962 962 961 961 960 959 958 957 957 956 956 955 955 954 954 954 954 954 954 954 954 954 954 955 955 955 954 954 953 953 952 951 950 950 948 948 947 946 945 945 945 945 945 945 945 945 945 945 944 944 944 944 944 944 944 944 944 944 944 944 944 943 943 943 943 943 942 942 941 941 941 940 940 940 939 939 938 936 935 935 933 933 932 931 931 931 931 931 932 933 934 934 934 933 933 933 933 935 937 938 938 938 938 939 941 944 947 948 949 951 952 953 953 956 958 959 960 961 964 970 971 972 972 974 974
0 0 0 0 0 0 0 0 0 0 0 0 0 0 0 0 0 0 0 0 0 0 0 0 0 1725 1725 1725 1725 1727 1727 1727 1727 1719 1718 1718 1697 1668 0 0 0 0 0 0 0 0 0 0 0 0 0 0 0 0 0 0 0 0 0 0 0 0 0 0 0 0 0 0 0 0 0 0 0 0 0 0 0 0 1674 1674 1674 1674 1665 1665 1665 1680 1698 1711 1716 1719 1732 1733 1733 1733 1732 1732 0 0 0 0 0 0 0 0 0 0 0 0 0 0 0 0 0 0 0 0 0 0 0 0 0 0 0 0 0 0 0 1980 1980 1980 1989 1996 1999 1999 1999 1991 1988 1988 1988 2002 2032 2043 2048 2048 2048 2043 2043 2043 2064 2064 2064 2056 2039 2025 2025 2025 2025 2035 2049 2050 2051 2054 2054 2075 2101 2145 2174 2198 2225 2228 2247 2251 2256 2267 2287 2302 2322 2348 2386 2411 2417 2418 2422 2422 2423 2426 2432 2437 2441 2441 2453 2465 2472 2483 2496 2496 2496 2493 2467 0 0 0 0 2075 2058 2049 2031 2015 2005 1998 1992 1987 1982 1980 1975 1970 1963 1957 1953 1947 1944 1940 1936 1933 1930 1928 1928 1924 1921 1919 1915 1913 1909 1907 1905 1904 1902 1901 1897 1895 1892 1890 1888 1886 1883 1881 1880 1878 1877 1876 1876 1874 1873 1873 1871 1870 1870 1869 1867 1866 1865 1864 1863 1863 1863 1862 1861 1861 1860 1860 1860 1860 1860 1859 1859 1859 1859 1858 1857 1856 1856 1855 1854 1853 1852 1851 1850 1850 1850 1848 1847 1846 1845 1845 1844 1843 1842 1841 1841 1840 1840 1840 1838 1837 1837 1836 1835 1834 1833 1832 1831 1830 1829 1828 1828 1827 1825 1824 1823 1821 1820 1819 1819 1818 1817 1816 1815 1814 1813 1812 1811 1810 1809 1808 1808 1807 1806 1805 1804 1803 1802 1802 1801 1801 1800 1800 1800 1800 1799 1799 1799 1799 1799 1799 1800 1800 1800 1800 1802 1803 1805 1808 1810 1810 1811 1814 1815 1817 1819 1821 1822 1822 1823 1824 1824 1825 1827 1828 1828 1828 1828 1829 1829 1830 1833 1834 1835 1836 1836 1837 1838 1839 1839 1840 1841 1841 1841 1842 1842 1842 1842 1842 1842 1842 1843 1843 1844 1844 1844 1844 1845 1845 1845 1845 1846 1846 1846 1846 1847 1847 1848 1849 1850 1851 1851 1853 1853 1853 1853 1853 1852 1851 1849 1847 1847 1846 1845 1844 1841 1835 1828 1817 1808 1807 0 0 0 0 0 0 0 0 0 0 0 1148 1127 1112 1100 1090 1079 1073 1068 1062 1053 1048 1043 1041 1037 1031 1026 1023 1020 1017 1012 1009 1007 1004 1003 1001 1000 997 994 991 988 985 983 981 979 977 975 973 972 971 970 970 969 967 966 966 966 966 966 965 965 965 966 967 967 967 967 965 964 962 960 959 959 959 958 957 956 956 955 955 955 954 953 953 953 953 953 953 952 952 953 953 953 953 953 953 953 953 951 951 950 949 949 948 947 946 946 946 945 944 944 944 944 944 944 944 943 943 943 943 943 942 942 943 943 942 942 942 942 942 942 942 942 942 941 941 940 940 939 939 939 939 939 939 938 938 937 937 936 935 933 932 930 930 929 928 928 928 929 929 930 930 930 930 930 930 930 930 932 933 933 933 933 933 935 938 942 943 943 943 944 945 945 947 948 949 949 949 949 954 958 960 960 961 964 964
0 0 0 0 0 0 0 0 0 0 0 0 0 0 0 0 0 0 0 0 0 0 0 0 1725 1725 1725 1725 1725 1727 1727 1727 1719 1709 1706 1693 1671 1659 0 0 0 0 0 0 0 0 0 0 0 0 0 0 0 0 0 0 0 0 0 0 0 0 0 0 0 0 0 0 0 0 0 0 0 0 0 0 0 0 0 0 0 1670 1653 1653 1653 1663 1688 1698 1704 1718 1727 1730 1730 1732 1732 1732 0 0 0 0 0 0 0 0 0 0 0 0 0 0 0 0 0 0 0 0 0 0 0 0 0 0 0 1870 1873 1908 1955 1980 1980 1980 1985 1985 1993 1999 1999 1999 1993 1987 1987 1987 2005 2025 2038 2039 2039 2043 2043 2043 2051 2053 2053 2053 2039 2032 2025 2025 2025 2035 2049 2050 2051 2056 0 0 2181 2186 2206 2232 2250 2262 2266 2274 2282 2297 2313 2326 2343 2367 2396 2411 2417 2418 2422 2422 2423 2426 2435 2444 2452 2455 2455 2465 2472 2483 2496 2496 2496 2493 0 0 0 0 0 2075 2052 2036 2023 2008 1999 1995 1990 1987 1983 1980 1974 1968 1961 1955 1950 1945 1942 1940 1935 1930 1927 1925 1925 1922 1919 1915 1914 1913 1909 1907 1904 1903 1901 1899 1895 1893 1892 1889 1887 1884 1882 1881 1879 1878 1876 1876 1875 1874 1873 1872 1871 1870 1869 1869 1867 1866 1865 1864 1863 1862 1862 1861 1860 1860 1860 1859 1859 1859 1859 1859 1859 1858 1858 1857 1857 1856 1856 1855 1854 1853 1852 1851 1850 1850 1850 1848 1847 1846 1846 1845 1844 1843 1842 1841 1841 1841 1840 1840 1839 1837 1837 1836 1835 1834 1833 1832 1831 1830 1829 1828 1828 1827 1826 1824 1823 1821 1820 1819 1819 1818 1817 1816 1815 1815 1813 1812 1811 1810 1810 1808 1808 1807 1806 1805 1804 1803 1803 1802 1801 1801 1800 1800 1800 1800 1799 1799 1799 1799 1799 1799 1800 1800 1801 1802 1803 1805 1807 1809 1810 1811 1812 1815 1817 1818 1820 1821 1822 1822 1823 1825 1825 1826 1827 1828 1828 1828 1829 1830 1830 1832 1833 1834 1835 1836 1837 1838 1838 1839 1839 1841 1841 1841 1842 1842 1842 1842 1842 1842 1842 1842 1843 1843 1844 1844 1844 1844 1844 1844 1844 1845 1845 1845 1845 1846 1846 1846 1847 1848 1849 1851 1851 1851 1852 1852 1852 1852 1852 1851 1848 1846 1846 1845 1845 1842 1835 1830 1819 1809 1807 0 0 0 0 0 0 0 0 0 0 1173 1150 1130 1109 1099 1090 1081 1074 1069 1064 1055 1045 1040 1038 1035 1030 1025 1022 1019 1016 1012 1008 1006 1003 1001 1000 998 996 994 991 988 985 983 982 979 978 975 973 972 970 969 968 968 967 965 965 964 964 964 964 964 964 965 965 965 965 965 964 962 960 959 958 957 956 955 955 954 954 954 954 953 952 952 951 951 951 951 951 951 950 950 950 951 951 951 952 952 952 951 950 949 948 947 946 945 945 944 944 943 943 943 942 942 942 942 942 942 942 942 942 941 941 941 941 941 941 941 941 941 941 941 940 940 940 940 939 939 939 939 938 938 938 938 938 938 937 937 936 936 935 934 933 932 930 929 928 928 927 927 927 927 928 928 928 927 927 927 927 928 929 930 930 930 930 930 932 935 937 938 938 938 938 938 939 939 939 939 939 940 941 944 947 950 951 953 956 956
0 0 0 0 0 0 0 0 0 0 0 0 0 0 0 0 0 0 0 0 0 0 0 0 1725 1725 1718 1718 1718 1718 1718 1717 1709 1701 1694 1672 1668 1665 0 0 0 0 0 0 0 0 0 0 0 0 0 0 0 0 0 0 0 0 0 0 0 0 0 0 0 0 0 0 0 0 0 0 0 0 0 0 0 0 0 0 0 0 0 1650 1650 1662 1673 1691 1697 1710 1721 1728 1729 1732 1734 1732 0 0 0 0 0 0 0 0 0 0 0 0 0 0 0 0 0 0 0 0 0 0 0 0 1888 1888 1883 1883 1883 1908 1955 1980 1980 1980 1980 1980 1987 1995 1995 1995 1993 1980 1979 1979 1980 1987 2016 2030 2033 2033 2033 2033 2033 2037 2048 2048 2048 2047 2034 2034 2034 2043 2051 2055 2057 2082 2130 2180 2192 2217 2235 2252 2271 2288 2290 2298 2310 2320 2334 2345 2365 2384 2396 2411 2417 2418 2422 2422 2424 2430 2439 2454 2465 2468 2468 2470 2472 2483 2490 2490 2490 0 0 0 0 0 2096 2075 2052 2034 2012 2000 1994 1992 1990 1986 1983 1979 1973 1967 1960 1954 1950 1945 1941 1936 1933 1928 1926 1924 1923 1920 1918 1915 1913 1910 1908 1907 1904 1902 1900 1897 1895 1891 1890 1887 1885 1883 1882 1879 1878 1877 1876 1876 1875 1874 1873 1871 1869 1868 1868 1868 1866 1866 1865 1864 1862 1860 1860 1860 1860 1859 1859 1859 1858 1858 1859 1859 1858 1858 1858 1857 1856 1856 1856 1855 1854 1853 1852 1851 1851 1850 1850 1848 1847 1846 1846 1845 1844 1843 1843 1842 1841 1841 1840 1840 1839 1837 1837 1836 1835 1834 1833 1832 1831 1830 1829 1828 1828 1827 1826 1824 1823 1821 1820 1819 1819 1818 1818 1817 1816 1815 1813 1813 1811 1810 1810 1809 1808 1807 1806 1805 1805 1804 1803 1802 1802 1801 1800 1800 1800 1800 1800 1800 1800 1800 1800 1800 1801 1801 1802 1803 1803 1805 1808 1809 1810 1812 1814 1815 1818 1820 1821 1822 1822 1822 1823 1825 1826 1826 1827 1828 1829 1829 1830 1831 1832 1833 1833 1835 1835 1837 1838 1838 1838 1839 1839 1841 1841 1842 1842 1842 1842 1842 1842 1842 1842 1842 1843 1843 1843 1844 1844 1844 1844 1844 1844 1845 1845 1845 1845 1845 1846 1846 1847 1847 1849 1849 1849 1850 1850 1850 1852 1852 1852 1850 1848 1845 1845 1845 1842 1839 1831 1821 1803 1799 0 0 0 0 0 0 0 0 0 0 1175 1155 1133 1113 1100 1092 1084 1077 1072 1067 1060 1050 1038 1034 1032 1029 1025 1021 1017 1014 1012 1008 1005 1002 1000 998 997 995 994 990 988 986 983 980 978 977 975 973 972 969 969 967 967 966 965 964 963 963 963 963 963 963 963 963 963 963 963 963 961 960 958 957 956 955 954 953 953 952 952 952 952 951 950 950 949 949 949 949 949 949 949 949 950 950 950 950 950 950 950 949 948 947 946 945 945 944 943 943 942 942 942 941 941 941 941 941 941 940 940 940 940 940 939 939 939 939 939 939 939 939 939 939 939 938 938 938 938 938 938 937 937 937 937 936 936 936 936 935 935 935 935 934 932 930 928 928 927 926 926 926 926 926 926 926 926 926 926 926 926 926 928 928 928 928 928 929 929 932 933 933 933 933 933 933 933 933 932 932 932 932 934 937 938 940 944 946 949 949
0 0 0 0 0 0 0 0 0 0 0 0 0 0 0 0 0 0 0 0 0 0 0 0 1711 1688 1681 1681 1681 1692 1694 1694 1694 1694 1694 1672 1668 1665 0 0 0 0 0 0 0 0 0 0 0 0 0 0 0 0 0 0 0 0 0 0 0 0 0 0 0 0 0 0 0 0 0 0 0 0 0 0 0 0 0 0 0 0 0 0 1646 1660 1670 1675 1689 1710 1721 1725 1740 1742 1742 1742 0 0 0 0 0 0 0 0 0 0 0 0 0 0 0 0 0 0 0 0 0 0 0 1888 1888 1888 1883 1883 1883 1908 1932 1957 1964 1965 1966 1969 1986 1995 1995 1995 1987 1975 1972 1972 1975 1987 2006 2020 2028 2028 2028 2028 2028 2037 2048 2066 2066 2066 2060 2057 2057 2057 2057 2064 2065 2083 2132 2191 2221 2237 2257 2278 2296 2305 2314 2316 2330 2343 2354 2365 2378 2393 2399 2402 2405 2410 2415 2419 2426 2435 2448 2459 2469 2480 2481 2481 2482 2483 2483 2483 2478 0 0 0 0 2112 2096 2077 2052 2034 2012 2000 1993 1992 1989 1985 1983 1978 1971 1963 1958 1953 1949 1944 1939 1935 1932 1926 1923 1922 1920 1920 1916 1913 1911 1909 1906 1904 1903 1900 1899 1896 1894 1891 1889 1887 1885 1883 1882 1879 1878 1877 1876 1875 1875 1874 1872 1870 1869 1868 1867 1866 1865 1864 1864 1862 1862 1860 1859 1859 1859 1859 1858 1858 1858 1858 1858 1857 1857 1857 1857 1856 1856 1856 1856 1855 1854 1853 1852 1851 1851 1850 1849 1848 1847 1846 1846 1845 1845 1844 1843 1842 1841 1841 1841 1840 1839 1837 1837 1836 1835 1834 1833 1832 1831 1830 1829 1828 1828 1827 1826 1824 1823 1822 1820 1819 1819 1818 1818 1817 1816 1815 1814 1813 1813 1812 1811 1809 1808 1808 1807 1806 1805 1804 1803 1802 1802 1802 1801 1801 1801 1801 1801 1801 1800 1800 1800 1801 1801 1802 1802 1803 1805 1807 1808 1811 1811 1813 1815 1817 1818 1821 1822 1823 1824 1824 1825 1826 1827 1827 1828 1828 1829 1830 1830 1832 1832 1833 1833 1835 1836 1837 1837 1838 1838 1839 1839 1840 1842 1842 1842 1842 1842 1842 1842 1842 1842 1842 1842 1842 1843 1843 1843 1843 1843 1844 1844 1844 1845 1845 1845 1845 1845 1846 1846 1846 1847 1847 1847 1847 1847 1848 1851 1851 1851 1848 1846 1844 1843 1843 1841 1833 1821 1804 1802 0 0 0 0 0 0 0 0 0 0 1175 1157 1141 1120 1105 1093 1086 1079 1074 1068 1062 1051 1042 1034 1029 1026 1024 1021 1018 1014 1011 1009 1004 1001 999 996 995 993 992 990 988 985 983 981 978 977 975 973 971 970 968 966 966 965 964 964 962 962 962 962 962 962 962 961 961 961 961 960 960 959 957 956 955 954 953 952 952 951 950 950 950 950 949 949 948 947 947 947 947 947 948 948 948 948 948 948 948 948 948 947 947 946 945 944 943 942 942 942 942 941 941 941 941 940 940 940 940 939 939 939 939 938 938 938 938 938 938 938 938 938 938 938 938 938 937 937 937 937 936 936 936 935 935 935 935 935 935 935 935 934 934 933 932 931 929 928 927 926 925 925 925 925 925 925 926 926 926 925 925 925 926 927 927 927 927 927 927 927 929 929 929 928 928 928 929 929 929 928 927 927 928 930 931 932 933 936 940 945 945
0 0 0 0 0 0 0 0 0 0 0 0 0 0 0 0 0 0 0 0 0 0 0 1692 1692 1677 1677 1677 1681 1692 1694 1694 1694 1694 1694 1672 1668 1665 1652 0 0 0 0 0 0 0 0 0 0 0 0 0 0 0 0 0 0 0 0 0 0 0 0 0 0 0 0 0 0 0 0 0 0 0 0 0 0 0 0 0 0 0 0 0 1644 1659 1667 1675 1689 1710 1721 1725 1744 1746 1763 1763 0 0 0 0 0 0 0 0 0 0 0 0 0 0 0 0 0 0 0 0 0 0 1871 1892 1896 1896 1896 1896 1899 1909 1921 1926 1929 1931 1949 1967 1985 1993 1993 1993 1987 1972 1968 1968 1972 1987 2002 2012 2012 2012 2013 2013 2013 2037 2048 2086 2095 2095 2095 2082 2082 2082 2091 2097 2115 2131 2169 2193 2223 2269 2291 2307 2314 2326 2335 2346 2348 2361 2368 2377 2389 2396 2401 2402 2405 2409 2415 2419 2427 2436 2448 2459 2471 2481 2486 2486 2486 2485 2481 2479 2451 0 0 0 2142 2112 2095 2079 2060 2034 2012 2000 1992 1992 1989 1985 1980 1971 1963 1957 1952 1948 1945 1943 1938 1933 1928 1925 1922 1920 1919 1917 1915 1912 1908 1906 1905 1903 1901 1899 1897 1895 1893 1891 1888 1886 1885 1883 1882 1879 1877 1877 1876 1875 1875 1873 1872 1870 1869 1867 1866 1864 1864 1863 1863 1862 1861 1860 1859 1858 1858 1858 1858 1858 1858 1857 1857 1857 1857 1856 1856 1856 1856 1855 1855 1854 1854 1853 1852 1851 1850 1850 1849 1848 1847 1846 1846 1845 1845 1844 1843 1842 1841 1841 1841 1841 1840 1839 1837 1837 1836 1834 1833 1832 1831 1831 1829 1828 1828 1827 1826 1824 1824 1822 1821 1821 1820 1819 1818 1817 1817 1816 1816 1815 1814 1812 1811 1810 1809 1808 1807 1806 1805 1804 1803 1802 1802 1802 1802 1801 1801 1801 1801 1801 1801 1801 1801 1801 1802 1802 1802 1804 1807 1809 1810 1812 1813 1815 1817 1818 1820 1821 1823 1824 1825 1826 1826 1827 1827 1828 1828 1829 1830 1830 1831 1832 1832 1833 1834 1835 1836 1837 1837 1838 1838 1839 1840 1841 1842 1842 1842 1842 1841 1841 1841 1841 1841 1841 1841 1842 1842 1842 1843 1843 1843 1843 1844 1844 1844 1844 1844 1845 1845 1845 1846 1846 1846 1846 1845 1845 1845 1846 1849 1849 1849 1846 1844 1840 1840 1838 1832 1822 1805 1803 0 0 0 0 0 0 0 0 0 0 0 1147 1138 1126 1108 1095 1088 1081 1073 1068 1060 1053 1043 1036 1031 1026 1023 1020 1017 1012 1008 1006 1004 1001 998 994 993 992 991 989 987 985 983 981 979 977 975 972 971 969 968 966 965 965 964 962 961 960 960 960 960 960 960 960 960 959 959 959 958 958 957 956 955 953 952 952 951 950 950 949 948 948 948 948 948 946 946 946 946 946 946 946 946 947 947 947 947 946 946 946 945 945 944 944 942 942 941 941 941 940 940 940 940 939 939 939 939 938 938 937 937 937 937 937 937 937 936 936 936 936 937 937 937 937 937 937 937 936 936 935 935 935 934 934 934 934 934 934 934 934 934 934 932 932 931 928 927 925 925 924 924 924 924 924 924 924 925 925 925 925 925 925 926 926 926 926 926 926 926 927 927 927 926 926 925 925 924 924 924 924 924 924 927 928 930 931 934 937 942 942
0 0 0 0 0 0 0 0 0 0 0 0 0 0 0 0 0 0 0 0 0 0 0 1720 1692 1677 1677 1677 1681 1692 1694 1694 1696 1699 1699 1699 1665 1652 1647 0 0 0 0 0 0 0 0 0 0 0 0 0 0 0 0 0 0 0 0 0 0 0 0 0 0 0 0 0 0 0 0 0 0 0 0 0 0 0 0 0 0 0 0 0 0 1660 1667 1675 1689 1721 1725 1727 1750 1789 1789 1789 0 0 0 0 0 0 0 0 0 0 0 0 0 0 0 0 0 0 0 0 1791 1833 1869 1899 1899 1899 1902 1911 1914 1921 1921 1921 1925 1925 1935 1967 1981 1987 1987 1987 1972 1972 1972 1972 1973 1994 1994 2002 2002 1998 2002 2002 2013 2050 2083 2118 2118 2118 2113 2113 2113 2123 2129 2154 2177 2190 2208 2223 2246 2269 2293 2332 2335 2341 2350 2362 2366 2370 2378 2391 2397 2401 2402 2403 2405 2409 2415 2419 2427 2436 2448 2460 2472 2482 2486 2486 2486 2482 2481 2474 2445 0 0 0 2133 2110 2093 2079 2060 2039 2014 2001 1992 1988 1987 1983 1975 1969 1956 1952 1947 1942 1940 1936 1933 1929 1925 1921 1919 1918 1916 1916 1913 1909 1907 1904 1902 1901 1899 1898 1895 1893 1892 1890 1887 1885 1884 1883 1882 1879 1877 1876 1875 1875 1874 1873 1872 1870 1869 1867 1865 1864 1863 1863 1862 1862 1860 1859 1859 1858 1858 1858 1858 1857 1857 1857 1856 1856 1856 1856 1855 1855 1855 1855 1854 1853 1853 1853 1852 1851 1851 1850 1848 1848 1847 1846 1846 1846 1845 1845 1845 1844 1843 1841 1841 1841 1841 1840 1839 1837 1836 1835 1833 1832 1831 1831 1830 1829 1828 1827 1826 1825 1824 1823 1822 1822 1821 1820 1820 1819 1818 1817 1816 1816 1815 1814 1812 1811 1810 1808 1808 1807 1806 1804 1804 1803 1803 1803 1803 1802 1802 1802 1802 1801 1802 1802 1802 1802 1802 1803 1804 1807 1808 1810 1812 1814 1815 1817 1819 1819 1821 1822 1823 1825 1825 1826 1827 1827 1828 1828 1829 1830 1830 1831 1832 1832 1832 1832 1834 1835 1836 1837 1837 1837 1838 1839 1840 1841 1842 1842 1842 1841 1841 1841 1840 1840 1840 1840 1841 1842 1842 1842 1842 1842 1843 1843 1843 1843 1844 1844 1844 1844 1844 1844 1845 1845 1845 1845 1844 1843 1843 1843 1846 1846 1846 1845 1844 1838 1835 1830 1822 1807 1782 1780 0 0 0 0 0 0 0 0 1192 1164 1147 1131 1122 1109 1093 1087 1081 1074 1066 1061 1055 1043 1038 1032 1028 1023 1020 1015 1011 1008 1005 1001 999 997 994 992 990 989 987 986 984 982 981 979 977 976 973 971 970 968 965 964 963 962 962 961 960 959 959 958 958 958 958 958 958 958 958 958 958 956 955 954 953 952 951 949 949 948 948 947 946 946 946 946 946 945 945 944 944 944 944 944 945 945 945 945 945 945 944 944 943 943 942 941 941 940 940 940 939 939 939 938 938 938 938 938 938 937 936 936 936 936 936 935 935 935 935 935 935 935 935 935 935 935 935 935 935 935 935 935 934 933 933 933 933 933 933 933 933 933 933 933 931 930 929 927 926 925 924 924 924 923 923 923 923 923 923 923 923 923 924 925 925 925 925 925 925 925 925 925 925 924 923 922 921 919 919 919 919 920 920 921 923 928 929 930 931 935 938 938
0 0 0 0 0 0 0 0 0 0 0 0 0 0 0 0 0 0 0 0 0 0 1720 1720 1692 1682 1682 1682 1712 1729 1729 1729 1728 1722 1720 1699 1665 1644 1643 0 0 0 0 0 0 0 0 0 0 0 0 0 0 0 0 0 0 0 0 0 0 0 0 0 0 0 0 0 0 0 0 0 0 0 0 0 0 0 0 0 0 0 0 0 0 0 1667 1684 1706 1724 1761 1764 1784 1806 1806 0 0 0 0 0 0 0 0 0 0 0 0 0 0 0 0 0 0 0 1792 1792 1802 1830 1858 1893 1899 1911 1913 1916 1918 1921 1921 1925 1925 1925 1935 1963 1966 1986 1986 1986 1966 1966 1966 1974 1990 1994 1994 1996 1997 1997 1998 2001 2014 2067 2125 2125 2129 2134 2134 2150 2154 2155 2182 2202 2220 2234 2243 2258 2280 2302 2320 2332 2336 2351 2360 2362 2368 2370 2383 2395 2406 2408 2408 2409 2409 2409 2419 2428 2433 2438 2448 2459 2472 2482 2486 2486 2486 2481 2479 2472 2440 0 0 0 2131 2108 2093 2079 2060 2042 2023 2003 1992 1988 1985 1979 1973 1963 1955 1948 1943 1940 1936 1932 1929 1925 1921 1918 1916 1915 1914 1912 1911 1908 1904 1902 1901 1899 1898 1896 1894 1892 1890 1888 1887 1884 1883 1882 1881 1879 1877 1876 1875 1874 1872 1872 1871 1870 1869 1867 1865 1863 1863 1862 1862 1861 1860 1859 1859 1858 1858 1857 1857 1857 1857 1856 1855 1855 1855 1855 1855 1854 1854 1854 1853 1853 1852 1852 1851 1851 1851 1850 1848 1848 1847 1847 1846 1846 1845 1845 1845 1844 1844 1842 1842 1841 1841 1840 1839 1838 1837 1836 1834 1833 1832 1831 1830 1829 1828 1827 1826 1825 1824 1824 1823 1822 1822 1822 1821 1820 1819 1817 1817 1816 1815 1815 1813 1813 1811 1810 1809 1808 1806 1806 1804 1804 1804 1804 1803 1803 1802 1802 1802 1802 1802 1802 1802 1802 1803 1804 1806 1808 1810 1811 1813 1815 1816 1819 1820 1820 1821 1823 1823 1825 1826 1826 1827 1828 1828 1829 1829 1830 1831 1832 1832 1832 1833 1833 1833 1834 1835 1837 1837 1837 1837 1839 1840 1840 1840 1840 1840 1840 1840 1840 1840 1840 1840 1840 1840 1841 1841 1841 1842 1842 1842 1842 1843 1843 1843 1843 1844 1844 1844 1844 1844 1844 1844 1844 1844 1843 1843 1843 1845 1845 1845 1844 1840 1835 1827 1818 1804 1785 1782 0 0 0 0 0 0 0 0 0 1172 1151 1133 1117 1105 1091 1083 1077 1072 1066 1061 1055 1050 1042 1034 1027 1023 1019 1015 1011 1007 1004 1000 998 996 994 991 988 987 985 984 983 981 980 979 977 975 973 972 969 967 965 964 962 962 961 959 959 958 958 958 957 957 957 957 957 957 957 957 956 956 956 954 953 951 950 949 947 947 947 946 946 944 944 943 943 943 943 943 943 942 942 943 943 943 944 944 944 944 943 943 943 941 941 940 939 939 939 938 938 937 937 937 937 937 937 937 937 936 936 935 935 934 934 934 934 934 934 934 934 934 934 934 934 934 934 934 934 934 934 934 933 933 932 932 932 932 932 932 932 932 932 932 932 930 929 928 927 925 925 924 923 922 922 922 922 922 922 922 922 922 923 923 924 924 924 923 923 923 923 923 923 923 922 921 920 918 915 915 915 915 916 916 918 921 926 928 928 929 931 934 934
0 0 0 0 0 0 0 0 0 0 0 0 0 0 0 0 0 0 0 0 0 0 1723 1723 1698 1685 1685 1685 1726 1755 1759 1759 1759 1728 1720 1699 1665 1636 1631 0 0 0 0 0 0 0 0 0 0 0 0 0 0 0 0 0 0 0 0 0 0 0 0 0 0 0 0 0 0 0 0 0 0 0 0 0 0 0 0 0 0 0 0 0 0 0 1703 1725 1742 1753 1763 1766 1796 1806 0 0 0 0 0 0 0 0 0 0 0 0 0 0 0 0 0 1803 1797 1797 1797 1811 1813 1830 1858 1882 1896 1911 1916 1918 1918 1926 1926 1926 1926 1926 1935 1959 1963 1976 1976 1976 1964 1964 1964 1974 1990 1991 1994 1996 1997 1998 2001 2011 2038 2086 2142 2142 2142 2142 2142 2164 2176 2190 2212 2238 2263 2281 2290 2308 2323 2326 2328 2332 2340 2352 2360 2363 2368 2379 2384 2397 2406 2412 2412 2413 2415 2415 2423 2430 2441 2444 2449 2460 2473 2479 2479 2479 2475 2473 2471 2468 0 0 0 0 2125 2107 2091 2076 2060 2042 2023 2003 1993 1988 1983 1975 1968 1961 1954 1948 1943 1940 1936 1930 1925 1921 1918 1916 1914 1912 1911 1909 1907 1905 1902 1900 1900 1897 1896 1894 1892 1890 1888 1887 1885 1884 1883 1881 1880 1879 1877 1876 1874 1873 1872 1871 1870 1870 1869 1866 1865 1863 1862 1862 1861 1861 1860 1859 1859 1858 1857 1857 1857 1856 1855 1855 1855 1855 1854 1854 1854 1854 1854 1854 1853 1852 1851 1851 1851 1851 1850 1850 1848 1847 1847 1846 1846 1846 1845 1845 1845 1844 1844 1843 1842 1842 1841 1841 1839 1838 1837 1836 1834 1833 1832 1831 1830 1829 1828 1828 1827 1826 1825 1824 1823 1823 1823 1822 1822 1821 1819 1819 1817 1817 1817 1816 1815 1813 1812 1810 1809 1808 1807 1807 1805 1805 1805 1804 1804 1803 1802 1802 1802 1802 1802 1802 1803 1803 1804 1805 1806 1808 1810 1812 1815 1816 1818 1820 1821 1821 1821 1823 1824 1825 1826 1827 1827 1828 1828 1829 1829 1830 1831 1832 1832 1832 1833 1833 1833 1834 1834 1835 1836 1837 1837 1838 1839 1839 1840 1840 1840 1840 1840 1840 1840 1840 1840 1840 1840 1840 1841 1841 1841 1841 1841 1842 1842 1843 1843 1843 1843 1843 1843 1843 1843 1843 1843 1843 1843 1843 1843 1843 1843 1843 1839 1835 1830 1824 1813 1800 1785 1782 0 0 0 0 0 0 0 0 0 1175 1154 1133 1115 1101 1086 1079 1075 1067 1062 1059 1055 1049 1043 1039 1032 1025 1019 1016 1012 1008 1003 1000 997 994 992 990 988 986 984 983 982 980 980 978 977 975 973 972 969 966 965 964 962 961 960 959 958 957 956 956 956 956 955 955 955 955 955 955 955 955 955 954 952 951 949 948 947 946 945 945 944 944 943 942 942 942 942 941 941 941 941 941 941 942 942 942 942 942 941 941 941 941 940 939 938 937 936 936 936 936 936 936 936 936 936 936 936 936 935 934 934 933 933 933 933 933 933 933 933 933 933 933 933 933 933 933 934 934 934 933 933 933 932 931 931 931 931 931 932 932 932 931 931 931 930 929 927 926 925 924 922 922 921 921 920 920 921 921 921 921 921 921 923 923 923 923 923 923 922 922 922 922 922 919 919 917 916 915 915 914 913 913 913 916 921 922 925 925 926 926 929 929
0 0 0 0 0 0 0 0 0 0 0 0 0 0 0 0 0 0 0 0 0 0 1718 1718 1718 1711 1711 1711 1729 1755 1766 1766 1766 1728 1709 1667 1641 1631 1618 0 0 0 0 0 0 0 0 0 0 0 0 0 0 0 0 0 0 0 0 0 0 0 0 0 0 0 0 0 0 0 0 0 0 0 0 0 0 0 0 0 0 0 0 0 0 0 1703 1732 1751 1763 1767 1770 1796 1796 0 0 0 0 0 0 0 0 0 0 0 0 0 0 0 1847 1847 1823 1805 1805 1805 1812 1813 1830 1839 1854 1879 1901 1916 1918 1918 1926 1926 1927 1927 1938 1952 1958 1963 1963 1963 1963 1961 1961 1961 1974 1990 1990 1993 1996 1997 2001 2008 2019 2050 2101 2153 2153 2157 2157 2157 2178 2204 2224 2244 2267 2288 2304 2324 2331 2331 2333 2333 2333 2343 2355 2361 2364 2370 2380 2391 2398 2406 2412 2415 2415 2415 2417 2427 2435 2443 2447 2450 2460 2474 2474 2474 2465 2465 2464 2464 2464 0 0 0 2146 2122 2102 2086 2067 2052 2042 2023 2003 1993 1988 1983 1975 1968 1959 1953 1948 1942 1939 1935 1930 1925 1921 1918 1915 1912 1911 1909 1909 1907 1904 1902 1899 1897 1897 1895 1893 1890 1889 1887 1885 1884 1883 1882 1881 1880 1878 1876 1875 1874 1872 1871 1870 1869 1868 1868 1866 1865 1863 1862 1861 1861 1861 1860 1860 1859 1858 1857 1857 1857 1856 1855 1855 1854 1854 1854 1854 1854 1854 1853 1853 1853 1852 1851 1851 1851 1850 1850 1849 1848 1847 1846 1846 1846 1846 1845 1845 1845 1844 1844 1844 1843 1842 1842 1841 1839 1839 1837 1836 1835 1833 1832 1832 1830 1829 1829 1829 1827 1826 1825 1825 1824 1823 1823 1823 1823 1822 1821 1820 1819 1818 1817 1816 1815 1813 1812 1811 1810 1810 1809 1807 1807 1807 1805 1805 1804 1804 1803 1803 1803 1803 1803 1804 1804 1805 1806 1807 1808 1809 1811 1813 1816 1817 1819 1820 1821 1822 1823 1824 1825 1826 1826 1827 1828 1828 1829 1829 1829 1830 1831 1832 1833 1833 1833 1833 1833 1834 1834 1835 1835 1835 1837 1838 1839 1839 1839 1839 1840 1840 1840 1840 1840 1840 1840 1839 1839 1840 1840 1840 1840 1841 1841 1841 1842 1843 1843 1843 1843 1843 1843 1843 1843 1843 1843 1843 1843 1843 1843 1842 1841 1839 1834 1826 1821 1811 1798 1779 1776 0 0 0 0 0 0 0 0 0 1166 1147 1133 1119 1102 1084 1074 1072 1068 1062 1057 1053 1048 1042 1038 1034 1029 1023 1017 1012 1009 1004 1000 996 994 991 988 987 985 982 981 981 979 978 977 975 974 973 971 969 967 965 963 962 960 959 959 957 957 956 955 955 954 954 954 954 953 953 953 953 953 953 952 951 950 948 947 946 945 945 944 943 943 942 941 941 941 940 940 940 940 940 940 940 940 940 940 940 940 940 940 939 939 938 938 938 937 936 935 935 935 934 934 935 935 934 934 934 934 933 933 933 932 932 932 932 932 932 932 932 932 932 932 932 932 932 932 932 932 932 932 932 932 932 931 931 931 931 931 931 930 931 931 930 930 930 930 928 926 925 924 923 922 920 920 920 920 920 920 920 920 920 920 921 921 922 922 922 922 922 921 921 921 920 919 918 916 916 915 915 915 913 913 913 913 916 919 919 921 922 922 924 926 926
0 0 0 0 0 0 0 0 0 0 0 0 0 0 0 0 0 0 0 0 0 0 0 1721 1722 1722 1722 1728 1729 1755 1766 1766 1766 1727 1690 1667 1641 1636 1631 0 0 0 0 0 0 0 0 0 0 0 0 0 0 0 0 0 0 0 0 0 0 0 0 0 0 0 0 0 0 0 0 0 0 0 0 0 0 0 0 0 0 0 0 0 0 0 1703 1732 1751 1761 1767 1770 1796 1796 0 0 0 0 0 0 0 0 0 0 0 0 1815 1834 1847 1847 1847 1824 1809 1809 1809 1812 1813 1825 1839 1850 1872 1889 1909 1918 1918 1921 1921 1926 1926 1941 1955 1958 1961 1966 1961 1961 1961 1961 1961 1973 1978 1989 1994 1996 1998 2009 2014 0 0 2145 2174 2175 2176 2182 2186 2224 2254 2274 2291 2304 2318 2331 2344 2344 2344 2339 2339 2339 2348 2360 2362 2364 2371 2381 2392 2399 2404 2410 2415 2415 2415 2419 2433 2443 2449 2450 2453 2462 2472 2472 2472 2461 2461 2461 2459 2459 0 0 0 2142 2117 2099 2079 2054 2044 2030 2015 2003 1993 1987 1983 1975 1968 1959 1953 1947 1942 1938 1934 1930 1925 1921 1918 1915 1912 1910 1909 1908 1907 1904 1902 1899 1897 1894 1892 1890 1888 1887 1886 1884 1883 1882 1880 1880 1879 1878 1876 1875 1874 1872 1871 1870 1869 1868 1866 1866 1864 1863 1862 1861 1861 1860 1860 1860 1860 1858 1857 1857 1857 1856 1855 1855 1854 1854 1853 1853 1853 1853 1853 1853 1852 1852 1851 1851 1850 1850 1850 1848 1848 1847 1846 1846 1846 1845 1845 1844 1844 1844 1844 1844 1844 1843 1842 1840 1839 1839 1838 1837 1835 1834 1832 1832 1831 1829 1829 1829 1827 1826 1826 1825 1825 1824 1824 1823 1823 1822 1822 1820 1819 1819 1818 1817 1816 1815 1813 1813 1812 1811 1810 1808 1807 1807 1806 1805 1804 1804 1803 1803 1803 1804 1804 1804 1805 1806 1808 1808 1809 1810 1811 1814 1817 1819 1819 1820 1822 1824 1824 1825 1826 1826 1827 1828 1828 1829 1829 1829 1829 1830 1831 1832 1832 1832 1833 1833 1833 1834 1834 1834 1834 1834 1836 1838 1838 1838 1839 1839 1840 1840 1840 1841 1841 1841 1840 1840 1840 1840 1840 1840 1840 1840 1841 1841 1841 1841 1842 1842 1842 1842 1842 1842 1842 1842 1842 1842 1842 1842 1842 1842 1841 1837 1829 1821 1810 1797 1777 1773 0 0 0 0 0 0 0 0 0 1168 1145 1132 1121 1109 1092 1078 1072 1066 1062 1057 1053 1048 1042 1037 1032 1029 1024 1019 1012 1009 1005 1000 997 993 991 989 985 984 982 980 978 978 977 976 974 974 972 970 968 967 965 963 961 960 958 958 957 956 955 955 954 953 953 953 953 952 953 953 953 951 951 950 950 949 948 946 945 944 943 943 943 942 941 940 940 939 939 939 938 938 938 938 938 938 938 938 938 938 938 938 937 937 937 937 937 936 935 934 934 933 933 933 933 933 933 933 932 932 932 932 932 932 931 931 930 930 930 930 930 930 930 931 931 931 931 931 931 931 931 931 931 931 931 931 930 930 930 930 930 930 930 930 930 930 930 930 929 927 926 925 923 922 920 920 919 919 919 919 920 920 920 920 920 920 920 921 921 921 921 921 920 920 920 919 918 916 914 914 914 914 914 912 912 912 912 915 917 918 919 920 922 924 925 925
0 0 0 0 0 0 0 0 0 0 0 0 0 0 0 0 0 0 0 0 0 0 0 0 0 1721 1722 1726 1726 1752 1765 1765 1765 1727 1690 1667 1641 1641 1641 1632 0 0 0 0 0 0 0 0 0 0 0 0 0 0 0 0 0 0 0 0 0 0 0 0 0 0 0 0 0 0 0 0 0 0 0 0 0 0 0 0 0 0 0 0 0 0 0 1732 1751 1755 1755 1755 1755 0 0 0 0 0 0 0 0 0 0 0 1819 1822 1823 1834 1847 1847 1847 1827 1817 1813 1812 1812 1812 1825 1836 1843 1859 1880 1889 1889 1893 1895 1895 1916 1921 1941 1958 1959 1961 1968 1961 1961 1961 1961 1961 1973 1978 1989 1996 1997 2003 0 0 0 0 2175 2198 2215 2216 2217 2238 2264 2283 2296 2302 2313 2319 2333 2344 2347 2347 2350 2352 2352 2357 2362 2364 2365 2371 2381 2394 2399 2404 2409 2411 2414 2417 2425 2437 2446 2455 2459 2468 2471 2472 2472 2472 2461 2461 2461 2457 0 0 0 0 2137 2110 2098 2077 2046 2029 2017 2006 1997 1992 1987 1983 1974 1967 1959 1952 1947 1941 1937 1934 1930 1925 1920 1918 1914 1912 1910 1909 1907 1906 1904 1901 1898 1895 1894 1892 1890 1888 1887 1885 1884 1882 1881 1880 1880 1879 1878 1876 1874 1873 1871 1870 1870 1868 1867 1866 1864 1863 1862 1861 1861 1861 1860 1860 1860 1860 1858 1857 1857 1857 1856 1855 1855 1854 1854 1853 1853 1853 1853 1853 1853 1852 1852 1851 1850 1850 1849 1849 1848 1847 1847 1846 1845 1845 1845 1844 1844 1844 1844 1844 1844 1844 1843 1842 1840 1839 1839 1838 1837 1835 1834 1832 1832 1831 1830 1829 1829 1827 1826 1826 1825 1825 1824 1824 1823 1823 1822 1822 1820 1819 1819 1818 1817 1817 1816 1815 1813 1812 1811 1810 1808 1808 1807 1806 1805 1804 1804 1803 1803 1803 1804 1804 1804 1805 1806 1809 1810 1810 1811 1813 1817 1819 1820 1820 1822 1823 1825 1825 1826 1826 1827 1827 1828 1829 1829 1829 1829 1829 1830 1830 1831 1832 1832 1833 1833 1833 1834 1834 1834 1834 1834 1835 1836 1838 1838 1839 1839 1840 1840 1841 1841 1841 1841 1840 1840 1840 1840 1840 1840 1840 1840 1841 1841 1841 1841 1842 1842 1842 1842 1842 1842 1841 1841 1840 1840 1840 1840 1837 1837 1836 1835 1829 1816 1799 1778 1776 0 0 0 0 0 0 0 0 0 1181 1157 1137 1123 1110 1096 1086 1077 1070 1063 1059 1053 1048 1043 1037 1031 1027 1023 1019 1013 1007 1005 1000 996 992 990 987 985 983 981 979 978 976 976 974 974 973 971 970 969 966 965 963 961 959 958 957 956 955 954 954 953 952 951 951 951 951 951 951 951 951 951 949 949 948 948 946 945 944 943 942 941 941 940 940 939 939 938 938 937 937 937 937 937 937 937 937 937 936 936 936 936 936 936 935 935 934 933 933 933 932 932 932 931 931 931 931 931 931 931 931 931 931 930 930 930 930 930 930 930 929 930 930 930 930 930 930 930 930 930 930 930 930 930 930 930 929 929 929 929 929 929 929 929 929 928 928 928 926 926 925 923 923 921 919 918 918 918 918 918 919 919 919 919 919 919 920 920 919 919 919 919 919 919 919 918 917 915 913 913 913 913 912 912 912 912 912 913 917 918 919 920 922 924 924 924
0 0 0 0 0 0 0 0 0 0 0 0 0 0 0 0 0 0 0 0 0 0 0 0 0 0 0 0 0 0 0 0 1744 1727 1690 1677 1656 1656 1656 1655 0 0 0 0 0 0 0 0 0 0 0 0 0 0 0 0 0 0 0 0 0 0 0 0 0 0 0 0 0 0 0 0 0 0 0 0 0 0 0 0 0 0 0 0 0 0 0 0 0 0 0 0 0 0 0 0 1791 1791 1791 1779 1779 1779 1788 1798 1819 1822 1823 1825 1830 1830 1827 1827 1820 1817 1810 1810 1810 1824 1836 1843 1859 1865 1865 1865 1866 1866 1866 1901 1921 1938 1959 1963 1963 1973 1981 1981 1981 1973 1973 1973 1978 1989 2003 0 0 0 0 0 2184 2199 2217 2234 2244 2250 2260 2267 2283 2297 2307 2319 2323 2334 2344 2350 2350 2353 2353 2357 2361 2366 2368 2368 2374 2385 2396 2401 2403 2407 2409 2414 2418 2428 2437 2447 2455 2461 2468 2472 2472 2472 2472 2461 2461 2461 2457 0 0 0 0 2121 2096 2085 2065 2046 2022 2006 2001 1994 1990 1985 1983 1974 1967 1958 1952 1946 1941 1936 1933 1930 1925 1920 1918 1914 1912 1910 1909 1907 1906 1904 1901 1897 1895 1893 1892 1890 1888 1887 1884 1883 1882 1881 1880 1879 1878 1878 1876 1874 1873 1871 1870 1869 1867 1866 1865 1863 1862 1861 1861 1861 1860 1860 1860 1860 1860 1858 1857 1857 1857 1856 1855 1855 1855 1854 1853 1853 1852 1852 1852 1852 1852 1852 1851 1850 1849 1848 1848 1847 1847 1846 1846 1845 1845 1844 1844 1844 1844 1844 1844 1844 1844 1843 1842 1840 1839 1839 1838 1837 1836 1835 1833 1832 1831 1830 1829 1829 1827 1826 1826 1825 1825 1824 1824 1823 1823 1822 1822 1820 1820 1819 1818 1818 1817 1817 1816 1815 1814 1812 1811 1809 1808 1807 1806 1805 1804 1804 1804 1804 1804 1804 1804 1805 1806 1807 1809 1811 1812 1813 1817 1818 1820 1822 1823 1823 1824 1825 1825 1826 1827 1827 1828 1828 1829 1829 1829 1829 1829 1830 1830 1831 1832 1833 1833 1834 1834 1834 1834 1834 1834 1834 1835 1836 1837 1838 1839 1839 1840 1840 1841 1841 1841 1841 1841 1840 1840 1840 1840 1840 1840 1840 1840 1841 1841 1841 1841 1841 1841 1841 1841 1840 1839 1838 1838 1838 1838 1836 1834 1831 1831 1829 1823 1807 1788 1762 0 0 0 0 0 0 0 0 0 1193 1168 1149 1129 1113 1099 1089 1079 1073 1064 1059 1053 1049 1044 1038 1033 1027 1022 1018 1013 1008 1002 1000 995 992 989 986 985 983 980 979 976 975 975 973 972 971 970 969 969 967 964 963 961 960 957 956 955 954 954 953 952 951 950 950 950 950 950 950 950 950 949 949 948 947 947 945 944 942 942 940 939 939 939 939 939 938 938 937 937 936 936 936 936 935 935 935 935 935 934 934 934 934 934 933 933 932 932 931 931 931 931 931 930 930 930 930 930 930 930 930 930 929 929 929 928 928 928 928 928 928 928 928 928 928 928 929 929 929 929 929 929 929 929 929 928 928 928 928 928 929 929 929 929 929 928 928 927 926 926 924 923 922 921 920 918 917 917 917 917 917 918 918 919 919 919 919 919 919 919 919 919 919 919 918 917 917 915 913 913 913 913 913 912 912 912 912 912 913 917 918 919 920 922 924 924 924
0 0 0 0 0 0 0 0 0 0 0 0 0 0 0 0 0 0 0 0 0 0 0 0 0 0 0 0 0 0 0 0 0 1727 1690 1679 1674 1665 1665 1674 0 0 0 0 0 0 0 0 0 0 0 0 0 0 0 0 0 0 0 0 0 0 0 0 0 0 0 0 0 0 0 0 0 0 0 0 0 0 0 0 0 0 0 0 0 0 0 0 0 0 0 0 0 0 0 1792 1792 1792 1791 1779 1779 1779 1788 1798 1819 1819 1819 1809 1809 1809 1822 1822 1822 1817 1808 1808 1808 1822 1836 1843 1855 1855 1855 1850 1846 1846 1846 1867 1905 1935 1959 1967 1971 1973 1986 1991 2011 2019 2024 2028 2028 0 0 0 0 0 2184 2192 2205 2218 2235 2245 2255 2258 2261 2268 2283 2297 2307 2319 2328 2336 2344 2350 2352 2353 2353 2357 2361 2370 2373 2373 2380 2389 2396 2401 2403 2405 2408 2413 2418 2428 2437 2447 2455 2461 2468 2472 2474 2474 2478 2479 2474 2474 2462 0 0 0 0 2099 2080 2065 2054 2037 2019 2002 1997 1994 1989 1982 1978 1974 1967 1957 1949 1945 1940 1934 1930 1928 1925 1920 1918 1914 1912 1909 1908 1907 1905 1903 1900 1897 1894 1893 1890 1890 1888 1886 1884 1883 1881 1880 1879 1879 1878 1876 1876 1873 1872 1871 1870 1869 1867 1866 1864 1862 1861 1860 1860 1859 1859 1859 1859 1859 1858 1858 1857 1857 1857 1856 1855 1855 1855 1854 1853 1853 1853 1852 1852 1852 1851 1851 1850 1850 1849 1848 1848 1847 1846 1845 1845 1844 1844 1844 1844 1844 1844 1844 1844 1844 1843 1843 1842 1840 1839 1839 1838 1837 1836 1835 1834 1833 1831 1831 1830 1829 1828 1827 1826 1826 1825 1824 1823 1823 1823 1822 1822 1821 1820 1819 1818 1818 1818 1817 1816 1816 1814 1813 1812 1810 1809 1807 1805 1805 1804 1804 1804 1804 1804 1804 1805 1805 1806 1807 1809 1811 1813 1815 1817 1820 1821 1823 1823 1824 1825 1826 1827 1827 1828 1828 1828 1828 1829 1829 1829 1829 1829 1829 1830 1830 1832 1833 1833 1834 1834 1834 1834 1834 1834 1834 1834 1835 1837 1838 1839 1839 1840 1840 1841 1841 1841 1841 1841 1840 1840 1840 1840 1840 1840 1840 1840 1840 1841 1841 1841 1841 1841 1841 1840 1839 1838 1838 1838 1838 1838 1836 1834 1828 1823 1817 1806 1790 1765 1762 0 0 0 0 0 0 0 0 1195 1172 1156 1136 1118 1104 1093 1083 1072 1065 1057 1052 1048 1045 1040 1034 1028 1024 1019 1013 1009 1003 999 994 991 988 987 984 981 979 978 976 974 973 972 971 970 969 968 966 966 964 962 962 959 957 955 954 953 952 952 951 950 950 949 948 948 948 948 948 948 948 948 947 946 945 945 944 942 941 940 939 938 937 937 937 937 936 936 935 934 934 934 934 934 934 933 933 933 933 933 932 932 932 932 932 931 930 930 930 930 930 929 929 928 928 928 928 928 928 928 928 928 928 928 928 927 927 927 927 927 927 927 927 927 928 928 928 928 928 928 928 928 928 928 928 927 927 927 927 928 928 928 928 928 928 928 928 926 925 924 923 921 921 920 919 917 917 916 916 916 916 917 918 918 918 918 918 918 918 919 919 918 917 917 916 916 915 914 913 912 912 912 912 912 912 912 912 912 913 917 919 921 922 922 922 922 922
