2880 2880 2860 2880 2880 2897 2913 2917 2934 2978 2984 3018 3038 3040 3050 3058 3065 3067 3070 3070 3077 3090 3101 3106 3120 3120 3120 3120 3120 3121 3137 3155 3169 3177 3178 3178 3179 3179 3179 3187 3192 3199 3209 3219 3224 3228 3233 3240 3253 3258 3263 3264 3264 3268 3270 3274 3280 3284 3287 3290 3294 3297 3301 3304 3304 3304 3304 3304 3304 3304 3305 3306 3312 3317 3323 3324 3324 3324 3325 3325 3327 3329 3329 3330 3330 3331 3332 3332 3332 3333 3336 3337 3341 3346 3350 3354 3358 3364 3370 3374 3376 3380 3383 3388 3392 3395 3398 3403 3409 3413 3419 3423 3428 3433 3437 3441 3442 3445 3448 3452 3456 3460 3465 3468 3470 3472 3474 3477 3480 3485 3488 3492 3495 3499 3502 3508 3513 3519 3523 3526 3529 3532 3536 3540 3544 3548 3550 3554 3556 3557 3557 3558 3561 3565 3569 3571 3574 3576 3578 3580 3582 3583 3586 3591 3595 3597 3597 3597 3597 3597 3597 3599 3599 3599 3596 3593 3590 3588 3588 3588 3592 3592 3592 3585 3577 3577 3577 3582 3594 3600 3606 3606 3606 3602 3602 3601 3601 3601 3600 3597 3596 3596 3596 3600 3602 3606 3607 3611 3613 3616 3616 3616 3612 3605 3605 3605 3604 3604 3604 3596 3583 3582 3582 3582 3582 3582 3581 3578 3578 3577 3577 3578 3578 3583 3591 3597 3600 3608 3609 3619 3621 3621 3621 3602 3581 3514 3354 3354 3354 3360 3564 3619 3622 3622 3622 3629 3629 3629 3629 3629 3629 3596 3563 3535 3504 3475 3410 3181 2749 0 0 0 2013 2005 2001 1995 1990 1985 1980 1975 1972 1969 1966 1961 1953 1947 1942 1937 1934 1931 1928 1926 1924 1923 1921 1918 1917 1909 1893 1880 1862 1846 1834 1830 1824 1824 1823 1814 1807 1794 1785 1774 1764 1758 1747 1739 1730 1721 1716 1711 1706 1702 1697 1692 1687 1684 1679 1671 1666 1659 1653 1647 1644 1638 1633 1629 1625 1617 1609 1609 1609 1609 1609 1608 1608 1607 1607 1607 1607 1607 1607 1607 1607 1607 1607 1606 1605 1605 1604 1603 1603 1602 1601 1600 1599 1599 1598 1597 1596 1596 1595 1595 1595 1594 1593 1593 1592 1592 1591 1590 1590 1590 1589 1588 1588 1588 1588 1587 1587 1587 1587 1587 1587 1586 1585 1585 1584 1583 1582 1582 1581 1580 1580 1580 1579 1578 1578 1578 1578 1578 1578 1578 1578 1579 1579 1579 1579 1579 1579 1579 1579 1579 1578 1578 1577 1577 1576 1576 1576 1575 1575 1575 1574 1574 1574 1573 1573 1573 1572 1572 1572 1572 1571 1571 1570 1570 1570 1570 1570 1570 1571 1572 1572 1572 1573 1573 1573 1573 1573 1573 1573 1573 1573 1573 1573 1573 1573 1573 1574 1574 1574 1575 1575 1575 1575 1576 1576 1576 1577 1577 1577 1577 1577 1577 1577 1577 1577 1577 1577 1577 1577 1578 1578 1579 1579 1580 1580 1581 1581 1581 1582 1582 1582 1583 1583 1584 1585 1586 1586 1587 1587 1587 1588 1588 1589 1590 1591 1593 1593 1595 1596 1597 1597 1598 1598 1600 1600 1602 1603 1603 1605 1606 1607 1607 1609 1609 1610 1612 1613 1614 1614 1615 1616 1617 1618 1619 1620 1621 1621 1622 1622 1623 1624 1625 1625 1625 1627 1629 1630 1630 1632 1633 1636 1637 1641 1642 1647 1649 1652 1654 1657 1661 1664 1668 1674 1686 1690 1695 1702 1718 1728 1729 1729 1730 1730 1731 1733 1733 1734 1734 1734 1734 1734 1733 1733 1733 1733 1733 1734 1734 1736 1737 1740 1740 1740 1740 1735 1733 1733 1732 1730 1717 1673 0 0 0 0 0 0 0 0 0 0 0 0 0 0 0 0 0 0 0 0 0 0 0 0 0 0 0
2880 2880 2860 2880 2880 2886 2910 2917 2934 2958 2984 3015 3027 3036 3049 3055 3064 3065 3066 3067 3072 3089 3101 3106 3121 3121 3121 3121 3121 3122 3137 3155 3169 3177 3178 3181 3181 3181 3181 3187 3192 3202 3210 3219 3224 3228 3233 3240 3245 3252 3258 3264 3265 3271 3274 3277 3283 3284 3287 3291 3295 3299 3303 3304 3304 3304 3304 3304 3304 3304 3306 3310 3314 3321 3325 3331 3331 3331 3331 3331 3331 3331 3331 3332 3332 3333 3333 3334 3334 3336 3339 3341 3344 3348 3354 3357 3361 3368 3374 3378 3381 3381 3385 3390 3394 3398 3400 3405 3410 3415 3420 3423 3429 3435 3439 3443 3447 3450 3452 3454 3459 3464 3468 3472 3472 3474 3475 3478 3480 3485 3488 3493 3497 3501 3506 3510 3515 3521 3525 3529 3530 3533 3537 3542 3546 3549 3552 3556 3559 3560 3560 3560 3563 3565 3570 3575 3578 3581 3583 3585 3586 3586 3589 3594 3598 3598 3600 3600 3601 3601 3602 3604 3604 3604 3603 3600 3594 3594 3594 3594 3594 3594 3593 3585 3577 3577 3577 3582 3582 3586 3598 3599 3599 3599 3597 3597 3597 3597 3597 3597 3596 3596 3596 3600 3602 3606 3609 3611 3615 3616 3616 3616 3612 3611 3611 3611 3611 3611 3611 3606 3593 3588 3588 3587 3587 3587 3583 3579 3578 3578 3578 3578 3579 3588 3596 3606 3609 3611 3613 3621 3623 3623 3623 3602 3580 3481 3325 3325 3325 3407 3598 3629 3631 3631 3633 3633 3631 3629 3629 3629 3617 3581 3554 3522 3495 3463 3382 3089 2724 0 0 0 2012 2005 2000 1995 1990 1985 1979 1975 1972 1969 1965 1959 1953 1947 1942 1938 1934 1932 1928 1926 1924 1923 1921 1918 1917 1909 1893 1880 1862 1846 1834 1830 1826 1825 1825 1815 1807 1798 1785 1773 1764 1758 1747 1738 1727 1720 1715 1710 1705 1701 1696 1690 1685 1681 1676 1671 1665 1659 1653 1647 1644 1638 1632 1629 1625 1621 1617 1612 1611 1611 1609 1609 1608 1607 1607 1607 1608 1608 1608 1607 1607 1606 1606 1605 1604 1604 1604 1602 1602 1601 1600 1599 1599 1597 1597 1597 1595 1595 1594 1594 1593 1593 1592 1592 1591 1591 1590 1589 1589 1588 1588 1588 1587 1587 1587 1587 1587 1587 1587 1586 1585 1585 1585 1583 1583 1582 1581 1581 1580 1580 1579 1579 1578 1578 1578 1578 1578 1578 1578 1578 1578 1578 1578 1579 1579 1579 1579 1579 1579 1579 1578 1578 1577 1576 1575 1575 1575 1575 1574 1574 1574 1573 1573 1573 1573 1573 1571 1571 1571 1571 1570 1570 1570 1570 1570 1570 1570 1570 1570 1571 1571 1571 1572 1572 1572 1572 1572 1573 1573 1573 1573 1573 1573 1573 1573 1573 1574 1574 1574 1574 1574 1574 1574 1575 1576 1576 1576 1576 1576 1576 1576 1576 1576 1576 1576 1576 1576 1577 1577 1577 1578 1578 1578 1580 1580 1580 1580 1581 1581 1582 1582 1583 1583 1583 1584 1585 1585 1585 1586 1586 1587 1588 1589 1590 1591 1591 1592 1593 1595 1595 1597 1597 1598 1598 1600 1600 1602 1603 1603 1604 1606 1606 1608 1609 1610 1610 1612 1613 1613 1615 1616 1617 1617 1619 1619 1620 1621 1622 1622 1623 1624 1625 1625 1625 1626 1628 1630 1630 1631 1632 1633 1635 1638 1641 1644 1647 1648 1653 1655 1659 1663 1667 1670 1680 1688 1692 1702 1718 1727 1728 1729 1730 1730 1731 1732 1733 1734 1734 1734 1734 1733 1733 1733 1733 1733 1735 1736 1736 1738 1739 1740 1740 1740 1740 1735 1735 1735 1733 1731 1722 1673 0 0 0 0 0 0 0 0 0 0 0 0 0 0 0 0 0 0 0 0 0 0 0 0 0 0 0
2880 2880 2853 2880 2880 2886 2910 2917 2934 2958 2984 3009 3027 3036 3049 3052 3061 3064 3066 3067 3071 3085 3099 3105 3121 3122 3122 3125 3126 3126 3137 3155 3173 3179 3184 3185 3186 3188 3189 3192 3192 3202 3211 3225 3230 3233 3234 3240 3245 3252 3258 3264 3268 3273 3278 3283 3283 3285 3288 3292 3297 3302 3305 3308 3308 3308 3304 3304 3304 3307 3307 3314 3318 3324 3330 3335 3335 3335 3335 3334 3334 3334 3334 3334 3335 3335 3335 3335 3336 3338 3341 3343 3346 3350 3356 3360 3366 3370 3376 3381 3383 3384 3387 3393 3399 3402 3404 3408 3412 3416 3421 3426 3432 3436 3442 3446 3449 3453 3456 3459 3463 3469 3471 3472 3473 3474 3476 3479 3482 3485 3489 3494 3498 3504 3509 3514 3519 3524 3526 3529 3532 3534 3538 3543 3547 3549 3554 3558 3560 3561 3561 3562 3566 3570 3573 3580 3583 3585 3587 3589 3590 3592 3594 3599 3605 3605 3605 3604 3604 3604 3607 3609 3609 3609 3609 3606 3601 3601 3601 3601 3601 3601 3595 3585 3577 3577 3577 3577 3577 3582 3586 3589 3589 3589 3591 3591 3593 3593 3594 3594 3594 3595 3596 3600 3603 3607 3611 3613 3616 3617 3617 3617 3612 3612 3612 3612 3614 3614 3614 3609 3595 3590 3590 3589 3588 3587 3583 3581 3580 3580 3580 3584 3585 3590 3596 3612 3612 3614 3616 3623 3623 3623 3623 3602 3578 3479 3319 3319 3319 3474 3615 3630 3634 3636 3636 3634 3631 3629 3628 3623 3603 3576 3546 3522 3495 3449 3330 3066 2611 0 0 2031 2010 2005 1997 1991 1986 1983 1979 1976 1972 1969 1965 1959 1953 1947 1942 1939 1936 1934 1929 1927 1925 1923 1923 1920 1917 1909 1894 1880 1862 1846 1839 1835 1834 1830 1826 1815 1807 1798 1785 1773 1763 1753 1745 1736 1726 1720 1715 1709 1705 1699 1695 1689 1683 1679 1675 1670 1664 1659 1652 1647 1641 1637 1632 1629 1626 1622 1619 1616 1612 1611 1611 1609 1609 1609 1608 1608 1608 1608 1608 1608 1607 1606 1605 1604 1604 1604 1602 1602 1601 1600 1599 1599 1598 1597 1597 1595 1595 1595 1593 1593 1592 1592 1591 1591 1590 1589 1589 1589 1588 1588 1587 1586 1586 1586 1586 1586 1586 1586 1585 1585 1585 1584 1584 1583 1582 1581 1581 1581 1580 1579 1579 1579 1578 1578 1577 1577 1577 1577 1577 1577 1578 1578 1578 1578 1578 1578 1578 1578 1578 1578 1577 1577 1576 1576 1575 1575 1575 1574 1574 1574 1573 1573 1573 1573 1572 1572 1571 1571 1571 1571 1570 1570 1570 1569 1569 1569 1569 1569 1569 1570 1570 1571 1571 1571 1571 1572 1572 1572 1572 1572 1573 1573 1573 1573 1572 1572 1573 1573 1573 1573 1574 1574 1574 1574 1575 1575 1575 1575 1575 1575 1575 1575 1575 1575 1576 1576 1576 1576 1576 1576 1577 1578 1578 1579 1579 1580 1580 1580 1581 1581 1582 1582 1582 1583 1584 1584 1584 1585 1585 1586 1587 1587 1588 1589 1590 1590 1591 1592 1593 1594 1596 1596 1597 1597 1599 1599 1600 1602 1603 1604 1605 1606 1607 1608 1608 1610 1611 1612 1613 1614 1615 1615 1617 1618 1618 1619 1620 1621 1622 1622 1623 1624 1625 1625 1627 1628 1629 1630 1631 1631 1633 1635 1637 1640 1642 1644 1645 1647 1653 1656 1660 1666 1670 1675 1687 1691 1699 1709 1724 1727 1727 1727 1730 1732 1732 1733 1734 1734 1734 1734 1734 1733 1734 1734 1735 1736 1736 1737 1739 1740 1740 1740 1740 1740 1737 1737 1737 1737 1737 1733 1673 0 0 0 0 0 0 0 0 0 0 0 0 0 0 0 0 0 0 0 0 0 0 0 0 0 0 0
2870 2870 2860 2870 2870 2886 2910 2926 2947 2958 2984 3009 3025 3036 3049 3052 3061 3064 3066 3066 3071 3082 3091 3104 3121 3125 3127 3128 3130 3130 3137 3155 3173 3179 3184 3187 3189 3193 3194 3196 3200 3206 3214 3227 3238 3239 3240 3242 3245 3252 3258 3266 3270 3276 3282 3283 3285 3285 3288 3292 3298 3305 3308 3311 3311 3311 3307 3307 3307 3309 3310 3318 3324 3330 3334 3337 3338 3338 3338 3338 3338 3338 3338 3337 3337 3337 3337 3338 3340 3342 3344 3348 3351 3353 3356 3362 3367 3372 3377 3383 3385 3387 3391 3396 3400 3404 3408 3411 3415 3419 3423 3429 3435 3439 3443 3447 3450 3455 3459 3463 3467 3470 3473 3474 3476 3476 3478 3480 3482 3485 3491 3496 3501 3506 3512 3517 3522 3524 3527 3530 3533 3537 3542 3545 3549 3552 3555 3560 3562 3563 3564 3566 3570 3576 3578 3582 3587 3589 3592 3592 3593 3596 3599 3604 3611 3611 3611 3611 3611 3611 3612 3614 3614 3614 3613 3610 3608 3608 3607 3607 3606 3604 3597 3585 3579 3579 3579 3577 3577 3577 3577 3577 3579 3586 3588 3591 3592 3593 3593 3594 3594 3596 3599 3604 3609 3612 3615 3617 3620 3621 3621 3621 3619 3619 3619 3618 3618 3618 3616 3612 3606 3596 3593 3593 3592 3588 3584 3584 3584 3584 3586 3589 3592 3593 3602 3613 3618 3619 3623 3623 3623 3621 3621 3602 3557 3422 3305 3305 3305 3519 3630 3634 3635 3636 3636 3635 3631 3626 3620 3613 3594 3570 3546 3522 3492 3444 3276 2856 2435 0 0 2018 2008 2005 1994 1988 1986 1983 1979 1977 1972 1969 1965 1959 1953 1948 1943 1940 1936 1934 1931 1928 1926 1925 1924 1920 1919 1908 1894 1880 1862 1850 1844 1840 1838 1835 1830 1815 1806 1798 1785 1773 1761 1752 1742 1731 1725 1720 1715 1709 1703 1698 1693 1686 1681 1678 1673 1670 1663 1655 1651 1646 1641 1637 1632 1630 1627 1624 1620 1617 1613 1612 1612 1611 1610 1609 1609 1609 1609 1609 1608 1608 1607 1606 1605 1604 1603 1603 1602 1600 1600 1600 1599 1597 1597 1596 1596 1594 1594 1594 1593 1592 1592 1591 1591 1590 1589 1589 1588 1588 1587 1586 1586 1586 1586 1586 1586 1585 1585 1585 1585 1585 1584 1583 1582 1582 1581 1581 1580 1580 1580 1579 1579 1578 1578 1577 1577 1577 1577 1577 1577 1577 1578 1578 1578 1578 1578 1578 1578 1578 1578 1578 1577 1576 1576 1575 1575 1575 1574 1574 1574 1574 1573 1572 1572 1572 1572 1572 1571 1570 1570 1570 1570 1569 1569 1569 1569 1569 1569 1569 1569 1569 1570 1570 1570 1571 1571 1571 1571 1571 1571 1572 1572 1572 1572 1572 1572 1572 1572 1572 1572 1573 1573 1573 1573 1573 1574 1574 1574 1574 1575 1575 1575 1575 1575 1575 1575 1575 1575 1575 1576 1576 1576 1577 1577 1578 1579 1579 1579 1579 1580 1581 1581 1582 1582 1582 1583 1584 1584 1584 1585 1585 1586 1586 1588 1588 1589 1590 1591 1591 1592 1593 1594 1594 1596 1597 1597 1598 1600 1600 1602 1603 1604 1605 1606 1607 1608 1609 1610 1612 1612 1613 1615 1615 1616 1617 1618 1619 1620 1620 1621 1622 1623 1623 1624 1625 1627 1628 1629 1630 1630 1631 1633 1634 1636 1638 1639 1642 1643 1646 1649 1655 1659 1665 1670 1674 1683 1688 1697 1708 1717 1726 1726 1727 1730 1732 1732 1733 1734 1734 1734 1734 1734 1734 1734 1734 1735 1737 1737 1739 1740 1740 1740 1740 1740 1740 1738 1738 1738 1738 1738 1733 1702 0 0 0 0 0 0 0 0 0 0 0 0 0 0 0 0 0 0 0 0 0 0 0 0 0 0 0
2858 2858 2858 2859 2864 2888 2916 2935 2959 2965 2989 3009 3025 3035 3050 3052 3061 3063 3071 3071 3072 3081 3087 3102 3116 3125 3127 3128 3130 3131 3140 3156 3175 3179 3184 3188 3190 3193 3194 3196 3200 3207 3214 3227 3239 3242 3247 3248 3254 3254 3264 3266 3276 3282 3284 3285 3285 3287 3289 3297 3303 3307 3312 3312 3312 3312 3311 3311 3311 3311 3316 3323 3330 3335 3336 3338 3340 3340 3341 3341 3342 3342 3342 3340 3340 3340 3340 3342 3344 3346 3348 3353 3356 3357 3358 3363 3368 3373 3379 3383 3387 3391 3393 3397 3402 3407 3413 3416 3419 3422 3428 3433 3438 3443 3447 3451 3453 3458 3461 3464 3468 3471 3474 3476 3477 3478 3480 3482 3486 3489 3493 3498 3505 3509 3514 3519 3525 3527 3528 3532 3536 3541 3547 3550 3552 3555 3559 3564 3564 3565 3567 3570 3575 3581 3582 3587 3589 3592 3595 3596 3597 3598 3602 3610 3617 3619 3619 3619 3618 3618 3617 3617 3617 3615 3613 3613 3613 3614 3614 3614 3613 3609 3606 3601 3584 3582 3581 3577 3577 3577 3577 3577 3579 3579 3587 3590 3592 3592 3593 3594 3595 3600 3604 3610 3614 3617 3617 3619 3621 3628 3628 3628 3627 3627 3627 3626 3625 3623 3620 3617 3608 3598 3595 3594 3593 3588 3588 3587 3586 3587 3587 3594 3597 3605 3609 3619 3619 3621 3625 3625 3625 3619 3604 3591 3500 3269 3269 3269 3317 3564 3631 3634 3638 3638 3638 3636 3633 3626 3616 3603 3585 3563 3545 3520 3490 3419 3172 2747 2321 0 0 2009 2008 2002 1991 1988 1986 1983 1980 1977 1973 1969 1966 1959 1954 1948 1943 1940 1937 1934 1932 1929 1927 1927 1926 1925 1921 1907 1894 1880 1866 1856 1849 1842 1840 1838 1831 1815 1805 1795 1783 1773 1760 1751 1737 1726 1722 1718 1714 1708 1703 1696 1691 1684 1680 1676 1673 1666 1660 1655 1650 1646 1641 1637 1634 1631 1627 1625 1622 1617 1616 1614 1614 1612 1612 1611 1610 1610 1610 1609 1608 1608 1607 1606 1605 1604 1603 1602 1601 1600 1599 1598 1598 1597 1596 1595 1595 1594 1593 1593 1592 1592 1591 1590 1590 1589 1588 1587 1587 1587 1586 1586 1585 1585 1585 1585 1584 1584 1584 1584 1584 1583 1582 1582 1582 1581 1580 1580 1580 1579 1579 1579 1578 1578 1577 1577 1577 1577 1577 1577 1577 1577 1577 1577 1577 1578 1578 1578 1578 1578 1578 1578 1576 1576 1576 1575 1575 1575 1574 1574 1573 1573 1572 1572 1572 1572 1571 1571 1571 1570 1569 1569 1569 1569 1569 1568 1568 1568 1568 1568 1568 1569 1569 1569 1570 1570 1571 1571 1571 1571 1571 1571 1571 1571 1571 1571 1571 1572 1572 1572 1572 1572 1572 1572 1573 1573 1573 1573 1573 1574 1574 1574 1574 1574 1574 1574 1574 1574 1574 1575 1575 1575 1576 1577 1577 1577 1577 1578 1578 1578 1579 1579 1580 1581 1581 1581 1582 1582 1582 1583 1583 1584 1585 1586 1587 1587 1588 1588 1590 1590 1591 1593 1593 1594 1594 1595 1596 1597 1598 1599 1601 1601 1603 1605 1605 1606 1607 1608 1609 1610 1612 1613 1613 1614 1615 1616 1617 1618 1619 1620 1620 1622 1622 1623 1624 1625 1627 1628 1629 1630 1630 1631 1633 1634 1636 1637 1638 1639 1640 1643 1645 1653 1659 1664 1669 1674 1675 1686 1694 1705 1715 1726 1726 1728 1730 1732 1732 1733 1734 1734 1734 1734 1734 1734 1734 1734 1735 1737 1738 1739 1740 1740 1741 1741 1740 1740 1738 1738 1738 1738 1738 1733 1702 0 0 0 0 0 0 0 0 0 0 0 0 0 0 0 0 0 0 0 0 0 0 0 0 0 0 0
2853 2853 2853 2855 2867 2902 2934 2961 2975 2979 2991 3011 3025 3036 3050 3056 3062 3065 3072 3073 3074 3081 3086 3096 3108 3116 3121 3127 3128 3132 3146 3163 3179 3184 3185 3189 3190 3194 3196 3199 3204 3207 3214 3227 3239 3242 3247 3251 3259 3263 3268 3272 3279 3283 3288 3288 3289 3289 3294 3300 3307 3310 3315 3316 3316 3316 3315 3315 3315 3317 3322 3330 3337 3339 3339 3339 3340 3341 3342 3345 3346 3346 3346 3343 3343 3343 3344 3348 3350 3352 3355 3357 3359 3361 3362 3365 3369 3374 3379 3384 3388 3391 3395 3398 3404 3411 3415 3421 3426 3429 3433 3439 3444 3449 3451 3454 3456 3460 3463 3466 3470 3472 3475 3477 3479 3482 3482 3484 3488 3491 3496 3502 3505 3510 3516 3521 3526 3529 3532 3534 3540 3546 3553 3556 3557 3559 3563 3564 3565 3567 3568 3574 3582 3586 3589 3590 3593 3597 3598 3600 3600 3604 3609 3615 3619 3623 3624 3624 3624 3624 3622 3621 3619 3619 3617 3617 3617 3620 3620 3620 3618 3615 3612 3609 3601 3585 3581 3579 3575 3575 3575 3575 3579 3579 3587 3590 3591 3591 3592 3593 3595 3602 3607 3614 3617 3619 3619 3620 3624 3628 3635 3635 3635 3633 3633 3630 3629 3626 3623 3617 3608 3600 3597 3595 3595 3590 3589 3589 3589 3591 3591 3595 3607 3611 3617 3619 3621 3623 3623 3623 3618 3598 3578 3558 3451 3246 3246 3246 3456 3604 3632 3635 3641 3641 3641 3636 3632 3622 3614 3603 3585 3563 3545 3519 3490 3338 3039 0 0 0 2025 2006 2001 1997 1990 1988 1986 1984 1980 1978 1973 1970 1966 1960 1954 1948 1944 1941 1939 1935 1932 1930 1929 1928 1928 1926 1921 1908 1894 1880 1869 1863 1856 1847 1841 1840 1832 1816 1805 1791 1782 1773 1759 1748 1734 1722 1717 1714 1712 1707 1701 1695 1688 1683 1679 1674 1670 1666 1660 1654 1650 1646 1643 1639 1636 1632 1628 1626 1623 1619 1618 1617 1616 1614 1613 1611 1610 1610 1610 1609 1608 1608 1607 1605 1605 1603 1603 1602 1601 1599 1599 1597 1597 1597 1595 1595 1594 1594 1592 1592 1592 1591 1591 1589 1588 1588 1587 1586 1586 1585 1585 1585 1584 1584 1583 1583 1583 1583 1583 1583 1582 1582 1581 1581 1581 1580 1580 1580 1579 1579 1578 1578 1578 1578 1577 1577 1577 1577 1577 1577 1577 1577 1577 1577 1577 1577 1577 1578 1578 1578 1578 1577 1576 1576 1575 1575 1575 1574 1574 1573 1573 1573 1572 1572 1572 1572 1571 1571 1570 1569 1569 1569 1569 1568 1568 1568 1567 1567 1567 1567 1568 1569 1569 1569 1569 1570 1570 1570 1570 1571 1571 1571 1571 1571 1571 1571 1571 1571 1571 1571 1571 1571 1572 1572 1572 1572 1573 1573 1573 1573 1573 1573 1573 1573 1573 1574 1574 1574 1574 1574 1574 1575 1575 1576 1576 1576 1577 1577 1578 1578 1578 1578 1579 1580 1581 1581 1581 1582 1582 1582 1582 1583 1584 1585 1585 1586 1587 1588 1588 1590 1590 1591 1592 1593 1593 1594 1596 1596 1597 1598 1600 1600 1602 1603 1604 1606 1607 1608 1609 1610 1611 1612 1612 1613 1614 1615 1617 1617 1618 1619 1620 1622 1622 1623 1624 1625 1627 1628 1629 1630 1630 1631 1632 1634 1635 1635 1638 1639 1640 1640 1643 1650 1655 1661 1667 1668 1675 1683 1693 1701 1713 1724 1726 1728 1729 1731 1732 1733 1734 1734 1734 1735 1735 1735 1735 1735 1736 1738 1738 1739 1740 1740 1741 1741 1741 1740 1739 1739 1739 1739 1739 1733 0 0 0 0 0 0 0 0 0 0 0 0 0 0 0 0 0 0 0 0 0 0 0 0 0 0 0 0
2852 2853 2853 2862 2887 2937 2968 2986 2987 2997 2997 3009 3025 3038 3051 3057 3062 3065 3072 3073 3075 3081 3086 3096 3105 3108 3117 3127 3128 3132 3148 3163 3179 3184 3185 3189 3192 3194 3196 3199 3204 3207 3208 3218 3227 3242 3247 3251 3259 3266 3271 3274 3279 3283 3288 3291 3291 3293 3298 3303 3308 3314 3315 3317 3318 3319 3320 3321 3323 3326 3330 3336 3341 3342 3343 3343 3343 3344 3347 3349 3349 3349 3349 3348 3348 3348 3350 3353 3356 3357 3359 3361 3362 3364 3365 3367 3371 3374 3380 3385 3391 3395 3397 3401 3405 3412 3422 3426 3429 3433 3437 3444 3451 3455 3456 3459 3462 3464 3467 3471 3473 3476 3478 3480 3483 3485 3485 3486 3491 3494 3498 3504 3509 3514 3518 3523 3528 3532 3534 3538 3543 3550 3557 3561 3563 3564 3566 3568 3569 3570 3570 3576 3586 3590 3592 3595 3598 3601 3601 3604 3606 3610 3615 3621 3625 3626 3627 3628 3629 3629 3629 3627 3624 3623 3623 3623 3624 3624 3624 3623 3620 3618 3616 3613 3610 3599 3585 3579 3577 3575 3575 3575 3577 3579 3580 3588 3591 3591 3591 3593 3597 3602 3607 3614 3617 3619 3620 3620 3624 3631 3637 3638 3638 3638 3636 3634 3632 3629 3624 3619 3613 3605 3601 3598 3596 3594 3592 3592 3592 3593 3596 3596 3609 3615 3618 3619 3621 3622 3621 3621 3614 3595 3557 3510 3377 3247 3247 3247 3495 3635 3637 3645 3644 3644 3644 3635 3631 3619 3608 3597 3582 3562 3542 3519 3465 3241 2814 0 0 0 2020 2006 2000 1992 1990 1988 1988 1986 1982 1978 1974 1971 1968 1961 1956 1948 1944 1942 1939 1936 1933 1932 1930 1928 1928 1926 1921 1908 1894 1881 1870 1870 1864 1854 1843 1842 1832 1817 1804 1789 1781 1769 1757 1747 1734 1720 1714 1711 1709 1704 1698 1692 1686 1682 1677 1672 1669 1665 1660 1654 1650 1646 1643 1640 1637 1633 1629 1627 1624 1623 1621 1619 1617 1615 1613 1612 1611 1610 1610 1609 1609 1608 1607 1605 1604 1603 1603 1601 1601 1599 1598 1597 1596 1595 1595 1594 1593 1593 1592 1591 1591 1590 1589 1589 1588 1587 1586 1585 1585 1585 1584 1584 1583 1583 1582 1582 1582 1582 1582 1582 1582 1581 1581 1580 1580 1580 1579 1579 1578 1578 1578 1578 1577 1577 1577 1577 1577 1576 1576 1576 1576 1576 1577 1577 1577 1577 1577 1577 1577 1577 1577 1577 1576 1576 1575 1575 1575 1574 1573 1573 1573 1572 1572 1572 1572 1571 1571 1570 1570 1569 1569 1568 1568 1568 1567 1567 1567 1567 1567 1567 1567 1568 1568 1568 1569 1569 1569 1569 1569 1570 1570 1570 1570 1570 1570 1570 1570 1570 1571 1571 1571 1571 1571 1571 1571 1572 1572 1572 1572 1572 1572 1572 1573 1573 1573 1573 1573 1573 1574 1574 1574 1574 1575 1575 1576 1576 1576 1576 1577 1577 1577 1578 1578 1579 1579 1580 1580 1580 1580 1581 1582 1582 1583 1583 1584 1584 1585 1586 1587 1588 1589 1590 1591 1592 1593 1594 1594 1595 1596 1598 1599 1600 1601 1602 1603 1604 1606 1606 1608 1609 1610 1611 1612 1612 1613 1613 1615 1617 1617 1618 1619 1621 1621 1623 1624 1625 1627 1628 1629 1630 1630 1631 1632 1634 1635 1635 1637 1639 1639 1640 1640 1641 1651 1657 1662 1668 1675 1683 1693 1700 1712 1724 1728 1729 1730 1731 1732 1733 1734 1735 1735 1735 1736 1736 1736 1737 1737 1738 1739 1740 1741 1741 1741 1741 1741 1742 1743 1743 1744 1744 1744 1731 0 0 0 0 0 0 0 0 0 0 0 0 0 0 0 0 0 0 0 0 0 0 0 0 0 0 0 0
2837 2837 2852 2892 2922 2960 2983 2987 2987 2997 2997 3009 3025 3038 3052 3059 3062 3065 3072 3075 3077 3083 3086 3096 3104 3107 3117 3127 3128 3133 3148 3163 3179 3184 3185 3190 3193 3194 3196 3204 3205 3205 3209 3211 3222 3231 3242 3251 3259 3266 3271 3276 3279 3284 3289 3292 3293 3294 3300 3306 3310 3316 3317 3317 3321 3323 3328 3331 3334 3336 3338 3341 3341 3344 3347 3347 3347 3348 3350 3351 3351 3351 3351 3351 3351 3353 3355 3356 3358 3359 3362 3364 3365 3366 3366 3370 3372 3375 3382 3389 3396 3399 3402 3406 3408 3417 3425 3430 3432 3433 3442 3449 3458 3461 3464 3465 3466 3469 3471 3473 3476 3478 3481 3484 3487 3487 3489 3491 3493 3497 3501 3507 3512 3517 3521 3525 3529 3532 3536 3539 3545 3551 3558 3563 3566 3568 3571 3572 3573 3574 3576 3586 3590 3594 3597 3599 3603 3605 3606 3609 3612 3616 3621 3623 3628 3630 3631 3632 3634 3634 3634 3634 3634 3632 3630 3630 3630 3628 3628 3628 3623 3619 3618 3615 3610 3601 3585 3584 3579 3575 3575 3575 3577 3581 3581 3588 3589 3591 3591 3593 3597 3602 3607 3614 3618 3620 3622 3624 3627 3632 3637 3640 3640 3640 3639 3636 3633 3631 3624 3622 3615 3609 3605 3600 3599 3598 3597 3597 3597 3597 3600 3601 3609 3618 3618 3622 3622 3622 3622 3622 3614 3595 3552 3475 3285 3285 3285 3299 3560 3640 3642 3646 3646 3646 3646 3638 3627 3619 3604 3597 3582 3562 3538 3508 3431 3082 2638 0 0 0 2019 2006 1999 1992 1990 1988 1988 1987 1984 1978 1976 1972 1969 1963 1958 1950 1946 1944 1939 1936 1936 1934 1931 1930 1929 1928 1921 1908 1897 1882 1875 1874 1869 1858 1852 1846 1831 1819 1804 1788 1780 1769 1757 1746 1732 1720 1713 1711 1706 1702 1695 1689 1684 1679 1674 1671 1667 1664 1659 1654 1649 1646 1643 1640 1637 1633 1629 1627 1626 1623 1621 1620 1618 1615 1614 1613 1611 1611 1610 1610 1609 1608 1606 1605 1604 1603 1602 1601 1601 1599 1598 1597 1596 1595 1594 1594 1593 1592 1592 1591 1590 1589 1589 1588 1587 1586 1586 1584 1584 1584 1584 1583 1582 1582 1582 1581 1581 1581 1581 1581 1580 1579 1579 1579 1579 1579 1579 1578 1578 1577 1577 1577 1577 1577 1577 1576 1576 1576 1576 1576 1576 1576 1576 1576 1576 1576 1577 1577 1577 1577 1576 1576 1576 1575 1575 1575 1575 1574 1573 1573 1573 1572 1572 1572 1571 1571 1570 1570 1569 1569 1568 1568 1567 1567 1567 1567 1566 1566 1566 1566 1566 1567 1567 1568 1568 1569 1569 1569 1569 1569 1569 1569 1569 1570 1570 1570 1570 1570 1570 1570 1571 1571 1571 1571 1571 1572 1572 1572 1572 1572 1572 1572 1572 1572 1572 1573 1573 1573 1573 1574 1574 1574 1574 1575 1575 1575 1575 1576 1576 1576 1576 1576 1577 1578 1578 1579 1579 1580 1580 1581 1581 1582 1583 1583 1583 1584 1584 1585 1586 1587 1588 1590 1590 1591 1592 1592 1594 1595 1595 1597 1598 1599 1600 1602 1603 1604 1605 1606 1607 1607 1608 1609 1611 1611 1612 1613 1613 1615 1616 1617 1618 1620 1621 1623 1624 1625 1627 1628 1629 1630 1630 1631 1632 1633 1635 1635 1636 1638 1638 1638 1639 1640 1641 1653 1662 1668 1675 1683 1692 1699 1708 1722 1728 1729 1730 1731 1732 1733 1734 1735 1736 1737 1737 1737 1737 1737 1737 1738 1739 1739 1741 1741 1741 1741 1743 1744 1746 1747 1748 1748 1748 1731 0 0 0 0 0 0 0 0 0 0 0 0 0 0 0 0 0 0 0 0 0 0 0 0 0 0 0 0
2819 2819 2853 2909 2947 2977 2988 2991 2991 2997 2997 3011 3025 3043 3052 3059 3062 3065 3073 3082 3086 3090 3091 3096 3102 3107 3117 3130 3131 3136 3149 3164 3175 3181 3185 3190 3193 3200 3205 3210 3210 3211 3211 3211 3220 3231 3242 3251 3260 3267 3271 3276 3279 3284 3291 3293 3295 3299 3303 3308 3315 3317 3318 3320 3324 3328 3333 3336 3337 3340 3344 3344 3345 3348 3350 3350 3350 3350 3350 3352 3352 3352 3352 3352 3354 3357 3357 3359 3359 3361 3365 3366 3366 3368 3368 3373 3376 3380 3387 3393 3401 3405 3408 3411 3416 3423 3429 3433 3433 3439 3446 3454 3460 3466 3469 3469 3471 3473 3476 3478 3480 3482 3485 3487 3489 3491 3493 3494 3498 3501 3505 3511 3516 3520 3525 3528 3532 3535 3538 3544 3547 3552 3558 3563 3568 3572 3575 3577 3578 3580 3583 3592 3596 3598 3601 3603 3608 3611 3612 3614 3617 3621 3626 3631 3633 3635 3635 3636 3638 3640 3642 3642 3642 3642 3638 3635 3633 3633 3632 3629 3625 3622 3619 3615 3611 3605 3594 3593 3591 3591 3590 3589 3587 3587 3588 3589 3589 3591 3592 3593 3597 3602 3606 3614 3618 3622 3627 3630 3633 3636 3641 3642 3642 3642 3641 3639 3636 3632 3628 3624 3618 3615 3608 3605 3604 3603 3603 3603 3603 3602 3603 3603 3609 3618 3618 3622 3623 3623 3623 3623 3614 3589 3550 3456 3267 3267 3267 3379 3592 3643 3643 3651 3649 3649 3649 3639 3632 3616 3604 3597 3582 3560 3530 3488 3325 2996 0 0 0 2026 2019 2008 1999 1992 1990 1989 1989 1988 1985 1979 1976 1973 1970 1964 1960 1953 1949 1945 1940 1939 1937 1935 1933 1933 1933 1931 1926 1913 1902 1891 1881 1877 1871 1861 1856 1850 1832 1820 1805 1788 1778 1769 1756 1743 1732 1719 1713 1710 1704 1697 1692 1687 1682 1678 1674 1670 1667 1662 1657 1652 1649 1645 1642 1640 1637 1633 1630 1627 1626 1624 1622 1620 1618 1616 1614 1613 1611 1611 1610 1610 1609 1608 1606 1605 1604 1603 1602 1601 1601 1599 1597 1597 1595 1594 1594 1593 1592 1592 1591 1590 1589 1588 1588 1587 1586 1585 1584 1584 1583 1583 1583 1582 1582 1581 1580 1580 1580 1580 1579 1579 1579 1579 1579 1578 1578 1578 1578 1577 1577 1577 1577 1577 1577 1576 1576 1576 1576 1576 1576 1576 1576 1575 1575 1576 1576 1576 1576 1576 1576 1576 1576 1576 1576 1575 1575 1575 1574 1574 1573 1573 1573 1572 1572 1571 1571 1570 1570 1570 1569 1569 1568 1568 1567 1567 1567 1566 1566 1566 1566 1566 1566 1566 1567 1567 1568 1568 1568 1568 1568 1568 1569 1569 1569 1569 1570 1570 1570 1570 1570 1570 1570 1570 1570 1570 1571 1571 1571 1571 1571 1572 1572 1571 1571 1572 1572 1572 1573 1573 1573 1573 1574 1574 1574 1574 1574 1575 1575 1575 1575 1576 1576 1576 1576 1577 1577 1578 1578 1579 1579 1579 1580 1581 1581 1582 1582 1582 1583 1584 1585 1586 1587 1588 1589 1590 1591 1592 1593 1594 1595 1596 1597 1598 1599 1601 1602 1603 1604 1604 1606 1607 1607 1608 1609 1610 1611 1611 1612 1614 1615 1616 1618 1619 1620 1622 1623 1625 1627 1628 1629 1630 1630 1631 1632 1633 1635 1635 1636 1637 1637 1638 1638 1639 1641 1648 1659 1668 1675 1682 1691 1699 1707 1721 1728 1729 1731 1731 1732 1734 1734 1735 1736 1737 1737 1737 1737 1737 1738 1738 1739 1739 1741 1741 1741 1742 1743 1744 1746 1747 1748 1748 1748 1733 0 0 0 0 0 0 0 0 0 0 0 0 0 0 0 0 0 0 0 0 0 0 0 0 0 0 0 0
2817 2817 2860 2952 2975 2989 2991 2991 2991 2995 2997 3017 3029 3044 3055 3059 3063 3065 3076 3084 3089 3092 3094 3096 3101 3107 3122 3140 3143 3146 3149 3164 3175 3181 3185 3189 3194 3200 3205 3212 3212 3212 3212 3212 3220 3231 3242 3251 3260 3268 3271 3276 3279 3284 3291 3296 3300 3305 3307 3313 3318 3320 3320 3323 3325 3329 3335 3337 3338 3340 3345 3348 3349 3350 3350 3350 3350 3350 3350 3352 3352 3352 3352 3354 3357 3362 3362 3363 3363 3363 3366 3367 3368 3370 3370 3378 3380 3384 3389 3397 3403 3409 3413 3417 3421 3427 3433 3436 3440 3444 3450 3456 3464 3468 3471 3474 3475 3477 3479 3482 3484 3486 3487 3490 3493 3495 3496 3498 3500 3504 3509 3515 3519 3523 3528 3531 3535 3537 3544 3547 3550 3556 3559 3566 3570 3576 3579 3579 3581 3585 3590 3598 3602 3605 3608 3611 3614 3615 3617 3619 3623 3627 3632 3635 3639 3641 3641 3641 3643 3645 3646 3648 3648 3648 3647 3645 3641 3639 3638 3635 3630 3626 3623 3618 3617 3615 3614 3614 3611 3606 3601 3593 3593 3593 3595 3595 3595 3593 3593 3593 3597 3602 3606 3614 3618 3626 3630 3635 3636 3639 3641 3642 3644 3644 3644 3640 3638 3632 3631 3626 3619 3618 3613 3609 3608 3608 3608 3608 3607 3607 3607 3607 3607 3618 3618 3623 3625 3625 3623 3623 3614 3589 3549 3454 3250 3250 3250 3441 3619 3647 3650 3653 3652 3652 3652 3639 3632 3616 3601 3574 3561 3540 3508 3451 3241 2841 0 0 0 2018 2018 2008 2000 1994 1992 1992 1991 1990 1985 1979 1976 1973 1970 1965 1960 1954 1950 1946 1941 1939 1939 1936 1935 1934 1934 1934 1929 1918 1907 1896 1886 1879 1872 1862 1860 1850 1833 1823 1804 1786 1776 1768 1753 1736 1725 1718 1713 1710 1703 1696 1691 1686 1682 1678 1674 1670 1665 1660 1655 1652 1648 1645 1642 1639 1636 1633 1631 1628 1626 1624 1622 1620 1618 1617 1615 1614 1612 1612 1610 1610 1608 1607 1606 1605 1604 1603 1602 1601 1600 1599 1597 1596 1594 1594 1593 1592 1592 1591 1590 1590 1589 1588 1587 1587 1585 1584 1584 1583 1583 1582 1582 1582 1581 1580 1580 1580 1579 1578 1578 1578 1578 1578 1577 1577 1577 1577 1577 1577 1576 1576 1576 1576 1576 1576 1576 1576 1576 1575 1575 1575 1575 1575 1575 1575 1575 1575 1576 1576 1576 1576 1576 1575 1575 1575 1575 1574 1574 1574 1573 1573 1572 1572 1572 1571 1571 1570 1570 1569 1569 1569 1568 1568 1567 1567 1566 1566 1566 1565 1565 1566 1566 1566 1566 1567 1567 1567 1567 1568 1568 1568 1568 1568 1568 1568 1569 1569 1569 1569 1569 1569 1569 1570 1570 1570 1570 1570 1570 1571 1571 1571 1571 1571 1571 1571 1572 1572 1572 1572 1573 1573 1573 1574 1574 1574 1574 1574 1575 1575 1575 1575 1575 1576 1576 1576 1577 1577 1578 1578 1578 1579 1579 1579 1580 1580 1582 1582 1583 1583 1584 1586 1586 1587 1588 1589 1590 1591 1592 1593 1594 1595 1597 1597 1599 1600 1601 1602 1603 1604 1605 1606 1607 1607 1608 1609 1610 1610 1611 1613 1614 1615 1618 1619 1620 1621 1623 1625 1627 1628 1629 1630 1630 1631 1632 1633 1635 1635 1636 1636 1637 1638 1638 1638 1641 1648 1655 1666 1675 1682 1688 1694 1700 1715 1724 1728 1731 1731 1733 1734 1734 1735 1736 1737 1737 1737 1737 1738 1738 1738 1739 1739 1741 1741 1742 1742 1743 1744 1746 1747 1748 1748 1748 1737 0 0 0 0 0 0 0 0 0 0 0 0 0 0 0 0 0 0 0 0 0 0 0 0 0 0 0 0
2803 2803 2886 2990 2990 2991 2991 2989 2989 2991 2997 3030 3031 3049 3058 3062 3068 3072 3081 3086 3090 3093 3095 3097 3101 3107 3124 3150 3152 3154 3163 3164 3175 3181 3185 3190 3194 3200 3207 3214 3214 3216 3217 3217 3220 3232 3245 3256 3267 3271 3272 3276 3283 3289 3294 3298 3301 3306 3310 3315 3321 3322 3325 3327 3329 3334 3336 3338 3341 3342 3346 3350 3350 3350 3350 3350 3350 3350 3350 3351 3352 3352 3353 3358 3364 3367 3367 3367 3367 3367 3367 3368 3369 3372 3374 3380 3383 3387 3394 3399 3406 3412 3418 3424 3429 3432 3438 3441 3442 3447 3453 3458 3464 3468 3471 3476 3477 3479 3481 3484 3487 3489 3491 3493 3495 3496 3499 3499 3501 3507 3512 3517 3522 3527 3531 3534 3537 3541 3544 3549 3554 3559 3564 3571 3574 3580 3582 3582 3584 3588 3597 3603 3609 3610 3615 3617 3619 3620 3620 3625 3627 3630 3635 3638 3642 3644 3644 3644 3647 3649 3651 3651 3651 3650 3650 3648 3647 3645 3643 3640 3634 3630 3627 3624 3624 3624 3624 3624 3624 3623 3610 3598 3598 3598 3598 3603 3603 3603 3601 3601 3601 3602 3606 3614 3623 3629 3632 3635 3636 3639 3641 3642 3644 3644 3644 3640 3638 3632 3631 3628 3624 3621 3615 3613 3610 3610 3610 3610 3610 3610 3608 3608 3608 3618 3624 3624 3626 3626 3624 3623 3614 3589 3534 3400 3304 3304 3304 3549 3653 3658 3659 3660 3659 3659 3654 3644 3633 3616 3597 3568 3545 3516 3486 3398 3068 2593 0 0 2031 2018 2015 2008 2000 1996 1996 1996 1994 1990 1985 1980 1976 1973 1970 1965 1961 1955 1950 1946 1942 1940 1940 1939 1937 1936 1935 1934 1930 1922 1911 1898 1887 1880 1874 1866 1860 1850 1833 1823 1804 1786 1772 1764 1751 1733 1724 1718 1713 1710 1703 1696 1690 1684 1682 1677 1673 1669 1664 1658 1654 1652 1648 1645 1642 1639 1636 1633 1631 1629 1626 1624 1622 1620 1619 1617 1615 1614 1613 1612 1610 1610 1608 1607 1606 1605 1604 1603 1602 1600 1599 1598 1597 1596 1594 1593 1592 1591 1591 1590 1590 1589 1588 1588 1587 1586 1585 1584 1584 1583 1582 1581 1581 1580 1580 1579 1579 1579 1578 1578 1578 1577 1577 1577 1577 1576 1576 1576 1576 1576 1576 1576 1576 1576 1576 1575 1575 1575 1575 1575 1575 1575 1575 1575 1575 1575 1575 1575 1576 1576 1576 1576 1575 1575 1575 1575 1574 1574 1574 1574 1573 1573 1572 1572 1571 1571 1571 1570 1570 1569 1569 1568 1568 1568 1567 1567 1566 1566 1565 1565 1565 1565 1565 1566 1566 1567 1567 1567 1567 1567 1567 1568 1568 1568 1568 1568 1568 1568 1569 1569 1569 1569 1569 1569 1570 1570 1570 1570 1570 1570 1570 1570 1570 1571 1571 1571 1571 1572 1572 1572 1573 1573 1573 1573 1573 1574 1574 1574 1574 1574 1574 1575 1575 1575 1575 1576 1576 1577 1577 1577 1578 1578 1578 1579 1579 1580 1580 1580 1582 1583 1583 1584 1585 1586 1587 1588 1589 1590 1592 1592 1593 1594 1596 1597 1598 1599 1599 1602 1602 1603 1604 1605 1606 1607 1607 1609 1609 1610 1610 1611 1613 1615 1617 1619 1620 1620 1623 1624 1626 1628 1629 1630 1630 1632 1632 1633 1635 1635 1636 1636 1637 1638 1638 1640 1642 1647 1655 1664 1673 1678 1685 1687 1690 1699 1712 1727 1731 1731 1733 1734 1734 1735 1736 1736 1737 1737 1737 1738 1738 1738 1739 1739 1740 1742 1742 1742 1742 1742 1744 1744 1745 1745 1745 1737 0 0 0 0 0 0 0 0 0 0 0 0 0 0 0 0 0 0 0 0 0 0 0 0 0 0 0 0
2803 2803 2908 2990 2990 2991 2991 2989 2989 2991 2998 3031 3044 3054 3061 3067 3075 3076 3081 3087 3091 3093 3100 3101 3102 3108 3125 3151 3161 3163 3165 3174 3180 3183 3186 3192 3194 3200 3207 3217 3222 3222 3223 3225 3228 3236 3250 3266 3271 3275 3278 3278 3285 3291 3297 3300 3302 3307 3312 3317 3321 3324 3326 3328 3333 3336 3339 3339 3341 3345 3349 3350 3350 3350 3350 3350 3350 3350 3350 3350 3352 3353 3356 3360 3364 3367 3368 3369 3370 3370 3371 3372 3373 3374 3376 3381 3386 3391 3397 3402 3408 3414 3421 3428 3434 3437 3441 3443 3444 3449 3454 3460 3465 3469 3472 3476 3479 3481 3483 3486 3490 3491 3493 3495 3498 3498 3500 3502 3506 3511 3516 3521 3524 3529 3534 3536 3540 3543 3547 3552 3557 3563 3569 3572 3578 3582 3584 3584 3587 3595 3602 3609 3614 3616 3621 3621 3622 3623 3625 3627 3629 3632 3635 3638 3643 3645 3647 3649 3650 3653 3653 3653 3653 3653 3653 3651 3650 3650 3649 3644 3638 3633 3630 3630 3630 3629 3628 3626 3625 3624 3618 3604 3598 3598 3598 3605 3606 3606 3606 3606 3606 3606 3613 3618 3625 3629 3632 3635 3636 3639 3639 3639 3641 3641 3641 3640 3638 3631 3631 3628 3626 3621 3615 3613 3610 3610 3610 3610 3610 3610 3609 3609 3609 3613 3627 3628 3631 3631 3630 3630 3605 3579 3486 3331 3331 3331 3394 3573 3653 3661 3661 3661 3661 3660 3654 3646 3636 3621 3597 3560 3529 3500 3450 3222 2829 0 0 0 2030 2018 2013 2007 2001 1998 1997 1997 1994 1991 1986 1981 1977 1973 1970 1965 1961 1955 1951 1947 1942 1941 1940 1939 1937 1936 1935 1934 1930 1923 1914 1902 1888 1883 1878 1871 1861 1850 1833 1823 1803 1784 1771 1761 1748 1733 1724 1718 1713 1708 1703 1695 1688 1682 1679 1675 1671 1667 1661 1657 1654 1651 1648 1645 1641 1639 1636 1633 1631 1629 1627 1625 1622 1620 1619 1617 1616 1614 1613 1612 1610 1610 1608 1607 1606 1605 1604 1603 1601 1600 1599 1598 1596 1595 1594 1592 1591 1591 1590 1590 1589 1588 1588 1587 1586 1585 1585 1584 1583 1582 1581 1581 1580 1579 1579 1579 1578 1578 1578 1577 1577 1577 1576 1576 1576 1576 1576 1576 1576 1576 1575 1575 1575 1575 1575 1575 1575 1574 1574 1574 1574 1575 1575 1575 1575 1575 1575 1575 1575 1575 1575 1575 1575 1575 1574 1574 1574 1574 1574 1573 1573 1573 1572 1572 1571 1571 1571 1570 1570 1569 1568 1568 1568 1567 1567 1567 1566 1566 1565 1565 1565 1565 1566 1566 1566 1566 1566 1567 1567 1567 1567 1567 1568 1568 1568 1568 1568 1568 1568 1568 1569 1569 1569 1569 1569 1569 1569 1569 1570 1570 1569 1570 1570 1570 1570 1570 1570 1570 1571 1571 1572 1572 1572 1573 1573 1573 1573 1574 1574 1574 1574 1574 1574 1574 1574 1575 1575 1576 1576 1577 1577 1577 1578 1578 1579 1579 1580 1580 1581 1581 1582 1583 1584 1585 1585 1587 1588 1589 1590 1591 1592 1593 1594 1595 1596 1598 1599 1601 1601 1602 1602 1604 1604 1606 1606 1607 1608 1608 1609 1611 1612 1614 1616 1617 1619 1620 1622 1623 1626 1627 1629 1629 1630 1632 1633 1634 1635 1636 1636 1636 1637 1638 1638 1641 1643 1647 1651 1657 1670 1675 1680 1683 1686 1695 1710 1723 1730 1731 1733 1733 1734 1734 1735 1736 1736 1737 1737 1738 1738 1738 1739 1739 1740 1742 1742 1742 1742 1742 1742 1742 1745 1745 1745 1737 1707 0 0 0 0 0 0 0 0 0 0 0 0 0 0 0 0 0 0 0 0 0 0 0 0 0 0 0
2803 2803 2908 2990 2990 2990 2985 2985 2985 2988 3008 3042 3057 3061 3061 3067 3076 3082 3082 3087 3091 3093 3100 3101 3103 3108 3125 3151 3161 3163 3165 3175 3187 3187 3192 3192 3194 3200 3209 3219 3224 3228 3228 3231 3233 3241 3253 3266 3271 3275 3279 3281 3286 3293 3297 3300 3303 3308 3314 3319 3322 3324 3326 3331 3333 3336 3339 3340 3344 3349 3350 3351 3351 3351 3351 3350 3350 3350 3350 3350 3352 3355 3357 3361 3364 3367 3369 3370 3372 3373 3373 3373 3374 3375 3377 3382 3386 3392 3397 3402 3409 3415 3421 3428 3436 3440 3444 3447 3451 3455 3457 3463 3466 3469 3473 3477 3480 3483 3486 3488 3490 3492 3495 3498 3501 3501 3503 3505 3511 3514 3519 3524 3529 3531 3535 3538 3542 3545 3549 3553 3557 3565 3570 3575 3580 3582 3587 3587 3591 3600 3606 3610 3614 3618 3621 3621 3622 3624 3626 3630 3632 3634 3636 3639 3643 3646 3649 3650 3652 3655 3655 3655 3655 3655 3655 3654 3652 3651 3650 3647 3642 3636 3633 3633 3633 3631 3630 3628 3625 3624 3619 3611 3604 3604 3604 3607 3610 3611 3611 3611 3611 3611 3617 3620 3625 3629 3632 3634 3635 3635 3636 3636 3638 3638 3638 3637 3635 3630 3629 3628 3626 3621 3615 3613 3610 3610 3610 3610 3610 3610 3610 3610 3610 3613 3628 3633 3634 3634 3634 3626 3605 3566 3444 3264 3264 3264 3438 3619 3653 3661 3661 3661 3661 3660 3654 3646 3636 3621 3597 3551 3509 3467 3363 3086 2627 0 0 0 2024 2018 2010 2006 2001 2000 1998 1997 1994 1991 1988 1984 1980 1974 1970 1965 1962 1956 1953 1949 1943 1942 1940 1939 1938 1936 1935 1933 1931 1923 1918 1907 1892 1886 1881 1876 1863 1850 1834 1823 1802 1783 1771 1759 1748 1733 1724 1718 1713 1708 1701 1693 1686 1682 1677 1674 1670 1665 1661 1657 1653 1651 1648 1645 1641 1638 1636 1633 1631 1629 1627 1625 1623 1621 1619 1617 1616 1614 1613 1612 1610 1609 1608 1607 1606 1605 1604 1602 1601 1600 1599 1597 1595 1594 1593 1592 1591 1591 1589 1589 1588 1588 1587 1587 1586 1585 1584 1583 1583 1581 1580 1580 1580 1579 1578 1578 1577 1577 1577 1577 1576 1576 1575 1575 1575 1575 1575 1575 1575 1575 1575 1575 1574 1574 1574 1574 1574 1574 1574 1574 1574 1574 1574 1574 1575 1575 1575 1575 1575 1575 1575 1575 1575 1574 1574 1574 1574 1574 1573 1573 1573 1572 1572 1571 1571 1571 1570 1570 1569 1569 1568 1568 1567 1567 1567 1567 1566 1566 1566 1565 1565 1565 1565 1565 1566 1566 1566 1567 1567 1567 1567 1567 1567 1567 1567 1567 1568 1568 1568 1568 1568 1569 1569 1569 1569 1569 1569 1569 1569 1569 1569 1569 1569 1569 1569 1570 1570 1570 1571 1571 1571 1572 1572 1572 1572 1573 1573 1573 1573 1573 1573 1573 1573 1573 1573 1575 1575 1575 1575 1575 1577 1577 1577 1577 1578 1578 1579 1579 1580 1581 1581 1582 1583 1584 1585 1586 1587 1588 1590 1591 1591 1592 1594 1594 1596 1597 1598 1599 1601 1601 1601 1603 1603 1604 1605 1605 1606 1608 1608 1610 1611 1612 1615 1615 1617 1619 1620 1623 1625 1626 1627 1629 1631 1632 1634 1635 1636 1636 1637 1637 1637 1638 1639 1641 1644 1648 1650 1654 1660 1671 1680 1683 1686 1695 1710 1722 1726 1729 1730 1731 1733 1734 1734 1735 1736 1736 1737 1738 1738 1738 1738 1738 1739 1741 1741 1741 1742 1742 1742 1742 1745 1745 1745 1737 1704 1662 0 0 0 0 0 0 0 0 0 0 0 0 0 0 0 0 0 0 0 0 0 0 0 0 0 0
2813 2813 2908 2953 2966 2973 2978 2978 2984 2998 3028 3057 3060 3061 3063 3067 3076 3082 3082 3087 3091 3093 3100 3103 3106 3108 3127 3150 3158 3161 3165 3175 3187 3188 3192 3194 3194 3200 3210 3220 3228 3229 3231 3232 3239 3247 3254 3266 3271 3275 3280 3283 3287 3293 3298 3302 3305 3310 3317 3323 3324 3325 3328 3331 3335 3338 3340 3342 3346 3349 3351 3351 3351 3351 3351 3350 3350 3350 3350 3350 3353 3356 3358 3361 3364 3367 3369 3371 3373 3373 3373 3373 3375 3376 3380 3384 3387 3392 3397 3403 3410 3415 3421 3428 3436 3442 3447 3452 3456 3459 3460 3463 3467 3470 3474 3477 3482 3485 3488 3490 3491 3494 3496 3499 3503 3507 3509 3510 3514 3520 3523 3527 3530 3532 3536 3540 3545 3548 3551 3556 3560 3566 3571 3576 3582 3585 3587 3592 3596 3601 3606 3610 3614 3618 3621 3622 3625 3625 3628 3633 3635 3637 3637 3640 3643 3647 3650 3652 3655 3657 3657 3657 3657 3656 3656 3656 3653 3652 3651 3648 3643 3639 3636 3634 3633 3632 3632 3630 3628 3625 3619 3614 3611 3610 3610 3610 3611 3615 3617 3617 3617 3617 3618 3621 3627 3627 3628 3628 3629 3629 3630 3632 3633 3633 3633 3629 3629 3628 3628 3626 3625 3621 3614 3610 3610 3610 3610 3610 3610 3610 3610 3610 3610 3613 3628 3634 3634 3634 3631 3616 3593 3543 3394 3259 3259 3259 3549 3638 3651 3660 3660 3660 3659 3657 3651 3646 3636 3621 3578 3533 3484 3419 3229 2865 0 0 0 2035 2024 2018 2010 2006 2004 2000 1998 1997 1995 1991 1988 1984 1980 1975 1971 1968 1965 1958 1954 1952 1948 1943 1941 1941 1939 1937 1935 1933 1931 1925 1919 1912 1901 1891 1885 1878 1869 1854 1834 1823 1802 1781 1771 1759 1745 1732 1724 1717 1711 1705 1698 1693 1686 1681 1677 1674 1669 1665 1660 1656 1653 1651 1648 1645 1641 1638 1636 1633 1631 1629 1627 1625 1623 1621 1619 1617 1616 1614 1613 1612 1610 1609 1608 1607 1606 1605 1603 1602 1601 1599 1598 1597 1595 1594 1593 1591 1591 1590 1589 1588 1588 1587 1586 1586 1585 1584 1583 1582 1582 1581 1580 1579 1579 1579 1578 1577 1577 1576 1576 1575 1575 1575 1575 1575 1574 1574 1574 1574 1574 1574 1574 1574 1574 1574 1574 1573 1573 1573 1573 1573 1573 1573 1574 1574 1574 1574 1574 1574 1574 1574 1574 1574 1574 1574 1574 1574 1573 1573 1573 1573 1573 1572 1572 1571 1571 1570 1570 1569 1569 1568 1567 1567 1567 1567 1567 1567 1566 1566 1566 1566 1565 1565 1565 1565 1566 1566 1566 1567 1567 1567 1567 1567 1567 1567 1567 1567 1567 1567 1567 1568 1568 1568 1568 1568 1568 1568 1568 1568 1569 1569 1569 1569 1569 1569 1569 1569 1569 1569 1570 1570 1571 1571 1571 1572 1572 1572 1572 1572 1572 1573 1572 1573 1573 1573 1573 1573 1573 1574 1575 1575 1575 1576 1576 1576 1577 1577 1577 1578 1579 1580 1581 1581 1582 1582 1583 1585 1586 1587 1588 1590 1590 1591 1593 1594 1594 1596 1597 1598 1599 1600 1600 1602 1603 1603 1604 1605 1606 1607 1608 1609 1611 1612 1613 1615 1616 1617 1619 1621 1624 1626 1627 1629 1631 1633 1635 1636 1636 1637 1637 1638 1638 1639 1640 1641 1644 1648 1650 1653 1659 1667 1678 1682 1686 1695 1709 1715 1722 1727 1729 1730 1732 1733 1734 1734 1735 1736 1737 1737 1737 1737 1737 1737 1737 1739 1741 1741 1741 1741 1742 1742 1745 1745 1745 1732 1693 1662 0 0 0 0 0 0 0 0 0 0 0 0 0 0 0 0 0 0 0 0 0 0 0 0 0 0
2817 2817 2901 2953 2959 2963 2969 2970 2983 3011 3048 3057 3057 3062 3062 3062 3076 3082 3082 3087 3091 3092 3098 3103 3106 3111 3128 3143 3145 3149 3159 3175 3187 3188 3196 3198 3199 3203 3210 3222 3229 3232 3234 3235 3239 3248 3255 3266 3267 3273 3280 3285 3288 3293 3298 3302 3306 3315 3321 3324 3328 3329 3330 3334 3339 3343 3343 3345 3346 3350 3351 3352 3352 3352 3351 3350 3350 3350 3351 3353 3356 3356 3358 3362 3364 3367 3369 3371 3373 3373 3373 3374 3377 3381 3383 3387 3392 3395 3400 3405 3410 3415 3423 3428 3436 3442 3448 3454 3457 3461 3464 3465 3468 3472 3475 3479 3484 3487 3490 3492 3493 3497 3498 3502 3506 3509 3512 3514 3517 3523 3527 3531 3535 3538 3541 3544 3547 3552 3556 3560 3565 3568 3572 3576 3582 3586 3587 3594 3596 3603 3606 3610 3614 3618 3621 3622 3625 3626 3629 3633 3638 3640 3642 3644 3646 3648 3651 3653 3656 3657 3657 3657 3658 3657 3657 3657 3657 3654 3653 3648 3644 3641 3637 3637 3635 3633 3633 3630 3628 3625 3619 3618 3617 3616 3616 3616 3616 3616 3621 3621 3621 3622 3622 3623 3626 3627 3627 3626 3626 3625 3625 3625 3625 3625 3627 3627 3627 3627 3627 3625 3622 3619 3613 3611 3610 3610 3610 3610 3610 3610 3610 3610 3610 3617 3635 3635 3635 3631 3609 3591 3578 3481 3338 3338 3338 3372 3571 3639 3651 3655 3655 3655 3652 3650 3644 3638 3623 3607 3565 3506 3456 3398 3080 2698 0 0 0 2028 2024 2019 2009 2006 2005 2001 1999 1998 1995 1991 1988 1984 1981 1977 1973 1970 1967 1960 1955 1952 1949 1944 1941 1941 1940 1939 1936 1933 1932 1930 1921 1915 1906 1897 1891 1880 1872 1855 1837 1822 1799 1779 1771 1759 1745 1733 1724 1717 1709 1701 1697 1693 1686 1680 1677 1673 1669 1665 1660 1656 1653 1650 1648 1645 1641 1638 1636 1633 1631 1629 1627 1625 1623 1621 1619 1617 1616 1614 1612 1611 1610 1609 1608 1606 1606 1604 1603 1602 1601 1599 1598 1596 1595 1593 1592 1591 1590 1590 1589 1588 1587 1587 1585 1585 1585 1583 1582 1582 1581 1580 1580 1579 1578 1578 1577 1577 1576 1575 1575 1575 1575 1574 1574 1574 1574 1574 1573 1573 1573 1573 1573 1573 1573 1573 1573 1573 1573 1573 1573 1573 1573 1573 1573 1573 1573 1573 1574 1574 1574 1574 1574 1574 1574 1574 1574 1574 1573 1573 1573 1573 1573 1572 1572 1571 1571 1570 1570 1569 1569 1568 1567 1567 1567 1567 1566 1566 1566 1566 1566 1566 1566 1565 1566 1566 1566 1566 1567 1567 1567 1567 1567 1567 1567 1567 1567 1567 1567 1567 1567 1567 1567 1568 1568 1568 1568 1568 1568 1568 1568 1569 1569 1569 1569 1569 1569 1569 1569 1569 1570 1570 1570 1570 1571 1571 1571 1571 1572 1572 1572 1572 1572 1572 1572 1572 1572 1573 1573 1573 1574 1574 1575 1575 1575 1576 1576 1576 1576 1577 1578 1579 1580 1580 1580 1582 1583 1585 1585 1587 1588 1589 1589 1591 1592 1593 1594 1595 1596 1597 1598 1599 1600 1601 1602 1602 1603 1604 1605 1607 1607 1608 1609 1611 1612 1613 1615 1616 1618 1619 1622 1625 1627 1629 1631 1633 1635 1636 1637 1637 1638 1639 1640 1641 1643 1644 1646 1648 1650 1652 1653 1660 1673 1682 1686 1695 1706 1715 1719 1725 1728 1730 1731 1733 1733 1733 1734 1736 1736 1736 1737 1737 1737 1737 1737 1738 1740 1740 1740 1740 1743 1745 1745 1745 1741 1722 1687 1662 0 0 0 0 0 0 0 0 0 0 0 0 0 0 0 0 0 0 0 0 0 0 0 0 0 0
2829 2829 2901 2941 2959 2962 2963 2970 2984 3017 3053 3053 3053 3055 3055 3055 3065 3074 3074 3078 3081 3089 3096 3103 3106 3123 3133 3138 3141 3141 3159 3170 3183 3193 3202 3204 3206 3207 3214 3223 3234 3236 3236 3237 3239 3249 3257 3266 3267 3273 3279 3286 3290 3293 3298 3305 3310 3317 3323 3326 3330 3330 3333 3337 3342 3344 3345 3346 3347 3350 3352 3353 3353 3353 3353 3353 3353 3354 3355 3355 3356 3356 3359 3362 3364 3367 3369 3371 3373 3374 3374 3376 3378 3382 3385 3389 3394 3400 3405 3410 3415 3420 3423 3428 3436 3443 3449 3454 3458 3462 3465 3469 3470 3473 3476 3482 3486 3489 3492 3494 3495 3498 3502 3504 3508 3512 3515 3518 3521 3526 3530 3534 3539 3543 3546 3549 3551 3556 3560 3565 3568 3573 3576 3580 3584 3587 3590 3594 3599 3604 3608 3608 3613 3616 3619 3622 3625 3627 3633 3637 3641 3644 3645 3646 3648 3649 3653 3655 3656 3658 3658 3659 3659 3659 3659 3659 3659 3658 3654 3649 3645 3642 3640 3639 3638 3637 3633 3630 3628 3625 3619 3619 3618 3618 3618 3618 3618 3618 3623 3625 3626 3626 3626 3627 3627 3627 3626 3623 3619 3617 3617 3616 3617 3617 3620 3625 3626 3626 3626 3624 3621 3619 3610 3610 3610 3610 3610 3611 3610 3610 3610 3611 3615 3628 3631 3631 3631 3608 3591 3571 3549 3449 3301 3301 3301 3407 3600 3640 3651 3652 3652 3652 3645 3639 3632 3620 3602 3584 3544 3477 3415 3268 2948 2541 0 0 2037 2028 2024 2017 2009 2007 2005 2002 2000 1998 1996 1993 1989 1985 1981 1978 1975 1971 1967 1960 1955 1952 1951 1946 1944 1942 1941 1941 1940 1937 1934 1932 1927 1916 1910 1902 1896 1883 1875 1857 1837 1821 1792 1777 1771 1759 1745 1733 1724 1715 1708 1701 1697 1693 1686 1680 1676 1673 1668 1664 1660 1656 1652 1650 1648 1644 1641 1638 1636 1633 1631 1630 1627 1625 1623 1621 1619 1617 1615 1614 1612 1611 1610 1609 1608 1606 1605 1604 1603 1602 1601 1599 1598 1596 1594 1593 1592 1591 1590 1588 1588 1587 1587 1585 1585 1585 1583 1583 1582 1581 1580 1580 1579 1578 1578 1578 1577 1576 1576 1575 1575 1574 1574 1574 1574 1573 1573 1573 1573 1573 1572 1573 1572 1572 1572 1572 1572 1572 1572 1572 1572 1572 1572 1572 1573 1573 1573 1573 1573 1573 1573 1573 1573 1573 1573 1573 1573 1573 1573 1573 1573 1572 1572 1572 1572 1571 1571 1570 1569 1569 1569 1568 1567 1567 1566 1566 1566 1566 1566 1566 1566 1566 1566 1566 1566 1566 1566 1566 1566 1566 1566 1566 1566 1567 1567 1567 1567 1567 1567 1567 1567 1567 1567 1567 1567 1568 1568 1568 1568 1568 1568 1568 1568 1568 1568 1568 1569 1569 1569 1569 1569 1569 1570 1570 1570 1571 1571 1571 1571 1571 1571 1571 1571 1571 1571 1571 1571 1572 1572 1572 1573 1573 1574 1574 1575 1575 1575 1575 1576 1576 1577 1578 1579 1579 1579 1581 1582 1584 1585 1586 1587 1588 1589 1589 1591 1592 1593 1595 1595 1597 1597 1598 1599 1600 1601 1602 1602 1604 1605 1606 1606 1607 1609 1610 1611 1613 1615 1616 1618 1619 1622 1624 1626 1629 1631 1633 1635 1636 1637 1638 1639 1640 1641 1643 1644 1645 1646 1649 1651 1652 1653 1659 1669 1681 1686 1695 1703 1712 1718 1723 1727 1729 1730 1731 1733 1733 1734 1734 1735 1735 1735 1735 1735 1736 1736 1738 1739 1740 1740 1741 1743 1745 1745 1745 1741 1718 1685 0 0 0 0 0 0 0 0 0 0 0 0 0 0 0 0 0 0 0 0 0 0 0 0 0 0 0
2855 2855 2901 2941 2959 2961 2962 2973 2983 3022 3053 3053 3053 3046 3046 3046 3057 3065 3065 3070 3073 3083 3094 3110 3119 3127 3133 3138 3139 3141 3159 3170 3177 3193 3204 3208 3210 3213 3220 3228 3234 3237 3238 3238 3252 3259 3263 3266 3267 3273 3279 3286 3291 3295 3299 3306 3313 3318 3323 3328 3332 3332 3335 3339 3344 3346 3349 3349 3350 3351 3355 3355 3355 3355 3355 3355 3355 3356 3356 3357 3357 3358 3361 3363 3366 3368 3369 3371 3373 3374 3375 3378 3379 3382 3385 3391 3397 3401 3408 3413 3416 3420 3423 3428 3436 3444 3452 3456 3461 3464 3467 3470 3473 3475 3478 3483 3486 3489 3493 3496 3498 3501 3504 3507 3511 3514 3517 3520 3525 3528 3531 3535 3540 3546 3549 3551 3553 3559 3563 3568 3573 3577 3581 3585 3589 3592 3595 3598 3603 3606 3608 3608 3613 3616 3619 3623 3628 3632 3636 3640 3644 3647 3648 3648 3649 3651 3653 3656 3657 3659 3660 3660 3661 3661 3661 3660 3660 3658 3655 3650 3646 3642 3642 3641 3640 3640 3638 3636 3632 3625 3619 3619 3619 3618 3618 3618 3618 3622 3627 3627 3627 3627 3627 3627 3627 3626 3625 3621 3618 3616 3616 3616 3616 3616 3617 3617 3625 3625 3625 3623 3621 3617 3611 3611 3611 3612 3612 3612 3612 3612 3612 3614 3626 3638 3638 3638 3626 3606 3581 3554 3514 3408 3273 3273 3273 3483 3617 3652 3652 3652 3652 3651 3644 3631 3616 3600 3586 3559 3512 3448 3322 3074 2732 0 0 0 2036 2028 2024 2017 2009 2007 2006 2004 2002 1999 1997 1994 1989 1985 1981 1979 1975 1971 1967 1961 1955 1952 1951 1947 1945 1943 1942 1942 1942 1939 1937 1935 1930 1920 1911 1907 1900 1889 1876 1857 1837 1817 1786 1773 1769 1759 1746 1735 1724 1715 1708 1701 1697 1693 1686 1680 1676 1672 1668 1664 1660 1656 1652 1649 1647 1644 1641 1638 1636 1634 1631 1630 1627 1625 1623 1621 1619 1617 1615 1614 1612 1611 1610 1609 1608 1606 1604 1604 1603 1602 1601 1599 1597 1595 1594 1592 1591 1591 1589 1588 1588 1587 1586 1585 1585 1584 1583 1582 1581 1580 1580 1580 1578 1578 1578 1576 1576 1576 1575 1575 1575 1574 1574 1573 1573 1572 1572 1572 1572 1572 1571 1572 1572 1572 1572 1572 1572 1571 1571 1571 1571 1571 1572 1572 1572 1572 1572 1572 1573 1573 1573 1573 1573 1573 1573 1573 1573 1573 1573 1572 1572 1572 1572 1571 1571 1571 1570 1570 1569 1568 1568 1568 1567 1567 1566 1566 1566 1566 1566 1566 1566 1566 1566 1566 1566 1566 1566 1566 1566 1566 1566 1566 1566 1566 1566 1566 1566 1566 1566 1566 1566 1566 1566 1567 1567 1567 1567 1567 1568 1568 1568 1568 1568 1568 1568 1568 1568 1568 1568 1568 1569 1569 1569 1569 1569 1570 1570 1570 1570 1571 1571 1571 1571 1571 1571 1571 1571 1571 1572 1572 1572 1573 1573 1574 1574 1574 1575 1575 1575 1576 1576 1577 1578 1578 1579 1580 1581 1583 1584 1585 1586 1587 1589 1589 1590 1591 1593 1594 1594 1595 1597 1597 1599 1600 1601 1601 1602 1603 1604 1605 1606 1607 1609 1610 1611 1613 1615 1616 1617 1619 1621 1623 1626 1628 1631 1633 1635 1636 1637 1639 1640 1641 1642 1643 1645 1645 1647 1649 1652 1652 1653 1658 1664 1674 1685 1692 1700 1707 1718 1722 1725 1728 1729 1730 1731 1731 1732 1734 1734 1734 1734 1734 1734 1734 1735 1738 1739 1739 1739 1741 1745 1746 1746 1746 1741 1717 0 0 0 0 0 0 0 0 0 0 0 0 0 0 0 0 0 0 0 0 0 0 0 0 0 0 0 0
2856 2856 2905 2934 2956 2961 2962 2975 2983 3022 3039 3039 3039 3030 3030 3030 3043 3056 3060 3064 3068 3078 3094 3122 3122 3127 3134 3138 3139 3141 3159 3170 3177 3194 3207 3208 3214 3222 3227 3231 3235 3237 3238 3243 3254 3265 3266 3269 3274 3275 3280 3286 3291 3295 3299 3306 3314 3320 3325 3329 3332 3336 3338 3341 3344 3347 3350 3351 3354 3354 3355 3355 3355 3356 3357 3357 3358 3358 3358 3359 3359 3360 3363 3365 3367 3369 3370 3372 3373 3374 3377 3380 3381 3383 3387 3392 3397 3402 3409 3414 3416 3420 3423 3429 3437 3446 3454 3459 3463 3465 3469 3472 3474 3477 3480 3484 3487 3489 3493 3496 3500 3504 3507 3513 3515 3518 3522 3526 3528 3531 3535 3539 3544 3548 3550 3552 3556 3560 3565 3571 3577 3582 3585 3590 3592 3596 3599 3604 3608 3608 3612 3613 3614 3616 3621 3626 3631 3636 3639 3643 3646 3649 3650 3651 3651 3653 3655 3657 3658 3660 3660 3661 3662 3662 3662 3662 3660 3659 3655 3651 3648 3645 3644 3642 3641 3641 3640 3638 3636 3628 3622 3621 3621 3621 3622 3622 3626 3626 3627 3627 3627 3627 3627 3627 3627 3626 3623 3621 3616 3616 3616 3614 3614 3613 3613 3613 3625 3625 3625 3623 3621 3617 3613 3613 3613 3613 3614 3614 3614 3614 3614 3619 3633 3636 3636 3636 3624 3603 3579 3552 3497 3371 3302 3302 3302 3526 3629 3652 3652 3652 3651 3650 3642 3628 3606 3588 3564 3532 3475 3413 3274 2929 2546 0 0 2052 2035 2028 2024 2016 2009 2009 2009 2006 2003 2000 1997 1994 1990 1985 1983 1979 1975 1971 1967 1961 1955 1952 1951 1948 1946 1945 1944 1944 1944 1942 1940 1939 1936 1928 1916 1912 1908 1897 1877 1857 1837 1811 1783 1770 1763 1758 1748 1735 1725 1715 1708 1703 1698 1693 1686 1680 1676 1671 1667 1664 1660 1656 1652 1649 1647 1644 1641 1638 1636 1634 1631 1630 1627 1625 1623 1621 1619 1617 1615 1614 1612 1611 1609 1608 1607 1605 1604 1604 1603 1602 1599 1599 1597 1595 1594 1592 1591 1589 1588 1587 1587 1585 1585 1584 1583 1583 1582 1582 1580 1580 1579 1578 1578 1577 1577 1576 1576 1576 1575 1574 1574 1573 1573 1573 1572 1572 1572 1571 1571 1571 1571 1571 1571 1571 1571 1571 1570 1570 1571 1570 1571 1571 1571 1571 1572 1572 1572 1572 1572 1572 1573 1573 1573 1573 1573 1572 1572 1572 1572 1572 1572 1572 1572 1571 1571 1570 1570 1569 1569 1568 1568 1567 1567 1567 1566 1566 1566 1566 1566 1566 1566 1566 1566 1566 1566 1566 1566 1566 1566 1566 1566 1566 1566 1566 1566 1566 1566 1566 1566 1566 1566 1566 1566 1566 1566 1566 1567 1567 1567 1567 1567 1567 1568 1568 1568 1568 1568 1568 1568 1568 1568 1568 1568 1568 1569 1569 1569 1569 1570 1570 1570 1570 1570 1570 1570 1570 1570 1571 1571 1571 1571 1572 1572 1572 1573 1573 1574 1574 1574 1575 1576 1577 1577 1577 1578 1578 1580 1581 1582 1584 1585 1586 1588 1589 1589 1590 1591 1592 1594 1595 1596 1596 1597 1599 1599 1600 1601 1603 1604 1604 1606 1607 1608 1609 1610 1612 1614 1615 1617 1619 1621 1623 1626 1628 1630 1633 1635 1636 1638 1639 1641 1642 1643 1645 1645 1647 1649 1650 1652 1654 1654 1658 1661 1667 1682 1691 1697 1706 1715 1717 1721 1725 1727 1729 1729 1730 1731 1733 1733 1733 1733 1733 1733 1733 1735 1737 1738 1738 1739 1741 1745 1747 1747 1747 1741 1717 0 0 0 0 0 0 0 0 0 0 0 0 0 0 0 0 0 0 0 0 0 0 0 0 0 0 0 0
2884 2884 2905 2934 2955 2960 2964 2975 2987 3022 3036 3036 3036 3030 3030 3030 3041 3044 3054 3061 3065 3076 3094 3126 3127 3128 3134 3139 3142 3157 3163 3170 3177 3199 3208 3210 3216 3225 3227 3231 3235 3237 3238 3243 3254 3265 3266 3272 3275 3275 3281 3288 3292 3298 3300 3307 3314 3320 3327 3332 3334 3338 3342 3345 3347 3348 3350 3351 3354 3355 3355 3356 3356 3357 3359 3360 3360 3361 3361 3361 3362 3363 3364 3367 3369 3371 3372 3373 3373 3376 3380 3382 3383 3385 3389 3394 3400 3405 3409 3414 3418 3420 3424 3429 3437 3447 3456 3462 3463 3466 3469 3473 3475 3478 3481 3484 3487 3490 3494 3498 3502 3507 3511 3515 3517 3521 3526 3529 3532 3534 3538 3542 3546 3550 3552 3553 3557 3561 3567 3573 3579 3584 3588 3591 3595 3598 3603 3608 3611 3614 3615 3617 3618 3619 3623 3627 3635 3638 3642 3643 3646 3649 3651 3653 3654 3655 3657 3659 3659 3660 3661 3662 3663 3663 3663 3662 3661 3659 3656 3652 3649 3649 3646 3643 3642 3641 3640 3638 3637 3631 3628 3627 3627 3627 3627 3627 3627 3627 3627 3627 3627 3627 3627 3627 3626 3624 3622 3621 3616 3616 3616 3616 3616 3613 3613 3613 3625 3625 3625 3624 3621 3619 3615 3615 3615 3615 3617 3619 3620 3622 3626 3627 3636 3636 3636 3636 3613 3603 3579 3544 3480 3279 3279 3279 3350 3571 3629 3651 3651 3651 3651 3644 3633 3616 3596 3578 3552 3515 3452 3381 3122 2789 0 0 0 2041 2033 2028 2021 2016 2010 2009 2009 2007 2004 2001 1999 1996 1993 1989 1984 1980 1975 1971 1967 1961 1955 1952 1951 1948 1946 1945 1945 1945 1945 1943 1942 1940 1937 1932 1924 1919 1916 1902 1877 1848 1832 1808 1782 1767 1763 1758 1748 1735 1725 1717 1710 1703 1698 1692 1685 1680 1676 1671 1667 1664 1660 1656 1652 1649 1646 1643 1641 1638 1636 1633 1631 1629 1627 1625 1622 1621 1619 1617 1615 1614 1612 1611 1609 1608 1607 1605 1604 1603 1602 1600 1599 1597 1596 1594 1593 1592 1591 1589 1588 1587 1586 1585 1584 1584 1583 1582 1581 1580 1580 1579 1578 1578 1577 1576 1576 1576 1575 1575 1574 1574 1573 1573 1572 1571 1571 1571 1571 1571 1570 1570 1570 1570 1570 1570 1570 1570 1570 1570 1570 1570 1569 1569 1569 1570 1571 1571 1571 1571 1572 1572 1572 1572 1572 1572 1572 1572 1572 1572 1572 1572 1571 1571 1571 1571 1571 1570 1570 1569 1569 1568 1568 1567 1567 1567 1566 1566 1566 1566 1566 1566 1566 1566 1566 1566 1566 1566 1566 1566 1566 1566 1566 1566 1566 1566 1566 1566 1566 1566 1566 1566 1566 1566 1566 1566 1566 1566 1566 1566 1566 1566 1567 1567 1568 1568 1568 1568 1567 1567 1568 1568 1568 1568 1568 1568 1568 1569 1569 1569 1569 1569 1569 1570 1570 1570 1570 1570 1570 1570 1570 1571 1571 1571 1571 1572 1572 1573 1573 1573 1573 1574 1575 1575 1575 1576 1576 1578 1578 1581 1582 1583 1584 1585 1587 1588 1589 1589 1590 1591 1593 1593 1595 1596 1596 1599 1599 1600 1601 1602 1603 1604 1605 1606 1607 1608 1609 1611 1612 1614 1616 1618 1620 1623 1625 1627 1629 1632 1633 1636 1638 1640 1641 1643 1645 1646 1648 1650 1650 1652 1653 1654 1655 1658 1661 1664 1673 1689 1694 1703 1711 1714 1716 1721 1724 1726 1728 1729 1730 1731 1731 1732 1732 1732 1732 1733 1735 1736 1737 1737 1738 1742 1746 1749 1749 1749 1741 1717 0 0 0 0 0 0 0 0 0 0 0 0 0 0 0 0 0 0 0 0 0 0 0 0 0 0 0 0
2884 2884 2905 2926 2950 2953 2975 2985 2990 3022 3036 3036 3036 3030 3030 3030 3041 3044 3054 3060 3065 3076 3094 3126 3131 3132 3134 3143 3155 3158 3163 3170 3182 3200 3212 3221 3221 3225 3227 3231 3235 3237 3239 3245 3254 3266 3266 3272 3275 3277 3282 3289 3296 3302 3303 3308 3316 3324 3329 3334 3337 3340 3344 3347 3349 3349 3351 3352 3355 3355 3356 3356 3356 3358 3361 3363 3363 3363 3363 3363 3363 3364 3366 3369 3370 3372 3373 3374 3375 3378 3383 3386 3387 3389 3393 3399 3405 3410 3414 3416 3418 3420 3424 3430 3438 3447 3456 3462 3464 3466 3471 3475 3477 3480 3483 3487 3489 3493 3496 3501 3505 3510 3513 3517 3519 3523 3526 3530 3533 3537 3540 3544 3548 3551 3553 3555 3557 3562 3568 3575 3581 3585 3589 3591 3596 3600 3606 3612 3614 3618 3620 3622 3625 3626 3626 3629 3635 3639 3642 3644 3646 3649 3651 3653 3654 3655 3657 3659 3660 3662 3662 3663 3664 3664 3664 3664 3663 3661 3658 3655 3652 3651 3649 3644 3642 3641 3640 3639 3637 3634 3633 3633 3633 3633 3633 3631 3628 3626 3622 3622 3622 3625 3625 3625 3621 3619 3619 3618 3616 3616 3616 3616 3616 3616 3617 3617 3623 3623 3623 3620 3620 3617 3614 3614 3614 3621 3621 3629 3631 3633 3635 3636 3645 3645 3645 3636 3608 3591 3577 3539 3462 3244 3244 3244 3404 3583 3629 3642 3642 3642 3639 3626 3615 3597 3578 3558 3538 3506 3450 3268 2959 2573 0 0 2047 2038 2030 2026 2017 2016 2012 2012 2009 2007 2004 2001 1999 1996 1994 1991 1986 1981 1975 1971 1967 1960 1956 1953 1952 1949 1947 1947 1947 1946 1946 1945 1944 1942 1940 1937 1929 1927 1921 1903 1877 1843 1832 1807 1782 1767 1762 1755 1748 1735 1725 1717 1710 1703 1698 1690 1685 1680 1675 1670 1667 1664 1660 1656 1652 1649 1646 1643 1640 1638 1636 1633 1631 1629 1627 1625 1622 1620 1618 1617 1615 1614 1612 1611 1609 1608 1607 1605 1604 1603 1601 1600 1598 1597 1596 1593 1592 1591 1590 1589 1588 1586 1586 1585 1584 1583 1582 1581 1581 1580 1579 1578 1578 1578 1577 1576 1575 1575 1574 1574 1574 1573 1573 1572 1572 1571 1571 1571 1571 1570 1570 1569 1569 1569 1569 1569 1569 1569 1569 1569 1569 1569 1569 1569 1569 1570 1570 1570 1570 1571 1571 1571 1571 1572 1572 1572 1572 1572 1572 1572 1572 1572 1571 1571 1571 1571 1570 1570 1569 1569 1568 1568 1568 1567 1567 1566 1566 1566 1566 1566 1566 1566 1566 1566 1566 1566 1566 1566 1566 1566 1566 1566 1566 1566 1566 1566 1566 1566 1566 1565 1565 1565 1565 1565 1565 1565 1565 1565 1565 1566 1566 1566 1566 1567 1567 1567 1567 1567 1567 1567 1567 1567 1567 1567 1567 1567 1568 1568 1568 1568 1568 1568 1569 1569 1569 1569 1569 1570 1570 1570 1570 1570 1570 1570 1571 1571 1571 1572 1572 1572 1573 1573 1574 1574 1574 1575 1576 1577 1578 1579 1580 1581 1583 1584 1585 1586 1587 1588 1589 1591 1591 1592 1594 1594 1596 1597 1598 1599 1600 1601 1602 1603 1604 1605 1607 1607 1609 1610 1610 1613 1615 1616 1620 1622 1624 1627 1628 1630 1633 1636 1638 1640 1641 1644 1645 1648 1649 1652 1652 1654 1654 1656 1657 1659 1661 1664 1671 1688 1693 1700 1709 1712 1715 1717 1722 1724 1726 1727 1728 1730 1730 1732 1732 1732 1732 1732 1734 1736 1736 1737 1738 1742 1746 1750 1750 1750 1741 1717 0 0 0 0 0 0 0 0 0 0 0 0 0 0 0 0 0 0 0 0 0 0 0 0 0 0 0 0
2880 2884 2884 2897 2937 2951 2975 2996 3008 3025 3036 3036 3036 3036 3033 3033 3036 3041 3045 3059 3065 3074 3099 3126 3134 3140 3140 3155 3155 3158 3163 3169 3183 3206 3220 3225 3226 3227 3227 3228 3234 3237 3239 3245 3250 3263 3265 3269 3272 3277 3282 3294 3303 3306 3308 3312 3318 3324 3331 3337 3341 3345 3346 3348 3349 3350 3352 3353 3355 3355 3356 3356 3357 3359 3362 3364 3365 3365 3365 3365 3365 3367 3369 3370 3374 3374 3375 3377 3377 3380 3386 3391 3392 3394 3398 3403 3408 3414 3419 3422 3423 3424 3428 3433 3441 3449 3457 3462 3465 3469 3472 3476 3479 3484 3486 3490 3492 3495 3499 3502 3508 3512 3515 3517 3519 3523 3526 3530 3534 3537 3541 3544 3548 3551 3553 3557 3559 3562 3569 3575 3582 3586 3589 3592 3596 3600 3607 3612 3616 3620 3623 3624 3627 3629 3631 3635 3638 3639 3643 3644 3647 3649 3652 3653 3655 3656 3658 3659 3660 3662 3662 3663 3664 3665 3665 3665 3665 3661 3659 3655 3654 3652 3649 3644 3642 3641 3640 3639 3637 3637 3636 3634 3634 3634 3633 3632 3629 3620 3620 3620 3622 3622 3622 3617 3615 3615 3615 3619 3620 3622 3622 3622 3621 3620 3620 3621 3625 3625 3625 3620 3613 3613 3612 3613 3614 3621 3621 3629 3640 3644 3646 3646 3648 3646 3646 3619 3591 3571 3555 3531 3431 3217 3217 3217 3406 3584 3621 3630 3630 3630 3624 3607 3592 3580 3560 3538 3513 3483 3407 3202 2759 0 0 0 2042 2036 2030 2016 2015 2015 2014 2013 2010 2007 2004 2002 1999 1997 1994 1992 1986 1984 1977 1972 1967 1960 1956 1954 1952 1950 1949 1948 1948 1948 1947 1947 1947 1947 1946 1943 1937 1930 1922 1905 1874 1843 1831 1807 1782 1767 1762 1755 1743 1735 1725 1717 1711 1703 1696 1690 1685 1680 1674 1670 1667 1664 1658 1655 1652 1649 1646 1643 1640 1638 1635 1633 1630 1629 1626 1624 1622 1620 1618 1616 1615 1613 1612 1610 1609 1608 1606 1605 1604 1602 1601 1600 1597 1596 1595 1593 1592 1591 1590 1588 1587 1586 1585 1585 1584 1583 1581 1580 1580 1579 1578 1577 1577 1576 1576 1575 1575 1574 1574 1573 1573 1573 1572 1572 1571 1570 1570 1570 1570 1570 1569 1569 1568 1568 1568 1568 1568 1568 1568 1568 1568 1568 1568 1568 1569 1569 1569 1570 1570 1570 1570 1571 1571 1571 1571 1571 1571 1571 1572 1571 1571 1571 1571 1571 1571 1570 1570 1569 1569 1568 1567 1567 1567 1567 1567 1566 1566 1566 1566 1566 1566 1566 1566 1566 1566 1566 1566 1566 1565 1565 1565 1565 1565 1565 1565 1565 1565 1565 1565 1565 1565 1565 1565 1565 1565 1565 1565 1565 1565 1565 1566 1566 1566 1567 1567 1567 1567 1567 1567 1567 1567 1567 1567 1566 1566 1566 1567 1567 1567 1567 1567 1567 1567 1568 1568 1568 1568 1568 1569 1569 1569 1569 1569 1570 1570 1570 1570 1570 1571 1571 1572 1573 1573 1573 1573 1574 1575 1576 1577 1577 1580 1580 1581 1583 1584 1585 1587 1587 1588 1589 1590 1591 1593 1594 1595 1596 1597 1599 1599 1600 1602 1603 1603 1604 1606 1607 1608 1609 1610 1612 1613 1615 1618 1621 1624 1626 1627 1630 1633 1636 1638 1640 1641 1644 1646 1649 1651 1653 1654 1655 1656 1657 1659 1660 1662 1664 1671 1686 1693 1699 1706 1710 1712 1715 1720 1721 1723 1724 1725 1727 1729 1730 1731 1731 1731 1732 1732 1733 1735 1737 1739 1742 1746 1750 1750 1750 1745 1724 0 0 0 0 0 0 0 0 0 0 0 0 0 0 0 0 0 0 0 0 0 0 0 0 0 0 0 0
2869 2869 2874 2896 2901 2943 2971 2996 3008 3023 3039 3046 3046 3046 3039 3039 3039 3041 3045 3059 3063 3075 3109 3127 3134 3143 3148 3155 3156 3158 3160 3167 3185 3208 3223 3225 3226 3227 3227 3228 3234 3237 3239 3245 3250 3260 3264 3269 3272 3278 3284 3295 3307 3308 3310 3314 3319 3325 3332 3339 3343 3346 3347 3351 3351 3352 3352 3355 3357 3358 3358 3358 3359 3361 3364 3366 3366 3367 3367 3367 3369 3369 3371 3373 3374 3374 3376 3377 3379 3381 3386 3391 3395 3398 3400 3406 3411 3417 3422 3425 3428 3430 3433 3439 3445 3453 3458 3462 3466 3470 3472 3476 3482 3486 3489 3492 3496 3498 3500 3503 3508 3512 3516 3518 3521 3525 3527 3531 3534 3538 3542 3546 3548 3551 3553 3557 3560 3564 3570 3576 3582 3587 3590 3592 3596 3601 3609 3612 3616 3621 3623 3626 3629 3631 3634 3636 3640 3643 3645 3646 3647 3649 3652 3653 3655 3656 3659 3660 3661 3662 3662 3663 3664 3665 3665 3665 3665 3661 3659 3656 3654 3652 3649 3645 3642 3641 3640 3639 3639 3638 3638 3635 3635 3635 3634 3633 3628 3616 3616 3616 3622 3622 3622 3617 3612 3612 3612 3616 3620 3623 3624 3625 3626 3626 3625 3625 3626 3629 3629 3629 3619 3579 3579 3579 3597 3621 3621 3629 3640 3644 3646 3646 3646 3646 3641 3599 3571 3553 3534 3499 3311 3229 3229 3229 3491 3590 3618 3626 3626 3626 3611 3593 3583 3567 3546 3517 3484 3451 3368 2965 2597 0 0 2044 2038 2032 2019 2016 2015 2015 2014 2013 2010 2007 2005 2002 1999 1997 1994 1992 1987 1984 1979 1974 1968 1960 1958 1956 1953 1952 1950 1950 1950 1950 1950 1950 1950 1950 1949 1947 1941 1933 1922 1908 1874 1843 1830 1807 1785 1773 1762 1755 1742 1731 1722 1716 1711 1703 1696 1690 1685 1680 1674 1669 1667 1663 1658 1655 1652 1648 1646 1642 1640 1637 1635 1633 1630 1629 1626 1624 1622 1619 1618 1616 1615 1613 1612 1610 1608 1607 1606 1604 1603 1601 1600 1598 1597 1596 1594 1593 1591 1590 1589 1588 1587 1586 1585 1584 1583 1582 1581 1580 1579 1578 1577 1577 1577 1576 1575 1575 1574 1573 1573 1573 1573 1572 1571 1571 1570 1570 1569 1569 1569 1569 1568 1568 1568 1568 1568 1567 1567 1567 1567 1567 1567 1567 1567 1567 1567 1567 1568 1569 1569 1570 1570 1570 1571 1571 1571 1571 1571 1571 1571 1571 1571 1571 1571 1570 1570 1569 1569 1569 1569 1568 1567 1567 1567 1567 1566 1566 1566 1566 1566 1566 1566 1566 1566 1566 1566 1566 1566 1565 1565 1565 1565 1565 1565 1565 1565 1565 1565 1565 1565 1565 1565 1564 1564 1564 1564 1564 1564 1564 1565 1565 1565 1566 1566 1566 1567 1567 1567 1567 1567 1567 1566 1566 1566 1566 1566 1566 1566 1566 1566 1566 1566 1567 1567 1567 1567 1567 1567 1567 1568 1568 1568 1568 1568 1569 1569 1569 1569 1569 1570 1571 1572 1572 1573 1573 1573 1574 1575 1576 1577 1577 1578 1579 1581 1581 1582 1583 1584 1586 1587 1587 1589 1590 1592 1593 1594 1595 1596 1598 1598 1600 1601 1602 1602 1604 1605 1606 1607 1608 1610 1611 1613 1615 1618 1620 1623 1625 1627 1629 1633 1636 1638 1640 1642 1644 1646 1650 1652 1654 1656 1657 1657 1659 1660 1662 1662 1664 1670 1683 1692 1697 1703 1708 1711 1715 1717 1719 1721 1723 1725 1725 1728 1729 1730 1730 1731 1731 1731 1732 1734 1737 1739 1742 1746 1750 1750 1750 1745 1733 0 0 0 0 0 0 0 0 0 0 0 0 0 0 0 0 0 0 0 0 0 0 0 0 0 0 0 0
2848 2848 2871 2890 2895 2941 2969 2996 3008 3023 3037 3046 3046 3046 3039 3036 3036 3036 3039 3052 3063 3076 3110 3127 3140 3145 3151 3158 3158 3158 3160 3167 3185 3210 3223 3226 3226 3227 3227 3228 3234 3244 3246 3250 3252 3260 3264 3268 3272 3278 3288 3300 3308 3311 3313 3316 3320 3326 3333 3339 3345 3348 3350 3352 3352 3353 3355 3357 3361 3361 3363 3364 3364 3365 3367 3367 3367 3367 3367 3370 3372 3372 3373 3374 3377 3377 3377 3378 3380 3384 3387 3391 3396 3400 3403 3406 3413 3419 3423 3428 3433 3436 3440 3444 3451 3456 3461 3462 3466 3470 3474 3479 3486 3489 3492 3495 3497 3499 3502 3505 3509 3512 3516 3520 3523 3525 3529 3533 3537 3539 3543 3546 3548 3549 3553 3557 3561 3565 3571 3577 3582 3587 3591 3593 3598 3604 3610 3613 3617 3621 3624 3627 3630 3633 3636 3640 3642 3645 3646 3649 3649 3651 3652 3653 3655 3656 3659 3660 3661 3662 3663 3664 3664 3665 3665 3665 3665 3661 3659 3656 3655 3653 3649 3645 3643 3641 3640 3639 3639 3639 3638 3638 3637 3637 3635 3633 3628 3616 3616 3616 3622 3622 3622 3616 3612 3612 3612 3616 3620 3623 3625 3625 3626 3626 3625 3625 3626 3629 3629 3629 3619 3579 3579 3579 3594 3614 3617 3622 3640 3644 3646 3646 3646 3637 3612 3587 3564 3539 3510 3428 3237 3237 3237 3332 3543 3594 3612 3612 3612 3610 3603 3591 3578 3558 3532 3495 3461 3430 3211 2878 0 0 0 2041 2033 2023 2018 2016 2015 2015 2014 2013 2011 2007 2005 2002 1999 1997 1994 1992 1988 1984 1980 1975 1970 1962 1959 1957 1956 1955 1952 1952 1952 1953 1953 1953 1952 1952 1950 1950 1946 1935 1924 1909 1874 1843 1830 1810 1793 1778 1768 1755 1742 1727 1721 1716 1711 1703 1696 1692 1685 1680 1674 1669 1667 1662 1658 1654 1652 1649 1645 1642 1640 1637 1635 1633 1630 1628 1626 1623 1622 1619 1618 1616 1614 1613 1611 1610 1608 1607 1606 1604 1602 1601 1600 1598 1596 1595 1594 1592 1591 1590 1589 1587 1586 1585 1584 1583 1582 1581 1580 1579 1579 1577 1577 1576 1575 1574 1574 1574 1573 1573 1572 1572 1571 1571 1570 1570 1570 1569 1568 1568 1568 1568 1568 1568 1568 1567 1567 1567 1567 1567 1567 1566 1566 1566 1566 1567 1567 1567 1568 1568 1569 1569 1569 1570 1570 1571 1571 1571 1571 1571 1571 1571 1571 1571 1570 1570 1569 1569 1569 1569 1569 1568 1567 1567 1567 1566 1566 1566 1566 1566 1566 1566 1566 1566 1566 1566 1566 1566 1566 1565 1565 1565 1565 1565 1565 1565 1565 1565 1565 1564 1564 1564 1564 1564 1564 1564 1564 1564 1564 1564 1564 1564 1565 1565 1566 1566 1566 1566 1566 1566 1566 1566 1566 1566 1566 1565 1565 1565 1565 1565 1565 1565 1565 1566 1566 1567 1567 1567 1567 1567 1567 1567 1567 1567 1567 1568 1568 1568 1569 1569 1570 1570 1571 1571 1571 1572 1573 1573 1574 1575 1575 1577 1577 1578 1579 1579 1581 1581 1583 1585 1586 1587 1588 1589 1590 1592 1592 1594 1596 1596 1598 1599 1600 1601 1602 1604 1605 1605 1606 1608 1609 1611 1612 1615 1617 1619 1622 1623 1626 1629 1633 1636 1638 1640 1642 1644 1647 1652 1654 1656 1657 1658 1659 1661 1662 1664 1665 1666 1669 1679 1686 1694 1701 1705 1711 1714 1717 1718 1721 1723 1725 1725 1727 1729 1729 1729 1730 1730 1731 1731 1733 1737 1740 1743 1746 1748 1748 1748 1745 1741 1715 0 0 0 0 0 0 0 0 0 0 0 0 0 0 0 0 0 0 0 0 0 0 0 0 0 0 0
2824 2824 2850 2871 2879 2917 2962 2991 3007 3023 3037 3046 3046 3046 3041 3033 3033 3033 3039 3052 3063 3082 3120 3135 3149 3152 3158 3158 3158 3160 3160 3167 3186 3210 3223 3226 3226 3227 3227 3228 3235 3245 3252 3253 3254 3263 3265 3268 3274 3279 3289 3301 3312 3315 3317 3319 3323 3329 3336 3341 3346 3350 3352 3354 3354 3355 3357 3360 3364 3366 3367 3367 3367 3367 3369 3370 3370 3370 3370 3373 3376 3376 3378 3378 3378 3378 3378 3382 3383 3387 3389 3393 3397 3400 3404 3409 3414 3419 3424 3429 3435 3439 3444 3448 3454 3459 3461 3464 3468 3472 3476 3483 3487 3490 3492 3495 3498 3499 3503 3506 3509 3512 3516 3521 3524 3527 3531 3535 3538 3541 3544 3546 3548 3549 3552 3557 3561 3568 3573 3578 3584 3588 3591 3594 3603 3607 3610 3613 3617 3621 3624 3627 3630 3634 3638 3642 3644 3647 3648 3649 3651 3652 3654 3655 3655 3656 3659 3660 3662 3663 3663 3663 3664 3664 3664 3663 3662 3660 3658 3656 3655 3653 3650 3645 3643 3640 3640 3639 3639 3639 3638 3638 3638 3638 3635 3633 3628 3616 3616 3616 3622 3622 3622 3616 3612 3612 3612 3616 3620 3624 3625 3625 3626 3626 3625 3625 3626 3627 3627 3627 3619 3579 3579 3579 3594 3611 3611 3611 3611 3610 3602 3602 3600 3591 3583 3566 3550 3532 3495 3368 3198 3198 3198 3430 3587 3594 3600 3601 3601 3600 3595 3586 3571 3546 3511 3471 3433 3359 3074 2700 0 0 0 2040 2029 2022 2018 2016 2016 2015 2014 2013 2011 2008 2005 2003 1999 1997 1994 1992 1988 1984 1980 1976 1971 1964 1960 1958 1957 1957 1956 1956 1956 1956 1956 1956 1956 1954 1952 1952 1947 1942 1926 1910 1874 1843 1827 1810 1795 1778 1768 1755 1740 1727 1720 1716 1711 1705 1698 1692 1686 1680 1674 1669 1666 1662 1658 1654 1652 1649 1645 1642 1639 1636 1635 1632 1630 1627 1625 1623 1622 1619 1617 1616 1614 1613 1611 1609 1608 1607 1605 1603 1601 1600 1599 1597 1596 1595 1593 1592 1590 1589 1588 1586 1585 1584 1583 1582 1582 1580 1579 1579 1578 1577 1576 1575 1575 1574 1573 1573 1572 1572 1571 1571 1571 1570 1570 1569 1569 1569 1568 1568 1568 1568 1567 1567 1567 1566 1566 1566 1566 1566 1566 1565 1565 1565 1565 1566 1566 1566 1567 1567 1568 1568 1569 1570 1570 1570 1570 1571 1571 1571 1571 1571 1571 1571 1570 1570 1569 1569 1568 1568 1568 1568 1567 1567 1567 1566 1566 1566 1566 1566 1566 1566 1566 1566 1566 1566 1566 1565 1565 1565 1565 1565 1565 1565 1565 1564 1564 1564 1564 1564 1564 1564 1564 1564 1564 1564 1564 1564 1564 1564 1564 1564 1564 1565 1565 1566 1566 1566 1566 1566 1566 1566 1565 1565 1565 1565 1565 1565 1565 1565 1565 1565 1565 1565 1565 1566 1566 1566 1566 1566 1566 1566 1566 1566 1567 1567 1567 1568 1568 1569 1569 1570 1570 1571 1571 1571 1572 1572 1572 1574 1574 1575 1575 1576 1578 1579 1580 1580 1582 1583 1584 1585 1586 1588 1589 1590 1592 1593 1595 1596 1597 1599 1600 1601 1601 1602 1603 1605 1605 1607 1608 1610 1612 1614 1617 1619 1621 1623 1626 1629 1633 1635 1638 1640 1642 1646 1648 1652 1656 1658 1659 1661 1662 1663 1664 1666 1669 1669 1669 1675 1681 1688 1698 1704 1711 1714 1717 1718 1720 1723 1724 1724 1726 1727 1729 1729 1729 1730 1730 1730 1733 1737 1741 1743 1745 1745 1745 1745 1745 1741 1715 0 0 0 0 0 0 0 0 0 0 0 0 0 0 0 0 0 0 0 0 0 0 0 0 0 0 0
2824 2824 2850 2871 2879 2917 2962 2991 2997 3012 3037 3046 3046 3046 3041 3033 3033 3033 3039 3052 3070 3103 3140 3154 3156 3160 3163 3163 3167 3171 3171 3178 3191 3211 3223 3224 3224 3227 3227 3230 3242 3246 3255 3256 3259 3264 3265 3268 3276 3285 3295 3305 3314 3321 3324 3324 3327 3331 3336 3343 3347 3353 3355 3356 3357 3359 3362 3364 3366 3368 3368 3368 3368 3369 3370 3371 3372 3373 3373 3375 3378 3379 3380 3382 3382 3382 3382 3383 3387 3390 3392 3396 3400 3402 3406 3411 3415 3420 3425 3430 3437 3443 3446 3451 3456 3461 3465 3469 3472 3474 3479 3483 3487 3490 3493 3496 3498 3499 3503 3506 3509 3512 3516 3521 3525 3528 3531 3535 3539 3542 3544 3546 3548 3549 3552 3558 3562 3569 3574 3579 3584 3589 3593 3599 3604 3607 3610 3613 3617 3622 3624 3628 3632 3634 3640 3642 3644 3647 3648 3650 3651 3654 3656 3656 3656 3658 3660 3662 3665 3665 3665 3664 3663 3663 3663 3662 3660 3658 3657 3656 3655 3653 3650 3648 3643 3641 3638 3638 3638 3638 3638 3638 3638 3638 3635 3632 3627 3617 3617 3617 3617 3617 3617 3616 3613 3613 3613 3616 3620 3624 3626 3626 3626 3625 3623 3623 3623 3627 3637 3637 3637 3626 3594 3594 3594 3597 3597 3597 3581 3578 3577 3570 3566 3564 3556 3549 3543 3527 3484 3351 3250 3250 3250 3493 3589 3589 3589 3587 3587 3582 3582 3582 3565 3534 3493 3453 3405 3241 2837 0 0 0 2060 2038 2029 2022 2018 2017 2017 2015 2014 2013 2012 2009 2007 2004 2000 1997 1994 1992 1988 1984 1980 1977 1971 1965 1961 1960 1959 1958 1957 1957 1957 1958 1959 1959 1959 1956 1954 1953 1952 1945 1931 1911 1874 1845 1826 1810 1795 1778 1768 1755 1738 1727 1720 1715 1711 1705 1698 1692 1686 1680 1674 1669 1666 1662 1657 1654 1651 1649 1645 1642 1639 1636 1634 1632 1629 1627 1625 1623 1621 1619 1617 1615 1614 1612 1611 1609 1608 1606 1604 1603 1601 1600 1598 1596 1596 1594 1593 1591 1590 1588 1587 1586 1585 1583 1583 1581 1580 1579 1578 1578 1577 1576 1575 1575 1573 1573 1572 1572 1571 1571 1570 1570 1569 1569 1568 1568 1568 1568 1568 1567 1567 1566 1566 1566 1566 1565 1565 1565 1565 1565 1565 1565 1565 1565 1565 1565 1565 1566 1566 1567 1567 1568 1569 1569 1570 1570 1570 1570 1570 1570 1570 1570 1570 1570 1570 1570 1569 1568 1568 1568 1568 1567 1567 1566 1566 1566 1566 1566 1566 1566 1566 1566 1566 1566 1566 1566 1566 1565 1565 1565 1565 1565 1564 1564 1564 1564 1564 1564 1564 1564 1564 1563 1563 1563 1563 1563 1563 1563 1563 1564 1564 1564 1564 1565 1565 1565 1565 1566 1566 1566 1566 1565 1565 1565 1565 1564 1564 1564 1564 1564 1564 1564 1564 1564 1565 1565 1565 1566 1566 1566 1566 1566 1566 1566 1566 1566 1566 1566 1567 1567 1568 1568 1569 1570 1570 1571 1571 1572 1572 1572 1573 1574 1574 1575 1576 1576 1578 1579 1581 1582 1583 1584 1585 1586 1587 1589 1590 1593 1594 1595 1597 1598 1599 1600 1601 1601 1602 1603 1604 1606 1608 1609 1611 1614 1616 1618 1620 1622 1625 1628 1633 1635 1638 1640 1643 1646 1649 1653 1657 1660 1661 1662 1663 1664 1665 1666 1670 1670 1670 1675 1680 1686 1696 1702 1710 1714 1717 1717 1720 1722 1723 1724 1725 1726 1728 1728 1728 1729 1729 1730 1733 1737 1744 1745 1745 1745 1745 1745 1741 1735 1707 0 0 0 0 0 0 0 0 0 0 0 0 0 0 0 0 0 0 0 0 0 0 0 0 0 0 0
2824 2824 2850 2871 2879 2917 2962 2982 2990 3009 3037 3046 3046 3046 3041 3035 3035 3035 3040 3054 3096 3136 3162 3170 3170 3172 3173 3182 3183 3184 3185 3190 3201 3213 3218 3220 3220 3220 3223 3231 3242 3252 3258 3263 3271 3274 3276 3277 3285 3292 3300 3309 3318 3323 3328 3330 3331 3334 3338 3344 3350 3355 3357 3358 3358 3360 3363 3366 3367 3369 3369 3370 3371 3372 3374 3374 3376 3376 3377 3378 3378 3381 3382 3382 3382 3384 3384 3384 3387 3391 3394 3398 3401 3403 3408 3411 3415 3421 3426 3434 3440 3445 3451 3453 3459 3462 3468 3471 3474 3477 3480 3484 3487 3490 3493 3497 3500 3502 3504 3506 3509 3513 3516 3521 3525 3529 3533 3537 3540 3542 3544 3546 3548 3549 3552 3558 3563 3569 3576 3579 3585 3589 3595 3601 3604 3607 3611 3613 3617 3622 3624 3628 3633 3636 3640 3642 3644 3647 3648 3650 3652 3654 3656 3656 3658 3660 3662 3664 3665 3665 3665 3664 3664 3663 3662 3662 3660 3658 3655 3654 3654 3653 3650 3648 3644 3641 3638 3638 3638 3638 3641 3641 3641 3639 3635 3632 3627 3620 3616 3616 3616 3616 3616 3614 3614 3614 3615 3619 3623 3625 3626 3626 3626 3625 3623 3623 3623 3627 3637 3646 3646 3646 3621 3615 3614 3612 3598 3579 3563 3553 3550 3541 3534 3534 3534 3534 3534 3524 3469 3297 3297 3297 3334 3520 3571 3571 3571 3571 3571 3573 3573 3573 3558 3529 3485 3434 3360 3021 2683 0 0 0 2042 2031 2029 2022 2019 2019 2017 2015 2015 2013 2012 2009 2007 2005 2001 1997 1994 1992 1989 1986 1983 1979 1972 1966 1962 1961 1961 1960 1959 1959 1959 1960 1961 1961 1961 1957 1956 1955 1954 1954 1939 1913 1874 1847 1825 1810 1795 1778 1764 1750 1737 1727 1720 1715 1711 1705 1698 1692 1686 1680 1674 1669 1665 1661 1656 1654 1651 1648 1645 1642 1639 1636 1634 1632 1629 1627 1625 1622 1621 1619 1617 1615 1614 1612 1611 1609 1607 1606 1604 1602 1601 1599 1597 1596 1594 1593 1591 1591 1589 1588 1587 1585 1584 1583 1582 1581 1580 1579 1578 1577 1577 1576 1574 1573 1573 1572 1571 1571 1570 1570 1570 1569 1568 1568 1568 1567 1567 1567 1566 1566 1566 1566 1565 1565 1565 1565 1565 1565 1564 1564 1564 1564 1564 1564 1564 1564 1565 1565 1566 1566 1566 1567 1568 1568 1569 1569 1570 1570 1570 1570 1570 1570 1570 1570 1570 1569 1569 1568 1568 1568 1567 1567 1566 1566 1566 1566 1566 1566 1566 1566 1566 1566 1566 1566 1566 1566 1566 1565 1565 1565 1565 1565 1564 1564 1564 1564 1564 1563 1563 1563 1563 1563 1563 1563 1563 1563 1563 1563 1563 1563 1564 1564 1564 1564 1564 1565 1565 1565 1565 1565 1565 1565 1565 1564 1564 1564 1563 1563 1563 1563 1563 1563 1563 1564 1564 1564 1564 1565 1565 1565 1565 1565 1565 1565 1566 1566 1566 1566 1566 1567 1568 1568 1569 1569 1570 1571 1571 1571 1572 1572 1573 1573 1573 1574 1575 1575 1576 1578 1579 1580 1581 1583 1584 1585 1586 1588 1590 1591 1593 1595 1595 1597 1598 1600 1600 1601 1601 1603 1604 1605 1606 1609 1611 1613 1615 1617 1620 1621 1625 1628 1632 1635 1638 1641 1644 1647 1650 1653 1657 1661 1663 1663 1664 1665 1665 1666 1669 1670 1670 1671 1679 1686 1694 1702 1710 1714 1715 1716 1718 1720 1722 1723 1724 1725 1728 1728 1728 1729 1729 1730 1733 1737 1744 1745 1745 1745 1745 1745 1738 1735 1706 0 0 0 0 0 0 0 0 0 0 0 0 0 0 0 0 0 0 0 0 0 0 0 0 0 0 0
2863 2863 2875 2880 2904 2942 2970 2978 2988 3008 3033 3046 3046 3047 3048 3048 3050 3052 3056 3080 3117 3136 3162 3170 3170 3172 3178 3190 3190 3193 3194 3197 3204 3214 3218 3219 3220 3220 3223 3233 3245 3252 3261 3268 3274 3278 3282 3287 3291 3298 3304 3315 3321 3328 3331 3335 3335 3339 3342 3347 3352 3355 3359 3360 3362 3364 3364 3366 3368 3371 3371 3373 3375 3376 3377 3378 3379 3379 3380 3380 3381 3381 3382 3382 3384 3384 3386 3386 3389 3392 3394 3399 3402 3404 3408 3411 3416 3422 3428 3436 3444 3447 3452 3456 3460 3464 3468 3471 3476 3479 3482 3484 3487 3490 3497 3498 3501 3503 3505 3508 3510 3514 3517 3521 3526 3531 3533 3537 3541 3543 3545 3547 3550 3550 3554 3561 3565 3569 3576 3580 3585 3590 3596 3601 3604 3607 3611 3614 3617 3622 3624 3628 3633 3637 3640 3642 3645 3647 3648 3650 3652 3654 3656 3657 3659 3662 3663 3664 3665 3665 3665 3664 3664 3663 3662 3662 3660 3658 3654 3653 3652 3652 3651 3648 3645 3641 3638 3638 3638 3638 3641 3641 3641 3638 3635 3632 3627 3622 3619 3617 3616 3616 3614 3614 3614 3614 3619 3622 3626 3629 3629 3629 3628 3625 3624 3624 3624 3631 3637 3646 3646 3646 3643 3641 3634 3618 3598 3573 3561 3550 3537 3530 3520 3520 3520 3520 3520 3519 3430 3208 3208 3208 3354 3562 3563 3563 3566 3566 3566 3570 3570 3570 3552 3522 3478 3422 3193 2905 2527 0 0 2064 2038 2030 2024 2022 2021 2019 2017 2015 2015 2013 2012 2009 2007 2005 2001 1998 1995 1992 1989 1986 1983 1980 1976 1968 1964 1964 1962 1962 1961 1961 1961 1961 1964 1964 1964 1961 1957 1957 1956 1956 1948 1916 1870 1848 1824 1806 1792 1773 1761 1747 1736 1727 1720 1715 1709 1703 1696 1691 1686 1680 1674 1668 1663 1660 1656 1654 1650 1648 1645 1641 1638 1636 1634 1631 1629 1626 1624 1622 1620 1618 1616 1615 1613 1611 1610 1608 1606 1605 1603 1602 1601 1598 1597 1596 1594 1593 1590 1589 1588 1587 1586 1585 1583 1582 1581 1580 1579 1579 1577 1576 1576 1575 1574 1573 1572 1571 1570 1569 1569 1568 1568 1568 1567 1567 1567 1567 1566 1566 1566 1565 1565 1565 1564 1564 1564 1564 1564 1563 1563 1563 1563 1563 1563 1563 1563 1564 1564 1564 1564 1565 1566 1566 1567 1568 1568 1569 1569 1570 1570 1570 1570 1570 1570 1570 1569 1569 1569 1568 1568 1567 1567 1567 1566 1566 1566 1566 1566 1565 1565 1566 1566 1566 1566 1566 1566 1566 1565 1565 1565 1565 1565 1565 1564 1564 1564 1564 1564 1563 1563 1563 1563 1563 1563 1563 1563 1563 1563 1563 1563 1563 1563 1563 1563 1564 1564 1564 1564 1564 1565 1565 1565 1564 1564 1564 1564 1563 1563 1563 1563 1563 1563 1563 1563 1564 1564 1564 1564 1564 1564 1564 1564 1564 1564 1564 1565 1565 1565 1565 1566 1566 1567 1568 1568 1569 1569 1569 1570 1570 1571 1571 1571 1571 1572 1572 1573 1574 1575 1576 1576 1577 1579 1581 1582 1583 1585 1587 1588 1589 1592 1593 1594 1596 1597 1599 1599 1600 1601 1602 1603 1605 1606 1608 1610 1611 1614 1616 1619 1621 1624 1628 1632 1635 1638 1641 1644 1647 1650 1655 1658 1661 1664 1664 1666 1666 1666 1667 1670 1671 1671 1672 1677 1685 1694 1701 1709 1713 1714 1716 1717 1718 1720 1722 1723 1725 1727 1728 1728 1728 1728 1730 1733 1737 1744 1749 1750 1750 1750 1749 1736 1735 0 0 0 0 0 0 0 0 0 0 0 0 0 0 0 0 0 0 0 0 0 0 0 0 0 0 0 0
2911 2911 2912 2915 2920 2950 2971 2978 2983 3003 3028 3046 3046 3047 3048 3050 3067 3071 3086 3101 3117 3136 3162 3170 3171 3172 3181 3194 3201 3202 3205 3205 3210 3214 3218 3219 3220 3220 3224 3234 3246 3253 3261 3268 3274 3278 3285 3293 3297 3302 3306 3320 3328 3330 3331 3336 3342 3344 3348 3351 3354 3356 3361 3364 3365 3365 3367 3369 3371 3373 3375 3377 3379 3380 3380 3381 3383 3383 3383 3382 3382 3382 3383 3384 3384 3385 3387 3390 3391 3393 3395 3399 3403 3405 3409 3412 3417 3423 3431 3437 3446 3449 3453 3457 3460 3464 3468 3472 3477 3480 3483 3485 3489 3493 3499 3500 3502 3505 3507 3510 3514 3515 3517 3521 3526 3531 3534 3537 3541 3544 3547 3549 3551 3551 3556 3562 3567 3571 3577 3582 3586 3591 3598 3601 3605 3607 3611 3614 3618 3622 3625 3628 3633 3637 3640 3642 3644 3647 3648 3650 3652 3654 3656 3658 3660 3662 3663 3664 3665 3665 3665 3664 3664 3663 3662 3662 3660 3657 3654 3652 3652 3652 3651 3648 3645 3641 3638 3638 3638 3638 3641 3641 3641 3638 3634 3631 3627 3624 3620 3618 3616 3615 3614 3614 3614 3616 3620 3624 3627 3632 3632 3632 3631 3630 3628 3628 3628 3632 3639 3646 3646 3646 3643 3641 3634 3622 3598 3573 3561 3550 3536 3530 3517 3516 3516 3510 3510 3507 3383 3169 3169 3169 3376 3574 3574 3574 3559 3559 3559 3560 3560 3560 3543 3508 3460 3342 3127 2685 0 0 0 2056 2036 2030 2024 2022 2022 2020 2017 2015 2015 2013 2011 2009 2007 2005 2001 1998 1995 1991 1989 1986 1983 1980 1976 1970 1967 1965 1964 1963 1963 1963 1963 1964 1965 1965 1965 1963 1959 1959 1959 1958 1952 1916 1870 1848 1824 1804 1786 1765 1754 1747 1736 1727 1720 1715 1709 1702 1696 1691 1685 1678 1672 1666 1663 1660 1656 1653 1650 1646 1644 1641 1638 1636 1633 1631 1628 1626 1624 1621 1619 1618 1616 1615 1613 1611 1609 1608 1606 1604 1602 1601 1599 1598 1596 1595 1593 1591 1590 1589 1588 1587 1586 1585 1583 1581 1581 1580 1579 1577 1577 1576 1575 1574 1573 1572 1571 1570 1569 1569 1568 1568 1567 1566 1566 1566 1566 1565 1565 1565 1565 1564 1564 1564 1563 1563 1563 1563 1563 1562 1562 1562 1562 1562 1562 1563 1563 1563 1563 1563 1564 1564 1565 1566 1567 1568 1568 1569 1569 1569 1570 1570 1570 1570 1570 1570 1569 1569 1569 1568 1568 1567 1567 1566 1566 1566 1566 1566 1565 1565 1565 1566 1566 1566 1566 1566 1566 1565 1565 1565 1565 1565 1565 1565 1564 1564 1564 1564 1563 1563 1563 1563 1563 1562 1562 1562 1562 1562 1562 1562 1562 1562 1562 1563 1563 1563 1563 1564 1564 1564 1564 1564 1564 1564 1564 1563 1563 1563 1562 1562 1562 1562 1562 1563 1563 1563 1563 1563 1563 1564 1563 1563 1563 1563 1563 1564 1564 1564 1564 1565 1565 1566 1567 1567 1568 1568 1569 1569 1569 1569 1570 1570 1570 1571 1571 1571 1572 1573 1573 1574 1575 1576 1578 1579 1581 1582 1583 1584 1587 1589 1590 1592 1593 1595 1597 1598 1599 1600 1600 1601 1603 1604 1606 1607 1609 1611 1612 1615 1618 1621 1624 1627 1632 1635 1638 1641 1644 1647 1652 1656 1659 1662 1665 1666 1667 1668 1669 1669 1670 1671 1671 1675 1678 1685 1694 1701 1708 1712 1714 1716 1717 1718 1720 1722 1723 1724 1726 1727 1727 1728 1728 1730 1732 1736 1741 1749 1752 1755 1755 1755 1740 1736 0 0 0 0 0 0 0 0 0 0 0 0 0 0 0 0 0 0 0 0 0 0 0 0 0 0 0 0
2949 2950 2949 2950 2950 2960 2972 2982 2988 3008 3028 3046 3047 3048 3053 3059 3067 3071 3086 3110 3124 3136 3150 3160 3165 3171 3183 3194 3201 3205 3211 3212 3212 3219 3219 3221 3223 3223 3228 3238 3246 3254 3261 3268 3274 3281 3285 3293 3299 3306 3316 3322 3329 3331 3334 3337 3345 3347 3350 3353 3356 3358 3361 3365 3366 3366 3368 3372 3374 3376 3379 3382 3384 3385 3385 3385 3385 3385 3385 3385 3384 3384 3384 3384 3385 3387 3388 3390 3392 3395 3397 3401 3405 3408 3411 3416 3422 3432 3435 3439 3447 3449 3454 3457 3461 3465 3469 3474 3478 3481 3483 3485 3489 3494 3499 3501 3502 3506 3509 3513 3516 3517 3517 3522 3527 3532 3534 3537 3541 3545 3547 3551 3552 3554 3558 3565 3570 3577 3582 3585 3589 3594 3598 3602 3605 3608 3611 3614 3618 3622 3625 3628 3633 3637 3640 3642 3644 3647 3649 3651 3652 3654 3656 3658 3661 3662 3663 3663 3664 3664 3664 3664 3663 3663 3663 3662 3660 3657 3654 3652 3651 3651 3651 3647 3645 3641 3637 3637 3637 3638 3640 3640 3640 3638 3634 3631 3627 3624 3621 3621 3617 3615 3615 3615 3615 3617 3621 3624 3627 3632 3632 3632 3631 3630 3630 3630 3630 3639 3640 3644 3644 3644 3643 3641 3634 3623 3599 3573 3563 3541 3535 3529 3517 3502 3502 3499 3494 3481 3335 3172 3172 3172 3391 3574 3574 3574 3558 3540 3540 3540 3538 3538 3515 3462 3390 3224 2950 0 0 0 2046 2043 2036 2027 2024 2023 2023 2020 2017 2015 2014 2013 2011 2009 2006 2004 2002 1999 1995 1991 1989 1986 1982 1980 1976 1971 1967 1966 1964 1964 1964 1964 1964 1964 1966 1966 1966 1966 1964 1963 1963 1961 1952 1916 1870 1849 1823 1800 1781 1761 1753 1745 1736 1727 1721 1715 1709 1702 1696 1691 1684 1678 1671 1666 1663 1660 1655 1652 1649 1646 1643 1640 1637 1635 1632 1630 1628 1626 1623 1621 1619 1617 1616 1614 1613 1611 1609 1607 1605 1604 1602 1600 1599 1598 1596 1594 1593 1591 1590 1588 1588 1586 1585 1583 1582 1581 1580 1579 1578 1577 1576 1575 1574 1573 1572 1571 1571 1569 1569 1568 1567 1567 1566 1565 1565 1565 1565 1565 1564 1564 1564 1563 1563 1563 1563 1562 1562 1562 1562 1562 1562 1562 1562 1562 1562 1562 1562 1563 1563 1563 1564 1564 1564 1565 1567 1567 1567 1568 1568 1569 1570 1570 1570 1569 1569 1569 1569 1568 1568 1567 1567 1567 1566 1566 1566 1566 1565 1565 1565 1565 1565 1565 1565 1565 1566 1566 1565 1565 1565 1565 1565 1564 1564 1564 1564 1564 1564 1563 1563 1563 1563 1562 1562 1562 1562 1562 1562 1562 1562 1562 1562 1562 1562 1562 1563 1563 1563 1564 1564 1564 1564 1564 1564 1563 1563 1563 1562 1562 1562 1561 1561 1561 1562 1562 1562 1562 1563 1563 1563 1563 1563 1563 1563 1563 1563 1563 1564 1564 1564 1564 1565 1566 1566 1566 1567 1567 1568 1568 1568 1569 1569 1569 1570 1570 1570 1571 1571 1572 1572 1573 1573 1574 1576 1578 1579 1581 1582 1584 1586 1588 1589 1591 1593 1595 1596 1597 1598 1599 1599 1600 1602 1603 1605 1607 1608 1611 1612 1614 1618 1621 1623 1627 1632 1634 1637 1640 1644 1648 1652 1656 1659 1663 1667 1668 1669 1670 1671 1672 1672 1673 1673 1676 1679 1685 1692 1701 1707 1710 1713 1716 1717 1718 1720 1722 1723 1723 1726 1726 1726 1726 1726 1726 1730 1734 1741 1749 1754 1759 1759 1759 1740 1736 0 0 0 0 0 0 0 0 0 0 0 0 0 0 0 0 0 0 0 0 0 0 0 0 0 0 0 0
2957 2960 2960 2960 2964 2966 2982 2983 2990 3008 3028 3039 3048 3059 3060 3065 3070 3072 3086 3121 3136 3137 3142 3153 3164 3170 3183 3194 3201 3205 3212 3212 3219 3219 3221 3225 3227 3229 3235 3242 3249 3255 3260 3266 3272 3281 3285 3294 3301 3310 3320 3327 3330 3332 3334 3339 3348 3348 3350 3353 3356 3358 3361 3365 3368 3369 3371 3373 3377 3380 3383 3386 3388 3388 3389 3388 3388 3388 3388 3388 3387 3386 3386 3386 3389 3389 3391 3392 3394 3396 3398 3402 3407 3409 3414 3418 3426 3432 3437 3442 3448 3451 3454 3457 3461 3466 3469 3474 3478 3481 3483 3485 3489 3494 3499 3501 3503 3506 3510 3513 3518 3519 3520 3524 3528 3532 3535 3539 3541 3546 3550 3553 3557 3561 3563 3569 3574 3580 3585 3590 3593 3596 3599 3602 3605 3608 3612 3615 3618 3622 3625 3628 3632 3636 3638 3642 3644 3647 3649 3651 3653 3654 3656 3659 3661 3661 3662 3662 3663 3663 3663 3663 3663 3663 3663 3662 3660 3657 3653 3651 3651 3650 3649 3647 3642 3638 3636 3636 3636 3638 3638 3638 3637 3636 3634 3631 3627 3625 3623 3622 3618 3616 3616 3616 3616 3618 3621 3624 3627 3632 3632 3632 3631 3630 3630 3630 3637 3638 3638 3637 3635 3634 3634 3630 3628 3623 3599 3573 3563 3541 3534 3516 3502 3494 3477 3473 3469 3440 3243 3243 3243 3277 3519 3574 3574 3574 3550 3526 3521 3517 3508 3491 3458 3422 3347 3048 0 0 0 0 2045 2040 2034 2027 2025 2024 2023 2021 2017 2015 2014 2013 2011 2009 2006 2004 2002 1999 1996 1991 1989 1985 1982 1980 1976 1971 1968 1967 1965 1965 1965 1965 1965 1966 1968 1969 1969 1969 1968 1967 1967 1961 1952 1910 1870 1849 1822 1797 1774 1761 1753 1745 1735 1730 1724 1718 1710 1702 1696 1690 1684 1677 1671 1666 1663 1659 1655 1652 1648 1645 1642 1640 1637 1635 1632 1630 1628 1626 1623 1621 1619 1617 1616 1614 1612 1610 1608 1607 1605 1603 1601 1600 1598 1597 1595 1594 1592 1591 1589 1588 1587 1586 1584 1582 1582 1580 1579 1579 1577 1577 1576 1575 1574 1573 1572 1570 1570 1568 1568 1567 1567 1565 1565 1564 1564 1563 1563 1563 1563 1562 1562 1562 1562 1562 1562 1562 1562 1562 1562 1561 1561 1561 1561 1561 1561 1561 1562 1562 1563 1563 1564 1564 1564 1565 1565 1566 1567 1568 1568 1568 1569 1569 1569 1569 1569 1569 1569 1568 1568 1567 1567 1567 1566 1565 1565 1565 1565 1565 1565 1565 1565 1565 1565 1565 1565 1565 1565 1565 1564 1564 1564 1564 1564 1564 1564 1564 1563 1563 1563 1563 1562 1562 1562 1562 1561 1561 1561 1561 1561 1561 1562 1562 1562 1562 1562 1562 1563 1563 1563 1563 1563 1563 1563 1563 1562 1562 1562 1562 1562 1561 1561 1561 1561 1561 1562 1562 1562 1563 1563 1563 1563 1563 1563 1563 1563 1563 1563 1563 1563 1564 1564 1564 1565 1566 1566 1567 1567 1567 1568 1568 1569 1569 1569 1569 1569 1570 1570 1571 1571 1572 1572 1574 1575 1576 1578 1579 1581 1583 1585 1586 1589 1591 1592 1594 1595 1596 1597 1598 1599 1599 1602 1603 1605 1606 1608 1610 1612 1613 1617 1621 1623 1626 1630 1634 1636 1640 1644 1649 1653 1657 1660 1664 1669 1670 1670 1671 1672 1674 1675 1676 1676 1676 1679 1685 1693 1700 1707 1710 1713 1717 1719 1720 1720 1722 1722 1723 1725 1725 1725 1725 1725 1725 1728 1734 1741 1749 1754 1760 1760 1760 1746 1736 0 0 0 0 0 0 0 0 0 0 0 0 0 0 0 0 0 0 0 0 0 0 0 0 0 0 0 0
