3070 3070 3089 3103 3120 3142 3170 3173 3173 3173 3161 3157 3157 3161 3177 3206 3220 3222 3228 3228 3229 3229 3229 3232 3235 3241 3245 3248 3250 3254 3258 3271 3277 3280 3282 3288 3292 3296 3301 3303 3308 3311 3312 3315 3323 3326 3330 3332 3335 3337 3339 3343 3348 3350 3353 3356 3359 3362 3365 3369 3373 3379 3385 3391 3396 3403 3407 3411 3413 3416 3419 3423 3423 3424 3424 3427 3431 3435 3439 3442 3445 3446 3449 3449 3450 3450 3451 3452 3452 3452 3451 3449 3449 3449 3450 3451 3453 3456 3459 3461 3463 3464 3465 3466 3468 3471 3471 3473 3474 3477 3479 3481 3483 3485 3488 3492 3494 3498 3500 3504 3508 3513 3517 3521 3525 3528 3531 3534 3538 3544 3548 3553 3558 3562 3567 3569 3572 3574 3580 3584 3587 3589 3594 3598 3603 3607 3611 3617 3622 3628 3631 3634 3635 3639 3645 3648 3652 3654 3658 3661 3663 3668 3672 3675 3677 3679 3680 3682 3683 3683 3683 3684 3688 3688 3688 3691 3694 3697 3702 3708 3713 3717 3718 3719 3720 3720 3725 3728 3733 3737 3740 3743 3745 3749 3754 3765 3770 3778 3783 3788 3792 3795 3798 3801 3806 3810 3815 3818 3821 3824 3826 3829 3832 3835 3838 3841 3842 3844 3845 3848 3852 3857 3859 3859 3860 3862 3868 3872 3875 3877 3877 3882 3886 3893 3897 3900 3900 3901 3903 3903 3904 3907 3910 3913 3915 3916 3916 3916 3917 3918 3918 3918 3918 3918 3920 3922 3924 3927 3930 3931 3933 3936 3944 3951 3957 3961 3966 3971 3977 3980 3983 3986 3994 3998 4000 4001 4002 4005 4006 4007 4007 4008 4008 4009 4011 4012 4012 4012 4012 4013 4014 4015 4015 4015 4013 4011 4009 4009 4008 4006 4004 4003 4003 4002 4002 4002 4002 4002 4002 4001 4001 4001 4001 4001 4001 3996 3992 3988 3985 3981 3974 3969 3966 3964 3961 3949 3932 3930 3929 3928 3922 3916 3908 3898 3890 3875 3812 3220 2679 0 0 0 0 0 1746 1746 1746 1758 1758 1758 1746 1740 1733 1729 1722 1711 1704 1704 1704 1704 1704 1704 1703 1702 1701 1698 1694 1690 1688 1687 1684 1681 1679 1674 1673 1671 1669 1668 1668 1667 1666 1665 1663 1661 1659 1658 1656 1650 1648 1645 1643 1639 1637 1637 1636 1634 1633 1632 1630 1627 1625 1623 1621 1620 1617 1615 1614 1612 1610 1608 1607 1606 1603 1602 1602 1600 1599 1596 1595 1593 1591 1588 1585 1583 1581 1578 1577 1573 1568 1564 1561 1558 1556 1555 1555 1551 1547 1545 1543 1542 1540 1539 1537 1535 1532 1532 1530 1528 1527 1526 1523 1522 1521 1519 1518 1516 1515 1512 1508 1503 1500 1498 1497 1496 1494 1492 1490 1489 1487 1486 1486 1485 1485 1485 1484 1483 1481 1480 1480 1479 1478 1476 1476 1473 1472 1469 1467 1465 1463 1462 1460 1459 1458 1456 1455 1453 1451 1450 1448 1446 1444 1443 1441 1439 1438 1437 1436 1433 1431 1429 1428 1427 1426 1424 1422 1421 1421 1419 1418 1417 1416 1415 1414 1413 1412 1410 1409 1407 1406 1405 1404 1403 1401 1399 1398 1397 1395 1394 1392 1391 1390 1388 1387 1387 1386 1385 1385 1384 1383 1383 1383 1385 1387 1392 0 0 0 0 0 1897 1973 1982 1984 1984 1985 1985 1987 1989 1989 1989 1989 1989 1988 1988 1988 1986 1985 1984 1983 1982 1981 1980 1978 1976 1975 1973 1971 1970 1969 1969 1968 1968 1968 1967 1966 1966 1966 1966 1966 1966 1966 1966 1967 1967 1967 1969 1969 1969 1969 1969 1969 1969 1969 1969 1969 1969 1969 1968 1968 1968 1968 1969 1969 1969 1968 1968 1968 1969 1970 1970 1970 1970 1970 1972 1974 1976 1980 1980 1982 0
3070 3070 3089 3103 3116 3142 3169 3169 3169 3162 3157 3157 3157 3168 3180 3219 3224 3224 3228 3228 3230 3230 3230 3233 3238 3241 3245 3248 3250 3254 3261 3271 3280 3283 3285 3291 3292 3296 3298 3303 3308 3311 3312 3315 3320 3326 3332 3335 3335 3336 3339 3341 3345 3349 3352 3356 3359 3365 3368 3369 3374 3379 3387 3395 3400 3404 3407 3413 3414 3417 3421 3424 3425 3428 3430 3431 3434 3437 3441 3444 3447 3449 3450 3451 3451 3452 3452 3453 3453 3453 3453 3452 3452 3452 3452 3452 3455 3457 3462 3464 3465 3466 3466 3467 3469 3471 3473 3475 3476 3477 3480 3481 3483 3486 3489 3492 3495 3498 3501 3505 3510 3514 3517 3522 3526 3528 3531 3535 3539 3545 3550 3555 3560 3564 3568 3570 3574 3576 3580 3585 3589 3593 3595 3601 3604 3607 3612 3617 3622 3628 3631 3634 3636 3640 3645 3649 3652 3655 3659 3662 3665 3669 3672 3677 3679 3680 3680 3683 3685 3686 3686 3688 3691 3692 3692 3692 3696 3701 3708 3713 3716 3719 3724 3724 3726 3726 3728 3730 3733 3738 3742 3745 3748 3752 3759 3766 3772 3779 3784 3789 3794 3797 3798 3801 3806 3810 3815 3818 3821 3824 3827 3829 3831 3835 3838 3841 3843 3845 3846 3850 3854 3858 3861 3862 3862 3864 3870 3875 3878 3879 3881 3884 3890 3895 3899 3900 3900 3901 3905 3905 3907 3909 3912 3915 3918 3919 3920 3920 3920 3920 3919 3919 3919 3921 3923 3926 3928 3930 3934 3936 3937 3940 3947 3954 3959 3966 3969 3975 3981 3985 3987 3990 3996 3999 4002 4002 4005 4006 4008 4008 4009 4009 4009 4011 4013 4014 4014 4014 4015 4015 4016 4016 4016 4016 4015 4012 4010 4009 4008 4006 4004 4004 4004 4003 4003 4003 4002 4002 4002 4002 4002 4002 4002 4002 4002 3996 3990 3985 3981 3977 3970 3967 3963 3960 3955 3947 3932 3922 3921 3921 3915 3908 3896 3886 3858 3827 3323 2764 0 0 0 0 1735 1727 1727 1735 1744 1744 1744 1741 1739 1737 1732 1723 1716 1713 1712 1712 1711 1711 1709 1704 1704 1702 1701 1696 1694 1692 1689 1688 1684 1681 1679 1674 1674 1673 1672 1671 1669 1668 1666 1665 1663 1661 1659 1658 1655 1650 1648 1645 1642 1637 1636 1635 1635 1633 1631 1631 1628 1627 1624 1622 1620 1619 1617 1615 1613 1611 1610 1608 1606 1605 1603 1602 1600 1599 1598 1596 1595 1593 1590 1588 1585 1583 1580 1579 1578 1575 1568 1564 1561 1558 1556 1555 1555 1551 1547 1545 1544 1542 1541 1539 1537 1535 1534 1532 1531 1528 1527 1524 1522 1521 1521 1519 1517 1515 1513 1510 1508 1503 1499 1497 1496 1495 1493 1491 1488 1486 1486 1484 1484 1484 1483 1483 1482 1482 1481 1479 1479 1478 1477 1475 1473 1472 1470 1469 1466 1464 1463 1461 1460 1459 1457 1456 1454 1452 1450 1448 1447 1446 1444 1441 1439 1438 1438 1437 1436 1433 1431 1429 1427 1427 1425 1423 1422 1421 1421 1419 1418 1417 1416 1415 1413 1413 1412 1410 1409 1407 1406 1405 1404 1403 1401 1399 1398 1397 1395 1394 1392 1391 1390 1388 1387 1386 1385 1384 1384 1383 1383 1382 1382 1382 1384 1390 0 0 0 0 0 0 1972 1984 1985 1985 1985 1986 1987 1989 1989 1989 1988 1988 1988 1988 1987 1986 1985 1983 1983 1982 1981 1980 1978 1976 1974 1973 1970 1968 1968 1967 1967 1967 1967 1967 1965 1965 1965 1964 1964 1964 1965 1965 1966 1966 1967 1967 1967 1968 1968 1968 1968 1968 1968 1968 1968 1968 1968 1967 1967 1967 1967 1969 1969 1969 1967 1967 1967 1968 1968 1968 1968 1968 1968 1968 1968 1970 1978 1978 1979 0
3084 3084 3089 3102 3110 3135 3157 3158 3158 3157 3157 3158 3159 3168 3180 3219 3224 3224 3224 3226 3226 3226 3226 3233 3238 3241 3245 3248 3250 3254 3261 3271 3285 3285 3291 3292 3292 3296 3298 3303 3308 3311 3312 3314 3320 3326 3332 3335 3335 3336 3339 3341 3343 3346 3351 3355 3360 3366 3369 3371 3374 3379 3387 3395 3400 3405 3409 3413 3417 3419 3422 3424 3427 3431 3434 3435 3437 3440 3442 3446 3449 3451 3452 3453 3453 3454 3455 3455 3455 3454 3454 3454 3453 3453 3454 3454 3457 3458 3462 3464 3465 3466 3466 3467 3470 3471 3473 3475 3477 3479 3481 3483 3484 3486 3489 3493 3495 3499 3502 3505 3510 3514 3517 3522 3526 3528 3532 3537 3541 3547 3553 3558 3563 3567 3568 3571 3574 3577 3581 3587 3590 3593 3598 3601 3604 3608 3613 3618 3624 3628 3632 3635 3638 3641 3646 3649 3652 3655 3659 3664 3668 3671 3675 3678 3680 3680 3682 3683 3685 3687 3688 3689 3692 3695 3697 3698 3703 3709 3715 3719 3720 3721 3726 3730 3731 3732 3732 3733 3735 3739 3743 3747 3751 3755 3761 3768 3773 3780 3787 3791 3796 3800 3803 3805 3808 3810 3815 3818 3822 3824 3827 3829 3831 3835 3838 3841 3843 3845 3848 3850 3854 3858 3861 3863 3863 3866 3872 3876 3880 3882 3885 3888 3892 3896 3899 3901 3902 3904 3908 3909 3911 3913 3916 3918 3921 3923 3923 3923 3922 3921 3921 3921 3922 3923 3926 3929 3931 3933 3935 3937 3941 3943 3947 3955 3961 3969 3974 3980 3983 3987 3991 3994 3998 4002 4002 4004 4006 4008 4010 4010 4011 4011 4011 4012 4014 4015 4015 4015 4016 4017 4018 4018 4018 4018 4017 4016 4013 4010 4008 4006 4004 4004 4004 4004 4004 4004 4004 4004 4004 4005 4006 4006 4006 4006 4003 3996 3990 3985 3981 3977 3970 3967 3963 3958 3954 3946 3929 3920 3916 3912 3907 3897 3888 3860 3808 3765 2954 2460 0 0 0 1739 1735 1727 1727 1735 1739 1741 1741 1741 1739 1737 1732 1729 1722 1722 1718 1717 1717 1717 1710 1706 1704 1703 1703 1698 1694 1692 1690 1689 1684 1681 1679 1676 1674 1673 1672 1671 1670 1668 1667 1665 1663 1661 1659 1657 1654 1649 1647 1645 1641 1637 1634 1633 1633 1632 1631 1630 1628 1624 1623 1621 1620 1619 1616 1614 1613 1611 1610 1608 1606 1604 1603 1601 1600 1598 1597 1595 1594 1593 1590 1588 1585 1582 1580 1579 1578 1575 1569 1564 1562 1558 1556 1555 1555 1551 1548 1546 1544 1543 1541 1540 1537 1535 1534 1533 1531 1529 1527 1524 1522 1521 1520 1517 1514 1512 1510 1507 1504 1500 1496 1495 1495 1495 1491 1489 1487 1486 1485 1484 1484 1484 1483 1481 1480 1479 1479 1478 1478 1476 1475 1474 1473 1470 1469 1467 1466 1463 1462 1461 1459 1457 1457 1455 1452 1450 1449 1447 1446 1444 1443 1441 1438 1437 1436 1436 1434 1433 1430 1429 1427 1426 1424 1423 1422 1421 1420 1419 1418 1417 1416 1414 1413 1412 1411 1410 1409 1407 1406 1405 1403 1403 1401 1399 1398 1397 1395 1394 1392 1391 1390 1388 1387 1385 1384 1382 1382 1381 1381 1381 1382 1382 1382 1384 1392 0 0 0 0 0 1958 1983 1985 1985 1985 1985 1987 1987 1988 1988 1988 1988 1987 1987 1987 1986 1985 1983 1982 1982 1980 1979 1977 1976 1974 1972 1969 1967 1966 1966 1966 1965 1965 1965 1964 1964 1963 1963 1963 1963 1964 1965 1965 1966 1966 1966 1966 1967 1967 1966 1966 1967 1967 1967 1967 1967 1967 1967 1967 1967 1967 1968 1968 1968 1967 1967 1967 1967 1968 1968 1968 1967 1967 1966 1967 1967 1968 1968 1973 0
3088 3088 3091 3102 3104 3121 3145 3145 3147 3147 3147 3155 3159 3168 3177 3219 3219 3219 3220 3221 3221 3224 3226 3233 3236 3236 3238 3239 3239 3248 3261 3271 3285 3285 3291 3292 3292 3295 3298 3303 3309 3312 3312 3313 3319 3326 3332 3335 3335 3336 3339 3341 3342 3346 3349 3354 3360 3366 3371 3372 3374 3379 3388 3395 3400 3405 3409 3413 3417 3421 3423 3425 3427 3432 3434 3437 3439 3440 3442 3446 3449 3452 3455 3455 3456 3456 3456 3456 3456 3456 3456 3457 3457 3457 3457 3457 3459 3461 3462 3464 3465 3466 3467 3468 3470 3471 3474 3475 3478 3479 3481 3483 3486 3488 3491 3493 3497 3502 3504 3505 3510 3514 3517 3522 3526 3529 3534 3538 3544 3548 3553 3558 3563 3567 3570 3572 3574 3578 3582 3587 3590 3595 3599 3602 3604 3609 3614 3620 3624 3628 3632 3636 3639 3643 3647 3649 3652 3656 3660 3666 3671 3674 3677 3679 3681 3681 3682 3684 3686 3688 3689 3693 3694 3697 3700 3704 3709 3714 3720 3724 3724 3727 3731 3733 3736 3737 3737 3737 3739 3742 3745 3747 3752 3759 3765 3772 3777 3783 3789 3792 3796 3800 3803 3806 3808 3811 3815 3818 3822 3824 3827 3829 3831 3833 3838 3840 3843 3845 3848 3850 3854 3858 3861 3864 3866 3869 3873 3877 3880 3885 3889 3893 3897 3899 3900 3901 3904 3908 3911 3913 3914 3917 3919 3922 3924 3926 3926 3926 3926 3925 3925 3925 3925 3927 3929 3931 3933 3937 3938 3940 3941 3945 3949 3956 3963 3972 3979 3982 3986 3991 3995 3999 4003 4004 4006 4008 4009 4011 4011 4011 4012 4012 4013 4014 4015 4016 4016 4017 4017 4019 4019 4020 4020 4020 4019 4018 4016 4012 4010 4007 4005 4005 4005 4004 4004 4004 4004 4004 4005 4005 4006 4006 4006 4006 4003 3996 3990 3985 3981 3977 3970 3967 3963 3958 3954 3943 3929 3918 3910 3907 3905 3891 3866 3845 3801 3761 2724 2196 0 0 1759 1739 1739 1739 1739 1740 1740 1739 1739 1739 1736 1734 1732 1728 1728 1722 1722 1720 1719 1717 1711 1708 1705 1705 1704 1698 1694 1694 1692 1690 1687 1683 1680 1677 1675 1674 1672 1672 1670 1669 1667 1665 1663 1661 1660 1657 1654 1649 1647 1644 1641 1636 1634 1633 1632 1630 1630 1629 1627 1624 1621 1620 1619 1618 1615 1614 1611 1611 1609 1607 1605 1603 1602 1600 1599 1597 1596 1594 1593 1592 1590 1588 1584 1582 1580 1578 1578 1575 1569 1569 1567 1562 1559 1557 1555 1551 1548 1546 1546 1545 1543 1541 1538 1536 1535 1534 1531 1529 1526 1524 1522 1521 1517 1517 1512 1508 1507 1504 1501 1498 1495 1494 1494 1492 1490 1487 1486 1486 1485 1484 1484 1483 1482 1480 1479 1478 1478 1478 1477 1476 1475 1473 1471 1469 1468 1467 1465 1463 1462 1461 1459 1456 1454 1451 1450 1449 1447 1446 1445 1444 1442 1440 1438 1436 1436 1435 1432 1431 1430 1428 1427 1425 1424 1422 1422 1420 1419 1418 1418 1417 1416 1414 1413 1412 1411 1410 1409 1407 1406 1405 1403 1402 1401 1399 1397 1396 1395 1393 1392 1391 1389 1388 1386 1385 1384 1382 1381 1380 1380 1380 1381 1381 1382 1383 1388 0 0 0 0 0 1901 1972 1983 1984 1985 1985 1986 1986 1988 1988 1988 1987 1987 1987 1986 1986 1984 1983 1982 1981 1980 1979 1977 1976 1974 1972 1969 1966 1965 1963 1963 1963 1963 1963 1963 1962 1962 1962 1962 1963 1963 1964 1964 1965 1965 1965 1965 1966 1966 1966 1966 1966 1966 1967 1967 1967 1967 1966 1966 1966 1967 1967 1967 1967 1967 1967 1967 1967 1967 1967 1966 1966 1966 1966 1964 1964 1964 1964 1965 0
3088 3088 3093 3104 3104 3121 3141 3143 3145 3145 3145 3155 3157 3163 3176 3190 3201 3210 3210 3210 3210 3210 3219 3219 3219 3220 3219 3219 3221 3227 3239 3265 3282 3282 3285 3288 3288 3293 3298 3309 3313 3314 3318 3318 3319 3326 3332 3332 3335 3336 3341 3342 3342 3346 3349 3354 3361 3367 3372 3374 3378 3383 3389 3395 3400 3405 3409 3413 3418 3423 3424 3427 3429 3433 3436 3439 3439 3440 3442 3448 3451 3453 3456 3457 3457 3457 3458 3458 3459 3459 3459 3460 3460 3460 3459 3459 3459 3461 3463 3464 3465 3466 3468 3468 3470 3471 3474 3476 3478 3481 3484 3487 3489 3490 3492 3496 3501 3504 3506 3506 3510 3514 3517 3523 3529 3535 3536 3540 3544 3548 3553 3559 3564 3568 3570 3572 3575 3578 3583 3588 3592 3596 3600 3604 3607 3610 3615 3620 3625 3629 3632 3636 3640 3643 3649 3653 3655 3658 3665 3671 3675 3679 3679 3681 3681 3683 3683 3685 3688 3691 3694 3695 3697 3700 3703 3709 3715 3720 3724 3726 3728 3730 3734 3738 3740 3742 3743 3744 3744 3746 3747 3750 3757 3762 3770 3777 3783 3787 3790 3794 3796 3800 3803 3806 3809 3812 3815 3818 3821 3824 3827 3829 3831 3833 3837 3840 3843 3846 3848 3850 3854 3858 3861 3865 3868 3871 3873 3877 3880 3885 3893 3897 3901 3902 3904 3906 3909 3911 3915 3915 3916 3918 3923 3926 3928 3930 3931 3931 3931 3930 3929 3929 3930 3930 3932 3933 3935 3939 3941 3942 3946 3952 3955 3958 3964 3973 3981 3986 3991 3993 3996 4002 4005 4007 4008 4011 4013 4013 4013 4013 4013 4013 4015 4016 4017 4017 4018 4018 4019 4020 4021 4022 4022 4022 4021 4018 4016 4013 4011 4008 4006 4006 4005 4005 4005 4004 4004 4004 4005 4006 4006 4006 4006 4006 4003 3997 3992 3989 3986 3980 3976 3969 3961 3956 3953 3943 3929 3918 3910 3907 3905 3890 3858 3826 3780 3050 0 0 0 1786 1759 1746 1746 1746 1746 1749 1749 1739 1739 1739 1737 1736 1733 1731 1728 1725 1724 1722 1721 1719 1714 1709 1705 1705 1703 1701 1697 1694 1693 1690 1687 1684 1680 1678 1676 1674 1672 1672 1671 1669 1666 1665 1663 1661 1660 1657 1653 1649 1647 1644 1641 1636 1634 1633 1632 1630 1629 1628 1627 1624 1621 1620 1619 1617 1615 1613 1611 1610 1609 1606 1604 1603 1601 1600 1598 1596 1595 1594 1592 1590 1589 1586 1584 1582 1579 1578 1576 1573 1570 1570 1567 1563 1560 1559 1555 1552 1549 1547 1547 1545 1543 1542 1539 1537 1536 1534 1531 1529 1526 1524 1522 1521 1517 1513 1510 1507 1505 1503 1499 1496 1494 1494 1494 1491 1488 1486 1486 1485 1484 1484 1483 1482 1482 1480 1479 1478 1477 1477 1476 1475 1474 1471 1469 1467 1466 1464 1462 1460 1460 1459 1457 1454 1451 1449 1445 1443 1442 1442 1442 1442 1440 1438 1438 1436 1436 1433 1432 1431 1430 1428 1426 1425 1424 1422 1420 1419 1418 1418 1418 1417 1415 1414 1412 1412 1411 1410 1409 1407 1406 1405 1403 1402 1400 1398 1397 1395 1395 1393 1392 1391 1389 1387 1385 1385 1383 1382 1381 1380 1380 1380 1380 1380 1381 1382 1388 1401 0 0 0 0 0 0 1980 1983 1983 1985 1986 1986 1987 1987 1987 1986 1986 1986 1986 1986 1984 1983 1982 1981 1980 1979 1977 1976 1974 1971 1968 1965 1964 1963 1961 1961 1960 1960 1960 1960 1960 1961 1961 1962 1962 1963 1963 1963 1964 1964 1964 1965 1965 1965 1965 1965 1965 1966 1966 1966 1966 1966 1966 1966 1967 1967 1967 1967 1967 1966 1965 1965 1965 1965 1965 1965 1964 1963 1962 1962 1962 1962 1965 0
3088 3088 3100 3104 3121 3123 3138 3140 3143 3143 3143 3154 3157 3160 3167 3175 3201 3202 3202 3202 3202 3208 3208 3212 3212 3212 3207 3207 3207 3215 3227 3238 3246 3247 3254 3280 3288 3296 3298 3309 3313 3314 3318 3318 3319 3326 3332 3332 3335 3336 3341 3342 3342 3343 3348 3354 3361 3367 3372 3377 3381 3386 3390 3395 3399 3405 3409 3414 3418 3423 3424 3427 3431 3434 3439 3440 3440 3442 3445 3451 3454 3455 3457 3459 3459 3459 3461 3461 3461 3461 3462 3462 3462 3461 3460 3460 3460 3462 3463 3464 3465 3466 3469 3471 3472 3474 3477 3478 3479 3482 3485 3488 3491 3491 3494 3498 3501 3504 3506 3508 3511 3515 3518 3524 3531 3535 3537 3540 3544 3548 3553 3559 3564 3568 3570 3573 3576 3580 3583 3590 3593 3597 3601 3605 3608 3613 3617 3621 3626 3630 3632 3636 3640 3644 3650 3655 3660 3662 3667 3673 3679 3682 3682 3683 3683 3683 3684 3686 3690 3692 3696 3699 3700 3701 3705 3711 3716 3722 3726 3727 3730 3733 3737 3740 3743 3745 3746 3748 3749 3749 3751 3754 3761 3765 3772 3781 3785 3789 3792 3794 3797 3800 3803 3806 3808 3812 3815 3818 3821 3824 3827 3829 3830 3833 3837 3840 3843 3846 3849 3850 3854 3858 3861 3866 3870 3872 3874 3877 3880 3887 3895 3899 3902 3905 3907 3909 3911 3913 3915 3918 3920 3922 3928 3930 3932 3933 3934 3934 3934 3934 3933 3933 3933 3933 3934 3936 3938 3942 3945 3948 3953 3955 3955 3958 3964 3973 3982 3987 3991 3993 3996 4002 4007 4009 4010 4011 4013 4014 4014 4015 4016 4017 4017 4017 4018 4018 4019 4019 4021 4021 4023 4023 4023 4022 4021 4019 4016 4015 4012 4010 4007 4006 4006 4006 4005 4005 4005 4005 4006 4006 4006 4005 4004 4004 4002 3997 3992 3989 3986 3980 3976 3972 3960 3953 3950 3941 3930 3918 3910 3905 3903 3882 3855 3801 3564 0 0 0 0 1776 1759 1759 1758 1753 1753 1753 1742 1741 1741 1739 1739 1736 1735 1731 1728 1725 1724 1724 1722 1717 1713 1709 1707 1706 1703 1701 1697 1694 1693 1690 1687 1684 1681 1678 1676 1674 1672 1672 1671 1668 1666 1662 1661 1661 1660 1656 1652 1649 1647 1644 1641 1636 1633 1633 1631 1630 1628 1628 1626 1623 1620 1619 1617 1616 1614 1612 1611 1609 1607 1606 1603 1601 1600 1598 1597 1596 1594 1593 1592 1590 1587 1585 1583 1581 1579 1578 1574 1573 1570 1570 1567 1564 1562 1559 1555 1552 1550 1548 1548 1546 1544 1542 1539 1537 1537 1534 1532 1529 1527 1524 1522 1519 1517 1513 1510 1505 1504 1501 1498 1495 1493 1493 1492 1490 1487 1486 1485 1484 1483 1482 1482 1481 1480 1480 1478 1477 1477 1475 1475 1473 1470 1469 1467 1465 1465 1463 1460 1459 1459 1458 1454 1451 1450 1448 1445 1443 1441 1441 1440 1439 1438 1438 1436 1434 1434 1433 1431 1431 1430 1428 1425 1424 1423 1422 1420 1418 1418 1418 1417 1415 1413 1413 1412 1411 1410 1409 1408 1407 1406 1404 1403 1402 1400 1398 1397 1394 1393 1392 1392 1391 1389 1387 1385 1384 1383 1382 1381 1380 1380 1380 1380 1380 1381 1381 1387 1400 0 0 0 0 0 0 1968 1973 1977 1985 1986 1986 1986 1986 1985 1985 1985 1985 1984 1984 1984 1983 1982 1981 1980 1979 1977 1975 1973 1971 1968 1965 1964 1961 1961 1959 1957 1957 1957 1957 1957 1957 1959 1960 1961 1961 1961 1962 1963 1963 1963 1964 1964 1964 1964 1964 1964 1964 1965 1965 1966 1966 1966 1966 1966 1966 1966 1966 1966 1965 1964 1964 1963 1963 1962 1961 1960 1960 1960 1961 1962 1962 1964 0
3088 3088 3100 3104 3123 3134 3135 3135 3136 3140 3142 3150 3152 3153 3161 3168 3199 3199 3199 3184 3184 3184 3185 3190 3190 3190 3189 3181 3181 3181 3194 3221 3226 3240 3248 3261 3280 3293 3298 3309 3313 3313 3318 3318 3320 3331 3332 3333 3334 3336 3341 3343 3343 3343 3348 3354 3361 3367 3372 3377 3382 3388 3391 3395 3399 3404 3409 3414 3418 3423 3425 3430 3435 3437 3440 3441 3443 3444 3446 3451 3454 3456 3459 3461 3461 3461 3462 3462 3462 3462 3463 3462 3462 3462 3461 3461 3461 3462 3463 3464 3466 3467 3469 3472 3474 3475 3478 3480 3481 3483 3486 3489 3491 3492 3496 3499 3502 3505 3509 3512 3513 3516 3520 3526 3532 3536 3538 3541 3544 3550 3553 3559 3565 3569 3571 3575 3577 3582 3586 3590 3594 3599 3601 3605 3609 3613 3619 3622 3626 3630 3633 3637 3640 3644 3650 3655 3662 3664 3669 3676 3680 3682 3685 3685 3685 3685 3686 3688 3692 3694 3696 3700 3702 3703 3707 3713 3717 3723 3727 3730 3733 3737 3740 3742 3744 3746 3748 3750 3752 3754 3755 3758 3762 3768 3775 3783 3788 3791 3794 3796 3797 3800 3803 3806 3808 3812 3815 3818 3821 3824 3826 3828 3830 3833 3837 3839 3843 3845 3849 3850 3854 3858 3862 3866 3870 3873 3875 3879 3884 3890 3897 3900 3903 3906 3908 3911 3914 3916 3919 3922 3925 3927 3931 3933 3934 3936 3937 3937 3937 3937 3937 3937 3937 3937 3937 3938 3941 3944 3946 3951 3955 3955 3955 3958 3964 3973 3982 3987 3991 3993 3996 4003 4007 4009 4010 4012 4013 4014 4014 4015 4016 4017 4018 4018 4018 4018 4019 4019 4021 4023 4024 4024 4024 4023 4022 4019 4018 4017 4017 4013 4009 4007 4006 4006 4005 4005 4005 4005 4005 4005 4003 4003 4002 4001 4000 3997 3992 3989 3986 3980 3979 3972 3960 3950 3943 3939 3930 3923 3918 3916 3903 3876 3850 3785 3045 0 0 0 0 1775 1775 1764 1761 1758 1758 1741 1740 1740 1740 1740 1739 1739 1735 1731 1729 1726 1724 1721 1719 1717 1713 1709 1708 1706 1704 1701 1697 1695 1693 1690 1687 1684 1681 1679 1676 1674 1673 1672 1671 1668 1664 1661 1660 1659 1656 1654 1651 1649 1645 1644 1640 1636 1633 1632 1630 1629 1627 1626 1626 1623 1620 1617 1617 1616 1614 1612 1610 1608 1607 1605 1603 1601 1599 1598 1597 1595 1593 1591 1590 1588 1586 1585 1582 1581 1579 1576 1574 1572 1570 1570 1567 1565 1562 1559 1556 1553 1551 1549 1548 1546 1544 1542 1540 1538 1537 1535 1532 1529 1527 1526 1522 1520 1517 1513 1510 1505 1504 1501 1498 1495 1493 1492 1491 1488 1486 1485 1485 1483 1481 1480 1480 1480 1480 1479 1478 1477 1475 1475 1472 1470 1469 1467 1465 1465 1463 1460 1457 1457 1457 1457 1453 1450 1448 1446 1445 1443 1441 1439 1438 1437 1436 1435 1434 1433 1432 1431 1431 1431 1429 1427 1425 1423 1422 1421 1420 1418 1418 1417 1416 1414 1413 1412 1412 1410 1410 1409 1408 1406 1405 1404 1402 1401 1400 1398 1396 1394 1393 1391 1391 1390 1388 1386 1385 1384 1382 1381 1381 1380 1380 1380 1379 1380 1380 1381 1387 1399 0 0 0 0 0 0 1946 1961 1975 1985 1985 1985 1985 1984 1982 1982 1982 1982 1983 1983 1983 1981 1980 1978 1977 1977 1976 1975 1973 1971 1968 1965 1963 1960 1960 1958 1956 1954 1954 1954 1954 1956 1957 1959 1959 1960 1960 1961 1961 1962 1963 1963 1963 1963 1963 1963 1963 1964 1964 1964 1964 1964 1964 1964 1964 1965 1965 1965 1965 1963 1962 1961 1961 1961 1960 1960 1960 1960 1960 1960 1962 1962 1964 0
3070 3070 3100 3104 3123 3123 3128 3131 3131 3131 3136 3140 3145 3147 3149 3151 3151 3151 3123 3098 3098 3098 3143 3154 3180 3180 3180 3180 3181 3181 3194 3221 3226 3240 3248 3261 3274 3277 3285 3294 3303 3313 3313 3314 3320 3330 3330 3331 3334 3336 3341 3343 3343 3344 3348 3354 3361 3367 3371 3377 3382 3388 3391 3395 3399 3403 3408 3414 3418 3423 3426 3431 3435 3437 3441 3443 3445 3445 3448 3451 3454 3456 3459 3461 3463 3463 3463 3463 3463 3463 3463 3463 3463 3463 3462 3462 3462 3462 3464 3465 3466 3468 3470 3472 3475 3477 3478 3480 3483 3485 3487 3489 3492 3495 3497 3500 3504 3508 3514 3516 3518 3519 3523 3529 3533 3536 3538 3542 3547 3551 3555 3561 3567 3570 3573 3576 3579 3583 3587 3592 3596 3600 3602 3605 3609 3613 3619 3623 3627 3630 3633 3637 3640 3644 3650 3655 3662 3668 3671 3677 3680 3682 3685 3685 3687 3687 3689 3691 3693 3696 3698 3701 3703 3705 3708 3714 3719 3725 3729 3734 3737 3739 3741 3742 3744 3746 3748 3750 3754 3757 3759 3762 3766 3773 3780 3785 3790 3793 3794 3797 3799 3801 3803 3806 3808 3812 3815 3818 3820 3823 3825 3828 3830 3833 3837 3839 3843 3845 3849 3852 3855 3859 3862 3868 3874 3877 3881 3884 3889 3893 3898 3902 3905 3907 3909 3912 3916 3919 3923 3927 3929 3931 3933 3936 3936 3937 3940 3940 3940 3940 3939 3938 3938 3938 3940 3941 3943 3946 3949 3953 3955 3956 3956 3958 3964 3973 3982 3987 3991 3993 3996 4003 4008 4011 4011 4012 4013 4014 4015 4016 4016 4018 4019 4019 4019 4019 4019 4020 4022 4024 4025 4025 4025 4024 4022 4020 4018 4018 4017 4017 4013 4008 4006 4006 4006 4004 4004 4004 4004 4004 4000 4000 4000 3999 3999 3995 3988 3983 3980 3980 3979 3972 3956 3941 3940 3937 3930 3923 3918 3916 3903 3879 3855 3757 3023 0 0 0 1771 1764 1764 1765 1761 1759 1751 1741 1741 1741 1740 1739 1738 1737 1734 1732 1729 1726 1724 1721 1719 1716 1713 1709 1708 1706 1703 1701 1697 1695 1693 1690 1687 1684 1681 1679 1676 1674 1673 1673 1671 1668 1664 1661 1659 1657 1655 1652 1650 1648 1645 1644 1640 1636 1633 1630 1628 1626 1624 1623 1623 1621 1619 1617 1617 1616 1614 1612 1610 1608 1606 1604 1602 1600 1598 1597 1596 1594 1592 1590 1588 1587 1586 1584 1582 1580 1579 1576 1574 1572 1570 1569 1567 1565 1563 1560 1556 1553 1551 1549 1549 1546 1544 1542 1540 1539 1537 1534 1532 1529 1527 1526 1522 1520 1517 1515 1511 1505 1504 1501 1498 1496 1493 1490 1488 1486 1485 1484 1484 1481 1480 1480 1480 1480 1479 1477 1476 1474 1474 1472 1471 1469 1468 1465 1463 1462 1460 1456 1456 1454 1454 1453 1452 1449 1446 1445 1443 1442 1440 1438 1437 1436 1435 1433 1432 1432 1432 1430 1430 1429 1428 1425 1424 1423 1422 1420 1420 1418 1417 1416 1415 1414 1412 1412 1411 1410 1410 1408 1407 1406 1404 1403 1401 1401 1400 1397 1396 1394 1393 1391 1390 1389 1387 1386 1384 1384 1382 1381 1381 1380 1379 1378 1377 1377 1377 1377 1385 1399 0 0 0 0 0 0 0 1954 1975 1981 1985 1985 1983 1982 1982 1981 1981 1982 1982 1982 1982 1981 1980 1978 1976 1975 1975 1972 1970 1969 1967 1965 1963 1960 1959 1957 1956 1954 1953 1953 1953 1956 1957 1958 1958 1958 1959 1959 1960 1961 1962 1962 1962 1962 1962 1962 1962 1962 1962 1962 1963 1963 1963 1963 1964 1964 1964 1964 1963 1961 1961 1960 1960 1960 1958 1958 1958 1958 1958 1960 1962 1962 1964 0
3041 3041 3049 3079 3104 3110 3113 3114 3114 3114 3122 3134 3139 3139 3139 3133 3091 2937 2859 2859 2859 2907 2925 3050 3112 3155 3155 3155 3169 3177 3183 3215 3226 3240 3248 3264 3274 3277 3285 3285 3294 3294 3297 3314 3320 3330 3330 3331 3333 3333 3338 3342 3346 3348 3351 3356 3361 3367 3371 3377 3382 3388 3391 3395 3396 3401 3407 3414 3420 3425 3429 3432 3437 3439 3443 3445 3447 3448 3450 3452 3455 3457 3459 3461 3463 3464 3464 3464 3464 3463 3463 3463 3464 3464 3464 3463 3463 3463 3464 3466 3467 3468 3471 3473 3475 3477 3479 3481 3483 3487 3490 3494 3494 3497 3499 3503 3505 3510 3517 3521 3521 3522 3526 3530 3535 3539 3539 3543 3548 3553 3557 3563 3569 3573 3576 3578 3581 3584 3587 3592 3596 3600 3602 3605 3609 3614 3619 3623 3627 3630 3633 3637 3640 3644 3650 3655 3662 3668 3673 3677 3680 3681 3685 3685 3687 3689 3691 3694 3696 3698 3700 3702 3703 3705 3709 3715 3722 3728 3734 3736 3739 3740 3742 3743 3745 3747 3749 3753 3756 3758 3762 3765 3769 3774 3780 3788 3792 3793 3795 3797 3800 3803 3804 3806 3809 3812 3815 3818 3819 3823 3825 3828 3830 3834 3837 3839 3843 3845 3850 3854 3858 3862 3867 3871 3875 3882 3887 3892 3896 3898 3902 3905 3908 3909 3911 3914 3918 3923 3927 3931 3932 3933 3934 3937 3938 3939 3941 3943 3943 3943 3942 3942 3942 3942 3942 3944 3946 3949 3953 3954 3955 3956 3956 3958 3964 3975 3982 3987 3991 3993 3996 4003 4009 4012 4012 4013 4013 4014 4015 4016 4016 4018 4019 4019 4019 4019 4020 4020 4022 4024 4025 4025 4025 4025 4022 4020 4019 4018 4017 4017 4015 4010 4007 4007 4006 4006 4004 4004 4003 4000 3996 3993 3993 3992 3992 3992 3984 3980 3977 3976 3973 3965 3946 3937 3931 3929 3926 3923 3921 3918 3903 3879 3854 3752 2835 0 0 0 1765 1765 1765 1765 1765 1764 1750 1741 1741 1741 1741 1741 1738 1737 1735 1732 1729 1726 1724 1721 1718 1716 1713 1709 1708 1706 1703 1701 1698 1695 1693 1690 1687 1685 1681 1679 1677 1674 1673 1673 1671 1667 1663 1661 1659 1656 1655 1651 1650 1646 1645 1643 1638 1634 1630 1628 1625 1624 1622 1621 1620 1620 1618 1617 1617 1616 1614 1612 1610 1608 1606 1603 1601 1599 1597 1596 1595 1593 1591 1589 1587 1586 1585 1583 1581 1580 1579 1576 1574 1572 1570 1568 1567 1565 1563 1560 1556 1553 1551 1549 1549 1546 1545 1543 1541 1539 1537 1534 1532 1530 1527 1526 1522 1520 1518 1515 1512 1507 1505 1503 1500 1496 1493 1490 1487 1485 1484 1484 1484 1481 1480 1480 1480 1479 1479 1477 1474 1473 1471 1469 1469 1469 1466 1464 1462 1459 1457 1456 1453 1452 1451 1450 1448 1446 1445 1443 1443 1440 1439 1438 1437 1435 1434 1432 1430 1430 1430 1430 1428 1427 1426 1424 1424 1423 1422 1420 1419 1418 1417 1416 1414 1413 1412 1411 1411 1410 1409 1408 1407 1405 1403 1402 1401 1400 1399 1397 1395 1394 1392 1391 1389 1388 1386 1385 1384 1383 1382 1380 1379 1379 1378 1378 1375 1375 1375 1376 1378 1387 1397 0 0 0 0 0 0 1954 1974 1981 1981 1982 1981 1981 1981 1980 1980 1981 1980 1980 1980 1979 1978 1976 1974 1974 1973 1971 1969 1967 1966 1964 1962 1959 1957 1957 1956 1954 1953 1953 1953 1955 1956 1956 1957 1957 1957 1957 1959 1960 1960 1960 1960 1960 1960 1960 1961 1961 1961 1961 1961 1962 1962 1962 1962 1962 1962 1962 1961 1959 1959 1958 1958 1958 1958 1956 1956 1956 1956 1956 1960 1960 1967 0
3033 3033 3046 3060 3067 3086 3090 3095 3096 3096 3114 3119 3119 3119 3075 2993 2745 2639 2587 2587 2587 2628 2631 2675 2747 2929 3063 3116 3121 3156 3170 3215 3226 3242 3255 3271 3275 3279 3285 3285 3289 3291 3291 3297 3309 3318 3318 3323 3336 3336 3338 3340 3346 3351 3354 3362 3367 3368 3372 3377 3382 3387 3391 3395 3396 3399 3405 3414 3420 3426 3429 3433 3437 3439 3443 3446 3449 3451 3454 3455 3457 3457 3459 3461 3463 3465 3465 3465 3465 3464 3464 3464 3464 3464 3465 3465 3465 3465 3466 3467 3468 3469 3471 3473 3475 3477 3481 3484 3486 3489 3492 3495 3499 3501 3502 3504 3507 3511 3517 3521 3522 3524 3527 3533 3536 3539 3541 3544 3549 3553 3558 3565 3570 3573 3577 3578 3581 3584 3587 3592 3596 3600 3603 3605 3609 3614 3619 3623 3627 3630 3633 3637 3640 3644 3648 3655 3662 3668 3673 3677 3678 3679 3681 3684 3687 3689 3691 3694 3696 3699 3702 3704 3706 3707 3710 3716 3723 3729 3734 3737 3739 3741 3742 3745 3746 3749 3751 3754 3757 3761 3764 3767 3772 3776 3782 3789 3793 3795 3795 3798 3801 3803 3805 3808 3811 3813 3816 3818 3819 3823 3825 3828 3831 3834 3837 3839 3843 3845 3850 3855 3859 3864 3868 3871 3875 3882 3890 3897 3901 3903 3905 3909 3911 3913 3915 3917 3921 3926 3930 3934 3935 3938 3939 3940 3941 3943 3944 3944 3944 3944 3944 3944 3944 3944 3945 3947 3950 3952 3955 3956 3956 3957 3957 3960 3964 3975 3982 3987 3992 3996 3999 4005 4009 4013 4013 4014 4014 4014 4015 4016 4017 4018 4019 4019 4019 4020 4020 4021 4022 4024 4025 4026 4026 4026 4024 4022 4019 4019 4019 4019 4019 4014 4010 4008 4006 4006 4005 4003 4002 4000 3994 3987 3985 3985 3982 3982 3982 3976 3975 3975 3973 3944 3941 3931 3921 3916 3916 3916 3916 3916 3900 3879 3849 3388 2730 0 0 0 1778 1778 1778 1778 1778 1764 1750 1744 1742 1742 1741 1741 1738 1737 1734 1731 1729 1725 1723 1721 1718 1716 1713 1711 1708 1706 1703 1701 1698 1695 1693 1690 1687 1684 1681 1679 1677 1674 1673 1673 1670 1666 1663 1660 1658 1656 1653 1651 1648 1646 1644 1642 1638 1632 1628 1624 1623 1623 1622 1621 1619 1619 1618 1617 1616 1615 1614 1612 1610 1608 1605 1602 1601 1599 1597 1595 1593 1591 1590 1588 1586 1584 1582 1582 1580 1580 1578 1575 1573 1572 1569 1568 1567 1565 1564 1560 1556 1553 1551 1549 1549 1546 1545 1544 1541 1539 1537 1535 1532 1530 1528 1527 1524 1522 1519 1516 1513 1512 1509 1506 1501 1496 1492 1490 1487 1485 1484 1484 1482 1481 1480 1479 1479 1479 1478 1475 1474 1471 1471 1469 1468 1468 1465 1463 1461 1459 1457 1454 1451 1450 1449 1448 1446 1445 1443 1443 1442 1440 1439 1437 1435 1433 1432 1429 1429 1429 1428 1428 1427 1427 1425 1424 1423 1422 1422 1420 1419 1418 1417 1415 1414 1413 1412 1411 1410 1410 1409 1408 1406 1404 1403 1401 1399 1399 1397 1396 1395 1393 1391 1390 1389 1387 1386 1385 1384 1383 1381 1380 1378 1378 1377 1376 1375 1374 1373 1373 1373 1378 1387 0 0 0 0 0 0 1952 1972 1981 1981 1982 1981 1979 1977 1978 1978 1979 1978 1978 1978 1978 1976 1976 1973 1973 1971 1969 1967 1966 1965 1962 1960 1958 1956 1955 1955 1953 1952 1952 1952 1954 1954 1954 1954 1955 1956 1957 1958 1958 1958 1958 1958 1957 1957 1957 1957 1958 1959 1960 1960 1960 1960 1961 1961 1961 1960 1960 1959 1957 1955 1955 1955 1955 1954 1954 1953 1953 1953 1956 1960 1960 1967 0
3032 3032 3041 3046 3046 3048 3051 3061 3079 3082 3105 3105 3105 3087 2980 2706 2612 2546 2519 2515 2499 0 0 0 2504 2528 2594 2663 2906 3058 3138 3197 3226 3242 3255 3264 3274 3277 3285 3285 3289 3291 3291 3293 3307 3314 3314 3321 3321 3324 3334 3343 3348 3351 3358 3367 3372 3376 3377 3378 3381 3382 3386 3393 3396 3399 3405 3415 3422 3426 3430 3435 3438 3440 3444 3446 3449 3451 3454 3456 3457 3457 3458 3461 3463 3465 3465 3465 3465 3465 3465 3465 3465 3465 3466 3466 3466 3466 3466 3467 3469 3470 3471 3474 3476 3480 3483 3487 3489 3492 3493 3498 3502 3503 3507 3508 3512 3514 3518 3521 3522 3525 3529 3534 3536 3539 3543 3546 3549 3554 3559 3565 3570 3574 3577 3579 3581 3584 3586 3589 3593 3597 3602 3605 3609 3614 3619 3623 3627 3629 3632 3637 3640 3644 3647 3655 3661 3668 3673 3675 3676 3678 3680 3682 3686 3689 3691 3694 3696 3700 3703 3706 3707 3709 3711 3716 3724 3730 3734 3737 3740 3741 3743 3747 3749 3752 3757 3760 3763 3766 3768 3771 3774 3778 3784 3790 3794 3796 3800 3802 3804 3804 3806 3810 3812 3815 3816 3818 3820 3823 3826 3829 3833 3834 3837 3840 3843 3846 3851 3856 3861 3866 3869 3871 3875 3882 3892 3901 3906 3908 3908 3910 3914 3918 3920 3921 3924 3927 3933 3936 3940 3942 3944 3945 3946 3947 3947 3948 3948 3948 3947 3947 3947 3947 3947 3949 3951 3953 3955 3956 3957 3958 3958 3961 3967 3976 3984 3989 3995 4000 4005 4009 4011 4014 4015 4015 4017 4017 4017 4017 4017 4018 4019 4020 4020 4020 4020 4021 4022 4024 4025 4026 4026 4026 4024 4022 4019 4019 4019 4019 4019 4019 4012 4008 4007 4005 4004 4003 4002 3999 3994 3987 3980 3980 3980 3980 3978 3976 3970 3965 3953 3939 3934 3922 3919 3914 3914 3912 3911 3909 3896 3879 3849 3379 2691 0 0 0 1776 1776 1776 1776 1776 1764 1751 1751 1746 1744 1742 1740 1737 1736 1734 1731 1728 1725 1722 1720 1718 1716 1713 1711 1708 1706 1703 1700 1698 1695 1693 1690 1687 1684 1681 1679 1677 1674 1672 1671 1670 1666 1662 1659 1658 1656 1654 1651 1648 1645 1643 1642 1636 1632 1626 1624 1623 1623 1622 1621 1619 1617 1617 1616 1616 1615 1614 1612 1610 1607 1605 1602 1600 1598 1596 1595 1593 1590 1589 1587 1586 1584 1581 1580 1580 1578 1577 1575 1573 1571 1569 1568 1567 1565 1564 1560 1557 1555 1551 1550 1549 1546 1545 1544 1541 1539 1537 1535 1532 1530 1529 1527 1525 1523 1519 1515 1514 1513 1511 1507 1501 1496 1492 1490 1487 1486 1484 1483 1482 1482 1480 1479 1479 1479 1478 1475 1473 1471 1471 1469 1468 1466 1464 1463 1461 1458 1456 1453 1451 1448 1446 1445 1444 1443 1443 1442 1440 1438 1436 1434 1433 1432 1429 1428 1427 1427 1427 1427 1427 1426 1424 1423 1423 1422 1421 1420 1418 1417 1417 1415 1414 1412 1411 1411 1410 1409 1408 1406 1405 1403 1403 1401 1398 1397 1396 1395 1394 1393 1391 1390 1388 1386 1386 1384 1383 1381 1381 1379 1378 1377 1377 1376 1375 1374 1373 1373 1373 1375 1386 0 0 0 0 0 0 0 1972 1982 1982 1982 1981 1976 1976 1976 1976 1977 1977 1977 1977 1976 1975 1974 1972 1972 1970 1969 1967 1965 1963 1961 1959 1957 1955 1955 1954 1953 1952 1952 1952 1951 1952 1952 1953 1955 1955 1956 1956 1956 1956 1956 1956 1956 1956 1955 1955 1955 1957 1958 1960 1960 1960 1960 1960 1960 1959 1958 1957 1955 1954 1953 1953 1952 1952 1952 1951 1952 1952 1954 1960 1960 1968 0
3033 3033 3041 3041 3041 3041 3041 3046 3062 3064 3094 3094 3094 3019 2729 2539 2532 2487 2486 2477 2473 2459 2457 2456 2456 0 2457 2518 2538 2618 2741 2894 3064 3174 3255 3264 3274 3277 3277 3280 3282 3285 3293 3294 3307 3307 3311 3320 3320 3320 3332 3340 3348 3351 3358 3370 3372 3376 3377 3378 3379 3382 3385 3393 3396 3399 3405 3417 3423 3426 3430 3435 3439 3442 3444 3447 3450 3453 3454 3456 3457 3457 3458 3460 3462 3465 3465 3466 3466 3466 3466 3466 3466 3466 3466 3467 3467 3467 3467 3469 3471 3472 3474 3475 3477 3480 3483 3487 3490 3492 3494 3500 3503 3507 3509 3512 3513 3514 3518 3521 3524 3526 3529 3534 3538 3540 3544 3548 3551 3555 3559 3565 3571 3574 3577 3580 3582 3583 3586 3588 3591 3597 3602 3606 3610 3615 3619 3622 3625 3627 3632 3637 3640 3644 3647 3653 3659 3664 3668 3671 3674 3677 3679 3682 3686 3689 3691 3694 3696 3700 3704 3708 3710 3711 3714 3719 3724 3730 3734 3738 3740 3742 3744 3748 3752 3756 3761 3765 3769 3771 3772 3775 3778 3780 3785 3790 3795 3800 3802 3804 3807 3807 3808 3810 3812 3816 3817 3818 3820 3823 3826 3830 3833 3835 3839 3842 3844 3848 3852 3857 3862 3867 3869 3871 3874 3883 3892 3902 3908 3910 3911 3912 3915 3919 3922 3926 3926 3932 3936 3940 3943 3947 3948 3950 3950 3951 3951 3951 3951 3951 3950 3948 3948 3948 3948 3950 3952 3953 3955 3957 3959 3960 3961 3962 3970 3980 3989 3995 4000 4005 4007 4010 4012 4014 4016 4018 4018 4018 4018 4018 4018 4018 4020 4020 4020 4020 4020 4021 4022 4024 4025 4026 4026 4026 4025 4023 4021 4021 4021 4025 4025 4025 4012 4008 4007 4005 4004 4002 3999 3998 3994 3987 3980 3978 3977 3977 3976 3976 3966 3951 3934 3928 3918 3914 3913 3909 3909 3909 3908 3908 3893 3879 3849 3318 2625 0 0 1791 1786 1779 1776 1776 1776 1764 1753 1752 1751 1748 1743 1739 1736 1735 1734 1730 1727 1725 1722 1720 1718 1715 1713 1711 1708 1706 1703 1700 1698 1695 1693 1690 1687 1684 1681 1678 1676 1673 1671 1670 1668 1666 1662 1659 1658 1656 1654 1651 1647 1644 1643 1641 1636 1630 1626 1624 1623 1623 1622 1621 1619 1616 1616 1616 1615 1614 1613 1611 1610 1606 1604 1602 1600 1597 1596 1594 1591 1588 1586 1585 1585 1583 1581 1580 1579 1578 1576 1574 1572 1570 1569 1568 1567 1565 1564 1560 1557 1555 1552 1550 1549 1546 1545 1544 1541 1539 1537 1535 1532 1530 1529 1527 1526 1523 1520 1517 1517 1515 1511 1507 1501 1496 1492 1490 1487 1487 1486 1484 1482 1482 1480 1479 1479 1479 1478 1475 1473 1471 1470 1468 1468 1465 1463 1462 1461 1458 1455 1453 1451 1448 1446 1445 1444 1442 1441 1439 1438 1436 1434 1433 1431 1429 1429 1427 1427 1427 1427 1427 1427 1425 1423 1423 1422 1422 1421 1420 1418 1417 1416 1414 1413 1412 1411 1410 1409 1409 1407 1406 1405 1403 1401 1399 1398 1396 1395 1394 1393 1392 1390 1388 1387 1386 1385 1384 1383 1381 1380 1378 1378 1377 1376 1375 1375 1373 1373 1373 1373 1375 1381 1384 0 0 0 0 0 0 1966 1980 1980 1980 1977 1976 1976 1975 1975 1976 1976 1976 1976 1974 1973 1972 1971 1970 1970 1968 1967 1965 1962 1960 1957 1955 1954 1954 1954 1952 1951 1951 1951 1950 1950 1950 1952 1954 1955 1955 1955 1955 1955 1955 1955 1955 1955 1955 1955 1955 1956 1957 1959 1960 1960 1960 1959 1958 1958 1958 1957 1955 1952 1950 1950 1948 1948 1948 1948 1950 1951 1954 1960 1960 1968 0
3033 3033 3041 3041 3041 3041 3041 3046 3055 3064 3087 3087 3087 2886 2548 2499 2492 2476 2465 2460 2452 2451 2447 2433 2414 2414 2414 0 0 0 2531 2613 2728 2826 2982 3077 3112 3148 3271 3274 3280 3285 3287 3289 3299 3302 3306 3311 3315 3315 3317 3323 3334 3342 3354 3370 3373 3375 3377 3378 3379 3379 3385 3393 3398 3401 3408 3420 3423 3426 3431 3437 3441 3444 3444 3447 3450 3454 3454 3456 3457 3457 3458 3460 3462 3465 3466 3466 3467 3468 3468 3468 3468 3468 3469 3469 3469 3469 3470 3470 3473 3474 3474 3478 3479 3482 3485 3487 3491 3494 3496 3501 3504 3508 3512 3512 3516 3518 3520 3523 3526 3527 3530 3534 3538 3541 3544 3548 3552 3557 3560 3566 3570 3574 3577 3580 3582 3583 3586 3588 3591 3596 3601 3606 3611 3615 3619 3622 3625 3627 3632 3637 3641 3644 3647 3653 3658 3662 3666 3669 3673 3676 3678 3682 3685 3688 3691 3693 3696 3700 3704 3709 3712 3713 3715 3719 3724 3731 3735 3738 3741 3744 3747 3749 3754 3757 3762 3766 3773 3777 3777 3779 3781 3784 3787 3791 3797 3800 3803 3805 3807 3808 3809 3810 3813 3817 3817 3819 3821 3825 3829 3833 3835 3838 3841 3843 3845 3850 3853 3857 3863 3867 3869 3871 3873 3883 3893 3902 3910 3911 3912 3912 3916 3919 3922 3926 3932 3935 3939 3942 3945 3948 3951 3952 3954 3954 3954 3954 3954 3953 3952 3950 3950 3950 3950 3951 3952 3954 3956 3957 3960 3964 3965 3967 3972 3981 3991 3998 4003 4007 4009 4012 4014 4015 4017 4019 4019 4019 4019 4019 4019 4019 4020 4021 4021 4021 4021 4022 4023 4024 4025 4026 4026 4026 4025 4024 4022 4022 4022 4025 4025 4025 4014 4009 4007 4004 4004 3999 3998 3994 3993 3987 3980 3975 3975 3973 3973 3969 3953 3926 3902 3902 3902 3905 3905 3905 3903 3901 3900 3892 3878 3856 3820 3249 2544 0 0 1785 1785 1779 1766 1766 1766 1761 1757 1754 1752 1749 1743 1739 1736 1735 1733 1730 1726 1724 1722 1720 1717 1715 1713 1710 1708 1706 1703 1700 1697 1694 1691 1688 1686 1682 1680 1677 1674 1672 1671 1668 1667 1665 1662 1659 1658 1656 1653 1650 1646 1643 1640 1637 1633 1630 1627 1624 1624 1623 1623 1621 1619 1616 1616 1616 1614 1611 1610 1610 1607 1603 1601 1599 1597 1593 1591 1589 1586 1584 1582 1581 1581 1581 1580 1579 1578 1578 1576 1574 1571 1570 1569 1567 1566 1565 1563 1560 1557 1555 1552 1550 1549 1546 1545 1543 1541 1539 1537 1535 1532 1530 1529 1527 1526 1523 1520 1518 1517 1517 1515 1507 1501 1496 1493 1491 1490 1487 1487 1485 1483 1482 1481 1479 1479 1479 1477 1475 1472 1471 1470 1468 1467 1465 1463 1462 1459 1458 1455 1453 1451 1448 1446 1445 1443 1441 1438 1438 1436 1435 1433 1433 1431 1429 1428 1427 1426 1426 1426 1425 1425 1424 1423 1423 1422 1422 1421 1420 1418 1416 1415 1414 1413 1411 1410 1409 1408 1407 1407 1405 1405 1403 1401 1399 1398 1396 1395 1394 1392 1391 1389 1387 1386 1385 1383 1383 1382 1381 1379 1378 1378 1377 1375 1374 1373 1373 1372 1372 1372 1372 1374 1382 0 0 0 0 0 0 0 1978 1978 1978 1975 1969 1969 1969 1974 1974 1975 1975 1974 1974 1973 1971 1970 1969 1968 1967 1965 1963 1961 1960 1957 1955 1953 1953 1953 1952 1951 1950 1950 1950 1950 1950 1952 1953 1954 1954 1954 1954 1953 1953 1953 1955 1955 1955 1954 1954 1954 1956 1958 1958 1959 1959 1958 1958 1958 1958 1957 1954 1950 1949 1948 1947 1947 1946 1946 1948 1950 1954 1959 1959 1968 0
3033 3033 3041 3041 3041 3041 3041 3046 3055 3064 3064 3064 3048 2804 2518 2464 2436 2435 2435 2446 2445 2445 2445 2428 2414 2412 2406 2406 2406 0 0 0 0 2523 2561 2627 2635 2702 2940 3126 3178 3243 3274 3289 3290 3297 3302 3302 3312 3320 3329 3332 3339 3340 3354 3370 3376 3378 3378 3378 3378 3378 3381 3392 3398 3401 3408 3420 3423 3428 3432 3438 3441 3444 3447 3449 3452 3454 3455 3457 3457 3457 3458 3460 3462 3466 3468 3468 3469 3470 3471 3472 3472 3473 3473 3473 3473 3472 3472 3472 3475 3475 3478 3481 3483 3484 3487 3489 3492 3495 3498 3501 3504 3509 3512 3514 3518 3522 3523 3523 3526 3534 3534 3536 3539 3542 3544 3549 3553 3558 3562 3567 3570 3574 3578 3581 3583 3584 3586 3588 3591 3596 3602 3607 3611 3615 3619 3622 3625 3627 3633 3638 3641 3644 3647 3652 3658 3662 3666 3669 3673 3676 3678 3682 3685 3687 3691 3691 3693 3698 3704 3709 3712 3713 3715 3719 3725 3732 3737 3741 3743 3747 3751 3756 3758 3759 3763 3769 3776 3781 3783 3783 3785 3788 3792 3794 3798 3802 3805 3805 3807 3809 3810 3812 3815 3817 3818 3819 3822 3828 3830 3835 3837 3842 3845 3847 3848 3852 3853 3857 3863 3867 3869 3870 3872 3883 3893 3903 3910 3914 3915 3915 3916 3920 3923 3927 3932 3935 3939 3942 3945 3948 3951 3954 3955 3957 3957 3957 3956 3956 3953 3953 3952 3952 3952 3952 3953 3954 3956 3957 3960 3968 3971 3972 3976 3984 3993 4000 4004 4009 4013 4013 4014 4017 4018 4019 4021 4022 4022 4022 4022 4022 4022 4022 4022 4022 4022 4022 4023 4025 4026 4026 4027 4027 4027 4026 4025 4025 4025 4026 4026 4026 4015 4011 4004 4002 3999 3994 3993 3991 3990 3987 3980 3975 3969 3965 3962 3959 3926 3910 3885 3883 3883 3883 3886 3886 3886 3886 3834 3833 3822 3808 3799 3179 0 0 0 1814 1788 1785 1779 1779 1766 1761 1761 1758 1752 1749 1742 1738 1735 1734 1732 1729 1726 1723 1721 1719 1716 1715 1712 1709 1707 1704 1702 1699 1695 1692 1689 1688 1685 1682 1679 1676 1674 1672 1670 1666 1665 1664 1662 1659 1658 1656 1653 1648 1645 1642 1638 1635 1632 1629 1627 1626 1625 1625 1624 1621 1619 1616 1615 1613 1611 1610 1606 1605 1603 1602 1598 1597 1595 1590 1589 1586 1584 1582 1580 1579 1578 1577 1577 1577 1576 1574 1573 1572 1570 1567 1567 1567 1565 1564 1562 1560 1557 1555 1552 1550 1549 1546 1545 1543 1541 1539 1537 1535 1532 1530 1529 1527 1525 1522 1520 1517 1517 1515 1511 1509 1501 1496 1495 1494 1490 1488 1487 1485 1483 1482 1481 1479 1478 1477 1476 1474 1472 1470 1469 1468 1467 1465 1463 1462 1459 1456 1454 1453 1451 1449 1446 1445 1443 1441 1438 1436 1435 1434 1433 1432 1430 1429 1428 1427 1425 1424 1424 1424 1423 1423 1423 1423 1422 1421 1420 1419 1418 1416 1415 1414 1412 1411 1410 1408 1407 1406 1405 1404 1403 1402 1400 1399 1398 1396 1395 1393 1391 1390 1387 1385 1384 1384 1383 1382 1382 1380 1379 1378 1377 1375 1375 1374 1373 1371 1371 1371 1371 1371 1372 1380 0 0 0 0 0 0 0 1975 1975 1975 1974 1969 1969 1969 1971 1973 1973 1973 1973 1973 1971 1970 1970 1969 1967 1966 1964 1962 1961 1959 1956 1955 1953 1953 1953 1952 1951 1950 1949 1949 1949 1949 1951 1953 1953 1953 1953 1951 1951 1951 1952 1953 1953 1953 1953 1953 1953 1954 1955 1956 1956 1956 1956 1956 1956 1955 1954 1952 1949 1949 1947 1947 1947 1946 1946 1946 1947 1948 1952 1952 1961 0
3038 3038 3041 3041 3041 3041 3041 3049 3053 3058 3058 3058 3009 2696 0 0 2407 2407 2407 2425 2425 2425 2414 2414 2414 2412 2406 2383 2383 2383 2385 2402 2415 0 0 0 0 2528 2600 2695 2788 2989 3080 3132 3182 3258 3290 3301 3311 3314 3329 3332 3342 3345 3354 3367 3367 3367 3376 3367 3367 3373 3377 3392 3398 3401 3408 3420 3422 3428 3432 3437 3441 3446 3449 3450 3454 3455 3455 3457 3457 3458 3460 3463 3467 3467 3469 3470 3472 3474 3475 3477 3478 3478 3478 3476 3476 3474 3474 3474 3476 3477 3479 3482 3483 3485 3488 3490 3493 3495 3499 3502 3504 3509 3513 3516 3519 3522 3525 3529 3531 3534 3539 3539 3542 3542 3548 3550 3555 3558 3563 3567 3570 3574 3578 3581 3584 3587 3589 3590 3592 3597 3602 3607 3611 3615 3619 3622 3625 3628 3634 3638 3641 3643 3647 3652 3657 3662 3666 3669 3673 3676 3678 3682 3685 3687 3691 3691 3693 3696 3704 3709 3712 3714 3717 3721 3726 3733 3737 3741 3743 3748 3753 3757 3762 3762 3764 3770 3777 3783 3786 3787 3790 3792 3793 3797 3800 3803 3806 3807 3808 3809 3811 3813 3815 3817 3821 3821 3824 3829 3832 3837 3840 3844 3846 3847 3850 3853 3856 3859 3863 3867 3867 3867 3872 3883 3894 3904 3910 3915 3917 3917 3917 3920 3923 3927 3932 3936 3939 3942 3945 3948 3952 3954 3957 3958 3958 3958 3956 3956 3955 3954 3953 3953 3953 3955 3956 3956 3957 3958 3962 3968 3973 3976 3980 3986 3994 4002 4007 4011 4015 4016 4017 4018 4018 4020 4021 4022 4022 4023 4023 4023 4023 4023 4023 4023 4023 4023 4024 4025 4026 4026 4027 4027 4027 4026 4025 4025 4025 4025 4025 4025 4015 4007 4002 3997 3994 3991 3987 3987 3985 3980 3966 3955 3943 3921 3879 3844 3844 3830 3830 3830 3800 3800 3800 3793 3789 3776 3776 3770 3752 3408 3320 3010 0 0 0 1814 1808 1785 1784 1784 1766 1761 1761 1759 1752 1749 1742 1738 1735 1734 1730 1726 1725 1722 1720 1718 1716 1714 1711 1708 1706 1703 1700 1697 1694 1691 1688 1686 1683 1680 1678 1676 1674 1672 1670 1666 1664 1664 1662 1659 1658 1656 1653 1648 1645 1642 1638 1635 1631 1629 1628 1628 1628 1626 1624 1622 1619 1618 1615 1613 1611 1608 1604 1604 1603 1601 1598 1594 1593 1589 1587 1586 1583 1581 1579 1577 1575 1575 1575 1575 1573 1573 1572 1572 1569 1566 1566 1566 1564 1564 1562 1560 1557 1554 1552 1550 1548 1546 1545 1543 1541 1539 1537 1535 1533 1530 1529 1527 1525 1522 1519 1517 1514 1514 1511 1507 1501 1497 1496 1494 1491 1488 1487 1485 1483 1481 1480 1479 1477 1476 1474 1473 1471 1470 1469 1467 1465 1464 1463 1461 1459 1456 1454 1453 1451 1449 1446 1444 1443 1440 1437 1435 1434 1433 1432 1431 1430 1428 1427 1425 1424 1423 1422 1422 1422 1422 1422 1421 1421 1421 1419 1419 1417 1416 1415 1413 1412 1411 1410 1408 1407 1406 1405 1404 1403 1402 1400 1399 1397 1396 1394 1392 1390 1390 1387 1385 1384 1383 1382 1382 1381 1379 1379 1377 1376 1375 1374 1372 1371 1370 1369 1368 1368 1368 1372 1374 1391 0 0 0 0 0 0 1963 1972 1972 1972 1968 1968 1968 1970 1972 1972 1972 1972 1972 1971 1969 1969 1968 1966 1965 1964 1962 1960 1959 1956 1955 1953 1953 1953 1952 1951 1950 1949 1949 1949 1949 1950 1950 1950 1950 1949 1948 1948 1948 1950 1950 1950 1950 1949 1949 1949 1949 1951 1952 1952 1952 1952 1952 1953 1953 1953 1950 1948 1947 1947 1947 1947 1946 1946 1945 1945 1945 1946 1946 1953 0
3038 3038 3041 3041 3041 3041 3041 3049 3052 3058 3058 3058 2960 2626 0 0 2367 2367 2367 2398 2414 2414 2420 2416 2414 2414 2387 2382 2371 2371 2371 2398 2415 2429 2432 2449 2452 2474 2477 2504 2557 2610 2706 2792 2831 2939 3109 3301 3304 3306 3317 3322 3328 3339 3354 3367 3367 3367 3367 3366 3366 3367 3371 3388 3388 3398 3403 3419 3420 3428 3432 3437 3441 3446 3449 3455 3455 3455 3456 3458 3458 3459 3463 3466 3472 3472 3474 3474 3476 3478 3478 3479 3481 3481 3481 3481 3480 3477 3477 3477 3478 3480 3480 3482 3486 3488 3490 3492 3494 3497 3500 3505 3508 3510 3513 3516 3519 3522 3526 3529 3531 3534 3539 3542 3544 3545 3549 3553 3555 3558 3563 3567 3570 3574 3578 3581 3584 3587 3590 3591 3594 3598 3603 3607 3611 3615 3619 3622 3625 3629 3634 3638 3641 3643 3647 3652 3657 3662 3666 3670 3673 3677 3680 3682 3685 3687 3691 3691 3692 3696 3703 3709 3715 3720 3722 3727 3731 3734 3738 3742 3745 3749 3753 3758 3763 3765 3765 3771 3779 3784 3787 3789 3791 3794 3796 3798 3801 3804 3807 3808 3808 3809 3811 3813 3815 3817 3821 3823 3825 3829 3832 3837 3840 3844 3846 3847 3850 3854 3858 3862 3866 3867 3867 3868 3873 3885 3896 3905 3910 3915 3917 3920 3921 3923 3924 3927 3932 3936 3939 3942 3945 3948 3952 3954 3957 3958 3958 3958 3958 3957 3957 3956 3955 3955 3955 3956 3957 3958 3958 3959 3962 3969 3974 3978 3980 3987 3995 4002 4008 4013 4017 4019 4020 4021 4021 4021 4021 4023 4023 4024 4024 4024 4025 4024 4024 4024 4024 4024 4024 4025 4026 4026 4026 4026 4026 4026 4025 4025 4025 4025 4025 4022 4015 4007 4000 3995 3986 3979 3970 3969 3966 3956 3944 3840 3421 3396 3356 3234 3199 3192 3192 3184 3178 3178 3170 3148 3127 3127 3119 3091 3010 2902 2801 0 0 0 0 1811 1808 1784 1784 1784 1765 1765 1761 1759 1751 1745 1741 1737 1735 1732 1729 1726 1724 1721 1720 1718 1715 1713 1710 1708 1704 1702 1699 1696 1693 1690 1687 1685 1682 1679 1677 1675 1674 1672 1669 1666 1664 1662 1662 1659 1658 1655 1651 1648 1645 1641 1638 1634 1631 1629 1629 1628 1628 1626 1624 1622 1620 1618 1615 1613 1611 1608 1604 1603 1603 1600 1597 1594 1593 1589 1587 1584 1583 1580 1579 1576 1574 1573 1572 1572 1572 1572 1571 1570 1568 1566 1565 1565 1564 1563 1560 1558 1557 1554 1552 1550 1548 1546 1544 1542 1541 1538 1537 1534 1533 1530 1529 1527 1525 1522 1519 1517 1514 1513 1510 1507 1503 1499 1497 1494 1491 1489 1487 1485 1483 1481 1480 1479 1477 1476 1474 1473 1471 1470 1469 1467 1465 1464 1463 1461 1461 1456 1454 1451 1449 1449 1445 1442 1440 1439 1436 1434 1433 1433 1432 1430 1429 1428 1426 1425 1423 1422 1421 1421 1421 1421 1421 1421 1421 1421 1419 1419 1417 1416 1415 1413 1412 1411 1409 1407 1407 1405 1404 1403 1402 1400 1400 1398 1397 1396 1393 1391 1390 1389 1386 1384 1383 1383 1382 1381 1380 1379 1377 1376 1375 1374 1372 1372 1370 1370 1368 1367 1367 1367 1372 1374 1383 0 0 0 0 0 0 0 1970 1970 1970 1968 1968 1968 1969 1970 1971 1971 1970 1970 1970 1968 1967 1966 1965 1964 1963 1962 1960 1958 1956 1955 1953 1953 1952 1951 1951 1950 1949 1949 1948 1948 1948 1948 1948 1947 1946 1946 1946 1947 1948 1948 1948 1947 1946 1946 1946 1947 1948 1949 1949 1950 1950 1951 1951 1951 1951 1948 1946 1946 1946 1946 1946 1946 1946 1945 1945 1945 1945 1945 1953 0
3033 3033 3039 3039 3040 3040 3040 3049 3052 3052 3052 3018 2809 0 0 0 2323 2323 2362 2379 2412 2412 2420 2416 2412 2410 2387 2382 2357 2357 2357 2398 2415 2429 2432 2449 2452 2474 2477 2483 2512 2558 2589 2617 2637 2659 2760 3035 3219 3242 3317 3318 3320 3336 3348 3366 3366 3367 3367 3366 3366 3367 3369 3381 3387 3391 3398 3412 3415 3425 3429 3437 3444 3446 3449 3455 3456 3456 3457 3460 3460 3462 3466 3470 3474 3476 3476 3477 3479 3482 3483 3484 3484 3484 3484 3484 3484 3484 3482 3482 3482 3482 3485 3486 3490 3491 3492 3494 3496 3498 3502 3505 3508 3512 3513 3516 3519 3522 3526 3529 3532 3535 3539 3542 3545 3547 3549 3553 3555 3559 3563 3567 3570 3571 3578 3581 3584 3588 3591 3594 3600 3603 3605 3609 3613 3616 3620 3623 3626 3630 3634 3638 3640 3644 3648 3652 3657 3662 3666 3670 3674 3678 3682 3683 3685 3687 3691 3691 3692 3696 3703 3709 3715 3725 3729 3732 3732 3735 3739 3742 3746 3749 3754 3758 3763 3765 3768 3775 3780 3785 3790 3791 3794 3796 3797 3799 3802 3804 3807 3808 3808 3809 3811 3813 3815 3817 3821 3824 3827 3830 3833 3837 3840 3844 3846 3848 3850 3855 3860 3864 3866 3867 3867 3868 3873 3886 3896 3905 3910 3915 3918 3920 3922 3923 3924 3927 3932 3936 3939 3942 3945 3948 3951 3955 3957 3959 3959 3959 3959 3959 3958 3957 3956 3956 3956 3957 3958 3960 3960 3961 3963 3969 3975 3980 3984 3991 3999 4006 4011 4014 4018 4020 4023 4023 4023 4023 4023 4023 4023 4024 4025 4025 4025 4026 4026 4026 4025 4024 4024 4024 4024 4024 4024 4025 4025 4025 4024 4024 4020 4018 4017 4016 4015 4006 3998 3988 3973 3958 3944 3936 3851 3612 3578 3357 2909 2760 2699 2630 2603 2583 0 0 0 0 2502 2502 2502 0 0 0 0 0 0 0 0 0 0 1803 1803 1784 1784 1784 1769 1766 1760 1759 1749 1744 1741 1737 1734 1732 1729 1726 1724 1721 1719 1717 1714 1712 1710 1707 1704 1701 1698 1696 1692 1689 1687 1684 1680 1678 1676 1675 1674 1672 1669 1666 1664 1662 1661 1659 1657 1653 1649 1648 1645 1641 1638 1634 1631 1630 1629 1628 1628 1627 1625 1622 1621 1619 1617 1614 1612 1609 1604 1603 1603 1598 1594 1592 1589 1588 1585 1582 1581 1580 1578 1576 1574 1572 1571 1570 1569 1569 1569 1569 1568 1565 1565 1563 1563 1562 1559 1557 1556 1554 1551 1549 1548 1546 1544 1542 1541 1538 1537 1534 1532 1530 1529 1526 1524 1521 1519 1516 1513 1509 1507 1507 1503 1499 1497 1494 1491 1489 1487 1485 1483 1481 1480 1479 1477 1476 1474 1473 1471 1470 1469 1467 1465 1464 1462 1461 1461 1458 1454 1450 1447 1445 1443 1440 1438 1437 1435 1434 1433 1432 1431 1429 1427 1427 1425 1424 1422 1421 1420 1420 1420 1420 1420 1420 1420 1419 1419 1418 1417 1415 1414 1413 1411 1410 1408 1407 1406 1405 1404 1402 1400 1398 1398 1397 1397 1395 1393 1391 1390 1388 1386 1384 1382 1382 1381 1380 1379 1377 1377 1376 1374 1373 1372 1371 1370 1370 1367 1367 1367 1367 1368 1369 1373 1387 0 0 0 0 0 0 1966 1966 1966 1966 1966 1966 1969 1969 1970 1970 1969 1969 1968 1968 1967 1966 1964 1964 1962 1961 1959 1958 1956 1955 1953 1952 1951 1951 1951 1950 1949 1948 1948 1947 1947 1947 1946 1945 1943 1943 1943 1945 1945 1945 1945 1944 1944 1944 1944 1945 1946 1947 1948 1949 1949 1950 1950 1950 1948 1947 1945 1945 1945 1946 1946 1946 1945 1942 1942 1942 1944 1944 1950 0
3025 3025 3018 3018 3018 3018 3027 3038 3039 3039 3039 2940 2643 0 0 0 2304 2304 2345 2374 2412 2412 2420 2416 2412 2410 2385 2361 2357 2357 2357 2398 2440 2449 2451 2452 2463 2474 2477 2480 2506 2534 2564 2564 2564 2564 2592 2655 3107 3153 3194 3228 3240 3336 3345 3360 3360 3364 3365 3365 3366 3370 3370 3371 3375 3384 3394 3395 3402 3422 3427 3432 3444 3446 3451 3455 3457 3457 3458 3460 3461 3463 3468 3475 3479 3479 3479 3479 3479 3484 3487 3490 3490 3490 3490 3490 3490 3490 3490 3485 3485 3485 3486 3490 3492 3492 3493 3495 3497 3501 3503 3506 3509 3512 3515 3516 3520 3524 3527 3529 3532 3535 3539 3541 3545 3548 3549 3553 3555 3559 3563 3567 3570 3571 3578 3581 3586 3589 3592 3594 3600 3604 3611 3614 3615 3618 3621 3623 3626 3630 3634 3637 3640 3644 3648 3652 3657 3662 3665 3670 3674 3678 3682 3684 3687 3689 3692 3692 3693 3698 3703 3711 3719 3726 3730 3733 3734 3736 3739 3743 3746 3751 3755 3759 3764 3770 3773 3778 3786 3790 3793 3795 3798 3799 3799 3800 3802 3805 3807 3808 3808 3810 3811 3813 3815 3818 3821 3824 3827 3830 3833 3837 3840 3844 3846 3848 3850 3855 3860 3864 3866 3868 3870 3870 3875 3886 3896 3905 3910 3915 3918 3921 3922 3923 3925 3927 3932 3936 3939 3944 3946 3949 3952 3955 3957 3959 3960 3960 3960 3960 3959 3959 3958 3958 3958 3958 3961 3962 3962 3964 3964 3969 3975 3980 3988 3994 4001 4008 4013 4015 4018 4021 4024 4024 4024 4024 4023 4023 4024 4025 4026 4026 4026 4026 4026 4026 4026 4026 4024 4022 4020 4019 4019 4019 4018 4017 4016 4016 4015 4015 4013 4012 4004 3996 3983 3969 3942 3912 3894 3799 3427 3005 2787 2573 0 0 0 0 0 0 0 0 0 0 0 0 0 0 0 0 0 0 0 0 0 0 1779 1779 1779 1781 1781 1781 1769 1767 1758 1758 1749 1744 1740 1737 1734 1732 1729 1726 1723 1721 1719 1717 1714 1711 1710 1706 1704 1701 1698 1695 1691 1689 1685 1683 1680 1677 1676 1674 1672 1671 1669 1666 1664 1662 1660 1658 1656 1652 1649 1647 1645 1641 1637 1633 1631 1631 1630 1629 1628 1628 1626 1624 1622 1619 1617 1614 1612 1609 1604 1603 1603 1598 1594 1589 1587 1586 1583 1580 1579 1579 1577 1574 1574 1571 1570 1569 1567 1567 1567 1567 1567 1565 1563 1563 1562 1560 1558 1557 1555 1554 1551 1549 1547 1545 1544 1542 1540 1538 1537 1534 1532 1530 1528 1526 1524 1521 1519 1516 1513 1508 1507 1506 1503 1499 1496 1493 1491 1489 1487 1485 1483 1481 1480 1479 1477 1476 1474 1472 1471 1470 1470 1469 1467 1464 1462 1461 1461 1458 1455 1450 1447 1444 1441 1439 1437 1436 1433 1433 1433 1432 1429 1428 1427 1426 1424 1423 1422 1421 1419 1419 1419 1419 1419 1419 1419 1418 1418 1417 1417 1415 1414 1412 1410 1408 1407 1406 1406 1405 1403 1401 1399 1398 1397 1397 1396 1395 1393 1391 1390 1388 1386 1384 1382 1382 1381 1379 1377 1377 1375 1374 1373 1372 1371 1370 1370 1369 1367 1367 1367 1366 1366 1366 1367 1375 0 0 0 0 0 0 0 1959 1963 1966 1966 1966 1966 1967 1969 1969 1969 1968 1968 1967 1967 1965 1964 1963 1962 1960 1959 1958 1956 1954 1953 1952 1951 1951 1951 1950 1949 1948 1947 1946 1945 1944 1944 1943 1942 1942 1942 1942 1944 1944 1944 1943 1943 1943 1943 1944 1944 1945 1947 1949 1949 1949 1949 1948 1946 1946 1945 1945 1945 1946 1946 1946 1943 1941 1941 1941 1941 1941 1950 0
3007 3007 3007 3007 3007 3007 3007 3023 3023 3023 3020 2905 2565 0 0 0 0 2270 2345 2363 2396 2397 2397 2398 2397 2397 2365 2334 2334 2334 2363 2418 2446 2449 2451 2452 2463 2474 2475 2480 2490 2499 2508 2522 2536 2552 2554 2654 2746 2826 2909 2923 3053 3185 3340 3340 3342 3346 3352 3352 3358 3362 3366 3369 3375 3384 3391 3394 3395 3398 3410 3414 3439 3445 3447 3455 3457 3458 3458 3461 3462 3464 3470 3475 3480 3481 3481 3483 3483 3485 3490 3491 3495 3496 3497 3498 3498 3498 3498 3492 3488 3488 3488 3490 3492 3493 3495 3497 3499 3503 3505 3507 3512 3514 3518 3520 3523 3525 3527 3530 3532 3535 3539 3541 3545 3548 3551 3553 3555 3559 3563 3567 3570 3573 3578 3581 3587 3589 3592 3594 3600 3604 3611 3614 3615 3619 3621 3624 3627 3631 3633 3637 3640 3644 3649 3653 3657 3660 3663 3668 3674 3679 3682 3685 3690 3693 3694 3695 3699 3702 3707 3714 3722 3728 3732 3733 3735 3737 3742 3743 3749 3755 3759 3763 3768 3774 3779 3785 3788 3793 3795 3796 3798 3800 3801 3801 3802 3805 3807 3809 3810 3811 3811 3813 3815 3818 3821 3825 3828 3831 3833 3837 3840 3844 3846 3848 3850 3857 3861 3865 3868 3870 3873 3874 3880 3887 3897 3905 3910 3915 3918 3921 3922 3923 3925 3927 3933 3936 3939 3944 3946 3949 3951 3954 3957 3959 3960 3961 3961 3961 3961 3960 3960 3959 3959 3959 3961 3964 3965 3966 3967 3972 3979 3986 3991 3996 4004 4010 4014 4018 4020 4023 4025 4025 4026 4026 4026 4027 4027 4028 4028 4028 4028 4028 4028 4028 4028 4027 4025 4021 4017 4017 4017 4015 4014 4015 4014 4013 4013 4013 4010 4004 3989 3971 3945 3902 3856 3739 3446 3174 2856 2524 0 0 0 0 0 0 0 0 0 0 0 0 0 0 0 0 0 0 0 0 0 0 0 1787 1779 1779 1779 1776 1772 1772 1769 1768 1758 1749 1749 1744 1739 1735 1733 1731 1728 1725 1723 1720 1718 1716 1713 1711 1708 1706 1702 1700 1697 1693 1691 1688 1685 1682 1680 1677 1675 1674 1672 1670 1668 1666 1664 1661 1660 1658 1655 1651 1649 1646 1643 1640 1637 1634 1632 1631 1631 1629 1628 1628 1626 1624 1622 1619 1617 1614 1612 1608 1603 1602 1601 1598 1594 1589 1585 1584 1581 1579 1577 1576 1575 1573 1572 1570 1569 1567 1565 1564 1564 1564 1564 1562 1562 1561 1561 1559 1557 1556 1555 1553 1551 1549 1547 1545 1543 1541 1540 1537 1535 1533 1531 1529 1527 1525 1523 1520 1518 1516 1513 1508 1506 1506 1502 1499 1495 1493 1491 1489 1487 1485 1483 1481 1480 1479 1477 1476 1474 1472 1472 1471 1470 1469 1467 1464 1461 1461 1460 1459 1455 1450 1447 1444 1441 1439 1437 1435 1433 1432 1432 1430 1428 1427 1426 1425 1424 1423 1422 1421 1419 1418 1418 1418 1418 1418 1418 1418 1417 1416 1415 1414 1413 1411 1410 1407 1406 1405 1404 1403 1402 1401 1398 1397 1397 1396 1396 1394 1393 1391 1388 1386 1384 1383 1381 1381 1380 1378 1377 1375 1375 1373 1372 1371 1370 1369 1369 1367 1367 1367 1367 1366 1365 1365 1365 1375 1391 0 0 0 0 0 0 1959 1959 1962 1962 1964 1966 1967 1967 1967 1968 1967 1967 1967 1966 1965 1963 1962 1962 1960 1959 1958 1956 1954 1953 1953 1951 1951 1951 1950 1949 1947 1946 1944 1944 1942 1941 1940 1939 1939 1939 1939 1941 1941 1941 1941 1941 1942 1942 1942 1942 1944 1946 1947 1947 1947 1947 1946 1944 1944 1943 1943 1943 1943 1943 1943 1941 1936 1936 1936 1938 1938 1947 0
3007 3007 3007 3007 3007 3007 3007 3011 3011 3011 2957 2784 0 0 0 0 0 0 0 2354 2357 2366 2366 2387 2387 2387 2365 2334 2334 2334 2385 2437 2446 2449 2451 2452 2463 2474 2474 2474 2468 2468 2468 2496 2508 2551 2553 2580 2614 2654 2694 2698 2737 2850 2904 3032 3131 3241 3344 3347 3355 3355 3356 3360 3365 3378 3391 3395 3398 3410 3410 3410 3437 3442 3444 3455 3457 3458 3459 3462 3464 3471 3471 3475 3484 3484 3484 3485 3485 3485 3491 3494 3497 3497 3498 3499 3500 3499 3498 3498 3493 3492 3492 3492 3494 3496 3497 3499 3501 3504 3505 3509 3512 3515 3519 3520 3523 3526 3528 3531 3533 3537 3540 3541 3545 3548 3551 3555 3559 3563 3568 3570 3572 3573 3578 3581 3587 3589 3592 3594 3596 3604 3611 3614 3615 3619 3621 3624 3627 3631 3633 3637 3641 3647 3650 3655 3657 3660 3663 3668 3674 3679 3682 3688 3692 3696 3698 3700 3703 3705 3710 3716 3722 3729 3733 3734 3737 3739 3742 3746 3752 3756 3761 3765 3770 3775 3781 3787 3791 3793 3795 3797 3799 3800 3802 3803 3805 3807 3809 3810 3811 3812 3813 3814 3817 3820 3822 3825 3830 3834 3835 3838 3842 3845 3849 3850 3852 3857 3862 3865 3868 3871 3874 3879 3881 3889 3897 3905 3910 3915 3918 3920 3922 3922 3924 3927 3933 3936 3939 3944 3946 3948 3951 3953 3957 3959 3960 3961 3962 3962 3962 3962 3961 3960 3960 3961 3961 3964 3967 3971 3975 3979 3985 3990 3994 3998 4004 4010 4016 4021 4023 4024 4025 4026 4026 4027 4027 4028 4030 4031 4031 4030 4030 4030 4030 4030 4029 4028 4026 4021 4017 4017 4017 4015 4014 4015 4014 4013 4013 4012 4009 3993 3975 3923 3878 3811 3760 3024 2619 0 0 0 0 0 0 0 1832 1817 1815 1806 1806 1806 1810 1811 1812 1812 1811 1811 1812 1811 1806 1806 1804 1794 1793 1787 1779 1779 1779 1776 1775 1766 1764 1764 1756 1747 1743 1740 1737 1734 1733 1731 1728 1725 1723 1720 1718 1716 1713 1710 1708 1705 1701 1698 1696 1693 1690 1688 1685 1682 1679 1677 1675 1672 1671 1669 1667 1665 1663 1661 1660 1658 1655 1651 1649 1646 1643 1640 1637 1635 1633 1633 1633 1630 1628 1628 1627 1625 1622 1618 1616 1613 1611 1606 1603 1600 1599 1598 1595 1588 1584 1580 1580 1578 1575 1574 1572 1570 1569 1567 1566 1565 1565 1563 1563 1563 1562 1561 1561 1560 1560 1559 1557 1556 1554 1553 1551 1548 1546 1545 1542 1540 1538 1536 1533 1532 1529 1528 1526 1525 1522 1519 1516 1514 1512 1508 1506 1505 1502 1498 1495 1493 1491 1489 1487 1485 1484 1483 1481 1480 1477 1476 1474 1473 1472 1471 1471 1469 1467 1464 1461 1460 1460 1459 1454 1448 1444 1443 1441 1438 1437 1434 1432 1430 1430 1429 1428 1426 1425 1424 1423 1423 1422 1420 1419 1418 1418 1418 1418 1418 1418 1418 1417 1415 1414 1414 1412 1410 1408 1406 1405 1404 1404 1403 1401 1399 1398 1397 1396 1395 1395 1394 1392 1390 1387 1386 1384 1382 1380 1380 1379 1378 1376 1374 1373 1373 1372 1370 1369 1368 1367 1367 1367 1366 1366 1366 1365 1365 1365 1371 1390 1400 1405 0 0 0 0 0 1955 1959 1959 1963 1965 1967 1967 1966 1967 1966 1966 1966 1966 1964 1963 1962 1961 1960 1959 1958 1956 1954 1953 1953 1952 1951 1950 1949 1948 1945 1944 1944 1943 1942 1941 1939 1938 1938 1938 1939 1939 1939 1940 1940 1940 1941 1941 1941 1941 1941 1943 1945 1945 1945 1944 1943 1943 1943 1943 1942 1942 1942 1942 1941 1939 1935 1935 1935 1938 1938 1947 0
3007 3007 3007 3007 3007 3007 3007 3011 3011 3011 2930 2723 0 0 0 0 0 0 0 2325 2329 2337 2366 2387 2387 2387 2365 2358 2358 2358 2418 2440 2442 2444 2446 2446 2461 2462 2462 2462 2437 2437 2437 2463 2507 2514 2526 2537 2561 2587 2602 2605 2615 2626 2636 2688 2706 2899 3030 3135 3311 3333 3348 3350 3352 3377 3379 3386 3391 3410 3425 3429 3435 3437 3444 3454 3457 3458 3459 3462 3464 3471 3480 3482 3485 3485 3485 3485 3485 3485 3491 3494 3497 3498 3498 3499 3500 3499 3499 3499 3496 3495 3495 3495 3496 3497 3498 3502 3503 3505 3508 3511 3512 3516 3519 3522 3525 3527 3530 3532 3535 3538 3541 3544 3545 3548 3551 3557 3562 3567 3572 3575 3577 3578 3581 3584 3587 3592 3593 3594 3596 3603 3604 3609 3614 3619 3622 3625 3628 3631 3633 3637 3642 3647 3654 3656 3659 3660 3663 3668 3674 3679 3684 3689 3693 3696 3699 3701 3703 3707 3710 3717 3723 3729 3733 3735 3737 3740 3743 3749 3753 3758 3763 3768 3771 3775 3781 3787 3791 3793 3795 3797 3799 3801 3803 3805 3808 3809 3809 3810 3811 3813 3814 3816 3818 3821 3824 3828 3831 3835 3838 3841 3843 3847 3850 3854 3857 3858 3862 3866 3868 3871 3875 3879 3882 3889 3897 3905 3910 3915 3918 3920 3921 3922 3924 3927 3933 3936 3939 3941 3945 3948 3951 3953 3955 3958 3959 3961 3962 3962 3962 3962 3962 3961 3961 3961 3961 3966 3972 3976 3980 3984 3988 3992 3996 3998 4005 4012 4017 4023 4025 4026 4027 4029 4029 4029 4030 4032 4032 4032 4032 4033 4033 4033 4033 4033 4032 4031 4027 4021 4017 4017 4017 4015 4014 4014 4014 4013 4012 4005 3996 3976 3943 3860 3780 3645 3006 0 0 0 0 0 0 0 1817 1814 1812 1808 1806 1803 1803 1803 1803 1803 1807 1807 1807 1807 1806 1806 1806 1806 1804 1799 1799 1796 1796 1796 1791 1790 1780 1767 1764 1758 1756 1746 1743 1740 1736 1733 1732 1730 1728 1725 1723 1720 1718 1715 1712 1710 1707 1704 1701 1697 1695 1692 1689 1687 1684 1682 1679 1676 1675 1672 1670 1668 1666 1664 1662 1660 1659 1658 1655 1651 1649 1646 1643 1640 1637 1636 1635 1634 1633 1631 1629 1628 1627 1625 1622 1618 1616 1613 1611 1606 1603 1600 1599 1598 1595 1588 1583 1579 1576 1575 1572 1571 1570 1568 1568 1567 1564 1564 1563 1562 1562 1562 1561 1560 1560 1559 1557 1556 1555 1555 1554 1552 1549 1547 1545 1543 1541 1539 1537 1535 1532 1530 1527 1526 1524 1522 1519 1516 1515 1509 1508 1507 1506 1504 1502 1498 1496 1493 1491 1489 1487 1487 1485 1483 1482 1480 1478 1476 1474 1473 1472 1472 1471 1469 1467 1464 1461 1460 1459 1459 1454 1448 1444 1443 1440 1438 1436 1433 1432 1430 1430 1429 1427 1426 1424 1423 1423 1422 1422 1420 1419 1418 1417 1417 1417 1417 1417 1417 1417 1415 1414 1413 1411 1410 1408 1406 1404 1403 1402 1401 1400 1397 1397 1396 1395 1395 1395 1393 1392 1389 1387 1385 1383 1382 1380 1378 1377 1376 1376 1374 1373 1371 1370 1370 1368 1367 1367 1366 1366 1366 1366 1366 1365 1365 1365 1370 1386 1398 1401 1408 0 0 0 0 1952 1955 1959 1963 1965 1967 1967 1966 1967 1966 1966 1966 1966 1964 1962 1962 1961 1960 1959 1958 1956 1954 1953 1953 1952 1951 1950 1948 1947 1944 1943 1943 1942 1942 1939 1937 1936 1936 1936 1936 1938 1938 1938 1938 1939 1940 1940 1940 1940 1940 1942 1942 1942 1942 1942 1942 1942 1942 1942 1941 1941 1941 1941 1940 1939 1933 1933 1933 1938 1938 1947 0
3011 3011 3011 3011 3010 3010 3010 3010 3010 2978 2869 2584 0 0 0 0 0 0 0 2325 2329 2337 2366 2385 2385 2385 2372 2372 2372 2400 2445 2445 2445 2444 2443 2443 2444 2444 2444 2444 2436 2436 2436 2463 2474 2475 2480 2480 2489 2526 2550 2550 2550 2536 2533 2533 2533 2563 2620 2667 2777 2889 3013 3178 3247 3361 3379 3386 3390 3391 3401 3402 3427 3433 3435 3439 3445 3450 3458 3462 3463 3471 3480 3482 3485 3485 3485 3485 3485 3485 3491 3497 3497 3498 3498 3500 3500 3501 3501 3501 3497 3497 3497 3497 3499 3500 3501 3504 3507 3509 3510 3512 3514 3517 3519 3522 3525 3528 3531 3534 3536 3540 3543 3545 3548 3550 3554 3560 3565 3572 3574 3578 3580 3582 3584 3585 3590 3594 3594 3594 3596 3603 3604 3609 3614 3619 3623 3627 3630 3632 3637 3642 3645 3650 3654 3658 3661 3662 3666 3670 3675 3681 3685 3689 3693 3696 3699 3702 3705 3708 3712 3718 3723 3731 3733 3736 3738 3741 3744 3750 3757 3761 3765 3768 3772 3777 3781 3787 3791 3793 3795 3797 3799 3802 3805 3807 3808 3809 3810 3810 3811 3813 3816 3817 3820 3822 3825 3829 3834 3838 3842 3844 3847 3850 3853 3857 3859 3863 3866 3869 3870 3872 3876 3880 3886 3892 3900 3905 3910 3912 3915 3918 3920 3921 3922 3925 3930 3933 3936 3939 3942 3945 3948 3951 3954 3955 3958 3960 3961 3961 3962 3962 3962 3961 3961 3961 3961 3967 3974 3978 3982 3987 3991 3996 3999 4003 4006 4012 4018 4025 4029 4031 4031 4032 4033 4033 4033 4034 4034 4035 4035 4035 4035 4037 4040 4040 4040 4038 4031 4022 4019 4019 4019 4021 4021 4021 4018 4012 4006 3994 3965 3956 3925 3477 3128 2803 0 0 0 0 0 1839 1828 1812 1812 1810 1808 1806 1806 1802 1801 1801 1801 1800 1800 1801 1801 1801 1803 1803 1803 1797 1794 1794 1794 1796 1796 1796 1790 1778 1772 1771 1767 1758 1754 1746 1742 1740 1736 1732 1731 1729 1727 1725 1723 1720 1717 1714 1711 1709 1706 1703 1699 1697 1694 1691 1689 1686 1684 1681 1679 1676 1673 1671 1669 1667 1665 1664 1662 1660 1658 1656 1654 1651 1648 1646 1643 1641 1639 1638 1635 1635 1633 1631 1629 1628 1627 1625 1622 1618 1616 1613 1611 1606 1603 1600 1599 1598 1595 1587 1582 1578 1575 1572 1570 1570 1569 1568 1568 1566 1563 1561 1561 1561 1561 1560 1559 1559 1559 1557 1557 1555 1555 1554 1552 1551 1549 1547 1544 1542 1539 1537 1535 1533 1531 1529 1526 1524 1520 1517 1515 1514 1511 1507 1507 1507 1506 1504 1502 1498 1496 1495 1493 1491 1489 1488 1486 1484 1483 1482 1478 1477 1476 1473 1473 1472 1471 1469 1467 1465 1462 1460 1459 1458 1452 1448 1444 1443 1440 1438 1435 1433 1432 1430 1430 1428 1427 1425 1424 1423 1423 1423 1422 1420 1419 1419 1417 1417 1417 1417 1417 1417 1416 1415 1413 1412 1410 1409 1408 1405 1404 1403 1401 1400 1399 1397 1397 1395 1395 1394 1393 1392 1390 1388 1386 1384 1383 1381 1379 1378 1377 1376 1375 1373 1372 1371 1369 1369 1367 1366 1366 1366 1365 1365 1365 1365 1365 1365 1365 1370 1378 1395 1398 1402 0 0 0 0 0 1952 1957 1963 1965 1967 1967 1966 1966 1966 1966 1966 1965 1964 1962 1961 1961 1960 1959 1957 1955 1954 1953 1953 1952 1951 1949 1947 1946 1943 1942 1941 1941 1941 1938 1936 1934 1934 1934 1935 1936 1936 1936 1937 1938 1939 1939 1939 1939 1939 1939 1940 1940 1940 1940 1940 1940 1940 1940 1940 1939 1939 1938 1938 1935 1933 1933 1933 1938 1938 1949 0
3016 3016 3015 3015 3010 3010 3009 3009 3009 2969 2778 0 0 0 0 0 0 0 0 2329 2331 2337 2369 2393 2405 0 0 0 0 0 0 0 2446 2444 2443 2443 2444 2444 2444 2444 2436 2436 2436 2463 2471 2474 2477 2477 2489 2510 2510 2510 2510 2503 2496 2494 2491 2491 2491 2497 2520 2598 2669 2819 2940 3094 3222 3320 3390 3391 3399 3401 3422 3423 3425 3425 3438 3438 3440 3463 3466 3473 3482 3484 3484 3489 3490 3490 3490 3490 3491 3494 3498 3498 3500 3500 3500 3502 3502 3502 3501 3500 3500 3500 3500 3502 3503 3506 3509 3512 3512 3513 3515 3518 3522 3524 3526 3528 3531 3534 3537 3541 3544 3548 3551 3553 3557 3562 3568 3574 3577 3581 3583 3586 3587 3590 3591 3596 3600 3605 3605 3605 3608 3609 3614 3620 3624 3627 3630 3634 3639 3643 3646 3650 3655 3659 3662 3665 3669 3674 3678 3682 3686 3689 3693 3696 3700 3703 3707 3711 3715 3718 3723 3731 3735 3737 3739 3742 3747 3753 3761 3763 3767 3771 3774 3777 3781 3786 3790 3794 3795 3797 3799 3802 3805 3807 3809 3809 3810 3810 3811 3813 3816 3820 3824 3825 3828 3832 3837 3841 3845 3848 3851 3853 3856 3859 3862 3865 3868 3871 3872 3873 3876 3881 3888 3893 3900 3905 3909 3911 3914 3918 3920 3921 3922 3924 3928 3930 3933 3934 3938 3942 3946 3949 3951 3954 3957 3959 3961 3961 3961 3962 3962 3962 3962 3962 3963 3970 3974 3979 3983 3987 3992 3998 4002 4007 4011 4015 4020 4028 4032 4034 4035 4036 4037 4037 4037 4037 4037 4037 4037 4038 4040 4043 4045 4045 4045 4043 4036 4027 4024 4024 4024 4023 4023 4022 4018 4011 3994 3967 3932 3864 3527 2976 0 0 0 0 0 1855 1847 1839 1828 1812 1812 1810 1810 1806 1806 1805 1803 1803 1802 1802 1801 1798 1798 1798 1800 1800 1800 1797 1794 1794 1794 1796 1796 1796 1786 1778 1771 1768 1767 1758 1754 1745 1741 1739 1736 1731 1729 1727 1726 1723 1721 1719 1716 1713 1710 1708 1705 1702 1698 1695 1693 1690 1688 1684 1682 1681 1677 1675 1672 1670 1668 1666 1664 1663 1662 1660 1658 1656 1654 1651 1647 1646 1643 1641 1639 1638 1636 1635 1633 1632 1630 1629 1627 1625 1622 1619 1616 1614 1611 1606 1604 1601 1597 1596 1595 1587 1581 1577 1574 1572 1570 1569 1568 1567 1567 1564 1562 1559 1559 1558 1558 1558 1557 1556 1556 1556 1556 1555 1553 1552 1550 1549 1547 1546 1544 1541 1538 1536 1534 1532 1530 1527 1525 1524 1516 1513 1512 1510 1510 1507 1507 1506 1505 1503 1502 1499 1497 1495 1493 1491 1489 1488 1486 1485 1484 1482 1480 1478 1476 1475 1473 1472 1471 1469 1467 1465 1463 1460 1457 1455 1451 1448 1444 1443 1440 1438 1435 1433 1432 1431 1429 1428 1427 1425 1424 1423 1423 1423 1422 1422 1421 1419 1417 1417 1417 1417 1417 1417 1416 1414 1413 1412 1410 1408 1406 1405 1404 1402 1401 1399 1398 1397 1396 1395 1394 1392 1391 1390 1388 1386 1384 1383 1382 1380 1379 1378 1376 1376 1373 1373 1372 1370 1369 1368 1367 1366 1365 1365 1364 1364 1363 1363 1363 1363 1364 1366 1367 1382 1392 1396 0 0 0 0 0 1949 1955 1956 1964 1966 1966 1964 1965 1965 1965 1965 1965 1964 1962 1961 1960 1959 1958 1957 1955 1954 1953 1953 1952 1951 1949 1947 1944 1942 1940 1940 1940 1938 1936 1934 1934 1934 1934 1934 1935 1935 1935 1936 1937 1937 1937 1936 1936 1936 1937 1937 1937 1936 1935 1935 1935 1936 1936 1936 1936 1936 1935 1935 1935 1935 1935 1935 1945 1945 1957 0
3033 3033 3017 3017 3017 3017 3008 3008 3002 2949 2654 0 0 0 0 0 0 0 0 2358 2362 2370 2370 2395 2422 0 0 2613 2623 2623 2623 2544 2507 0 0 0 0 2444 2444 2444 2437 2437 2437 2466 2471 2474 2477 2477 2489 2510 2510 2510 2508 2503 2496 2494 2491 2491 2491 2497 2505 2514 2527 2570 2677 2755 2879 2960 3129 3144 3291 3382 3396 3409 3419 3419 3427 3431 3431 3454 3463 3475 3479 3479 3487 3495 3495 3496 3496 3496 3496 3498 3498 3498 3500 3500 3500 3502 3503 3503 3503 3503 3502 3502 3504 3504 3504 3507 3510 3513 3513 3516 3518 3520 3523 3525 3528 3530 3533 3535 3539 3542 3548 3552 3554 3557 3561 3564 3569 3574 3577 3581 3585 3588 3591 3593 3595 3598 3603 3608 3613 3614 3614 3618 3623 3626 3627 3629 3631 3636 3641 3644 3648 3650 3655 3659 3662 3665 3669 3674 3678 3682 3686 3689 3694 3698 3701 3705 3709 3713 3716 3720 3723 3731 3735 3739 3743 3746 3750 3755 3762 3765 3769 3771 3775 3778 3781 3786 3789 3793 3795 3797 3799 3802 3805 3807 3809 3809 3811 3811 3814 3817 3820 3823 3824 3826 3830 3835 3840 3845 3848 3851 3853 3856 3859 3860 3863 3865 3869 3871 3873 3874 3878 3884 3889 3893 3900 3905 3907 3911 3914 3917 3920 3920 3921 3924 3925 3928 3931 3932 3935 3939 3943 3946 3949 3952 3955 3956 3960 3961 3961 3961 3961 3962 3962 3962 3965 3971 3976 3981 3984 3989 3994 3998 4002 4007 4012 4019 4025 4031 4034 4037 4038 4039 4040 4040 4040 4041 4041 4041 4043 4044 4044 4046 4048 4048 4048 4044 4040 4031 4026 4026 4025 4023 4023 4022 4018 4001 3975 3919 3517 3265 2949 0 0 0 0 0 1886 1855 1847 1839 1829 1817 1812 1812 1815 1815 1814 1814 1808 1807 1803 1803 1801 1798 1796 1796 1796 1796 1796 1796 1793 1791 1791 1790 1789 1789 1781 1778 1767 1767 1762 1757 1746 1743 1741 1738 1734 1730 1727 1726 1724 1723 1721 1718 1715 1712 1710 1708 1705 1700 1697 1694 1691 1689 1686 1684 1681 1678 1676 1673 1671 1670 1667 1666 1664 1662 1659 1659 1657 1656 1654 1651 1647 1646 1643 1641 1639 1638 1636 1634 1633 1631 1630 1629 1627 1625 1622 1619 1616 1614 1611 1606 1604 1601 1599 1592 1590 1587 1581 1577 1574 1572 1570 1569 1567 1566 1565 1564 1561 1559 1558 1557 1556 1556 1556 1555 1555 1555 1555 1554 1552 1551 1549 1548 1546 1546 1544 1541 1537 1534 1533 1532 1530 1527 1524 1522 1516 1512 1510 1510 1509 1506 1505 1504 1503 1503 1502 1499 1497 1495 1493 1491 1490 1488 1487 1485 1484 1482 1480 1478 1477 1475 1473 1472 1471 1469 1467 1465 1463 1460 1457 1455 1451 1449 1446 1443 1440 1438 1435 1433 1433 1431 1430 1428 1427 1425 1424 1423 1423 1423 1422 1422 1421 1419 1417 1417 1417 1417 1417 1417 1416 1414 1413 1411 1409 1408 1406 1405 1403 1401 1400 1399 1397 1397 1395 1395 1393 1391 1390 1389 1387 1386 1384 1382 1381 1380 1378 1378 1376 1374 1373 1372 1371 1370 1369 1367 1367 1366 1365 1365 1364 1363 1363 1363 1363 1363 1364 1364 1365 1368 1381 1386 1392 0 0 0 0 1945 1949 1951 1961 1963 1963 1963 1963 1964 1965 1965 1965 1964 1962 1960 1960 1959 1958 1957 1955 1954 1953 1952 1951 1950 1949 1946 1942 1940 1939 1938 1938 1936 1935 1933 1933 1933 1933 1933 1933 1933 1934 1934 1936 1936 1936 1935 1935 1935 1935 1935 1934 1933 1932 1932 1932 1933 1933 1933 1934 1934 1934 1934 1935 1936 1944 1944 1947 1947 1957 0
3064 3064 3017 3017 3017 3017 3017 3017 3002 2894 2509 0 0 0 0 0 0 0 2351 2358 2376 2377 2381 2396 2428 0 2600 2665 2702 2710 2710 2702 2695 2659 2656 2626 0 0 2461 2456 2449 2449 2449 2477 2477 2477 2477 2477 2495 2510 2510 2510 2507 2503 2496 2494 2491 2491 2491 2497 2505 2509 2514 2515 2520 2544 2565 2616 2663 2665 2835 2952 3141 3215 3339 3388 3395 3398 3422 3449 3460 3463 3477 3483 3484 3494 3495 3497 3503 3503 3503 3503 3503 3501 3501 3501 3505 3505 3505 3505 3505 3506 3506 3506 3507 3507 3507 3511 3511 3513 3515 3518 3518 3521 3524 3527 3530 3532 3535 3538 3540 3544 3550 3556 3559 3561 3562 3566 3570 3575 3577 3582 3586 3589 3593 3597 3600 3603 3609 3612 3615 3616 3619 3623 3627 3630 3630 3633 3633 3638 3642 3646 3648 3651 3655 3659 3662 3665 3669 3674 3678 3683 3687 3692 3696 3700 3704 3706 3710 3714 3717 3720 3723 3731 3735 3739 3743 3746 3751 3757 3762 3765 3769 3771 3775 3778 3781 3785 3789 3793 3795 3797 3799 3802 3805 3807 3809 3811 3812 3814 3815 3817 3822 3824 3829 3831 3834 3838 3843 3847 3851 3853 3856 3858 3860 3861 3863 3865 3869 3871 3873 3875 3880 3885 3890 3894 3900 3905 3907 3911 3914 3917 3920 3920 3921 3923 3925 3928 3930 3932 3934 3937 3941 3945 3948 3949 3952 3955 3959 3960 3960 3961 3961 3962 3962 3964 3967 3971 3979 3983 3989 3992 3994 3998 4002 4007 4012 4019 4027 4033 4037 4039 4040 4041 4041 4042 4043 4043 4044 4046 4049 4051 4052 4055 4055 4055 4051 4046 4044 4039 4037 4035 4032 4028 4022 4018 4004 3979 3949 3430 3008 2925 0 0 0 0 1920 1899 1886 1855 1850 1847 1829 1827 1820 1819 1817 1817 1816 1816 1814 1809 1805 1803 1802 1798 1798 1798 1798 1796 1796 1796 1793 1791 1788 1786 1786 1784 1781 1773 1767 1766 1761 1750 1746 1741 1740 1737 1734 1729 1727 1725 1723 1722 1720 1718 1714 1711 1708 1707 1703 1700 1696 1694 1691 1688 1686 1683 1680 1677 1675 1673 1671 1668 1666 1665 1662 1660 1659 1658 1657 1654 1652 1651 1647 1644 1642 1641 1639 1637 1636 1634 1632 1631 1630 1629 1627 1625 1622 1619 1616 1614 1611 1606 1604 1601 1600 1592 1590 1587 1581 1578 1574 1572 1571 1569 1567 1566 1565 1563 1560 1558 1557 1556 1555 1554 1553 1553 1553 1553 1553 1553 1551 1550 1549 1548 1546 1545 1543 1541 1537 1533 1532 1531 1529 1525 1521 1517 1514 1512 1509 1507 1506 1505 1505 1503 1502 1502 1501 1499 1497 1495 1493 1491 1489 1488 1487 1485 1484 1482 1480 1478 1477 1475 1473 1472 1470 1469 1467 1465 1463 1460 1457 1455 1451 1449 1446 1443 1441 1438 1436 1434 1433 1431 1430 1428 1427 1425 1424 1423 1423 1423 1422 1422 1421 1419 1418 1417 1417 1417 1417 1416 1416 1414 1412 1410 1408 1407 1405 1402 1402 1401 1399 1397 1397 1396 1395 1394 1392 1391 1390 1389 1387 1385 1383 1381 1379 1378 1378 1376 1376 1373 1371 1371 1371 1369 1368 1367 1366 1365 1364 1363 1363 1362 1362 1362 1362 1362 1361 1361 1361 1367 1381 1386 1386 0 0 0 0 0 1949 1951 1957 1961 1961 1961 1961 1961 1963 1963 1963 1963 1962 1960 1959 1959 1958 1956 1955 1954 1952 1952 1950 1950 1949 1945 1941 1940 1938 1936 1936 1936 1934 1933 1932 1932 1932 1933 1933 1933 1933 1934 1934 1934 1934 1934 1934 1933 1933 1933 1932 1931 1930 1930 1930 1930 1932 1932 1932 1932 1934 1934 1934 1937 1944 1944 1947 1947 1957 0
3064 3064 3050 3050 3025 3025 3021 3021 3009 2795 0 0 0 0 0 0 0 2326 2351 2358 2376 2384 2386 2409 0 2506 2619 2684 2712 2714 2715 2725 2742 2742 2742 2628 2535 0 0 0 2464 2464 2464 2486 2490 2496 2497 2506 2510 2510 2510 2511 2512 2513 2523 2535 2535 2535 2514 2514 2514 2505 2505 2514 2514 2514 2525 2529 2553 2555 2592 2657 2684 2793 2919 3079 3235 3278 3366 3446 3454 3462 3476 3479 3481 3494 3495 3503 3503 3503 3504 3503 3504 3504 3504 3504 3511 3511 3513 3513 3513 3512 3512 3510 3509 3509 3509 3511 3511 3513 3515 3519 3520 3524 3526 3529 3532 3534 3537 3539 3541 3546 3552 3556 3560 3563 3564 3568 3571 3575 3578 3582 3586 3591 3598 3603 3606 3610 3613 3615 3618 3619 3621 3624 3629 3634 3637 3638 3639 3643 3646 3649 3651 3654 3655 3659 3663 3665 3670 3674 3678 3683 3687 3694 3697 3701 3705 3708 3710 3714 3718 3720 3723 3731 3735 3739 3743 3747 3752 3757 3762 3765 3769 3772 3776 3778 3781 3784 3788 3793 3795 3796 3799 3802 3805 3807 3809 3812 3813 3816 3817 3821 3823 3825 3829 3832 3839 3843 3845 3849 3853 3855 3858 3859 3860 3862 3863 3866 3869 3871 3874 3878 3881 3887 3891 3896 3900 3905 3907 3912 3914 3917 3920 3920 3921 3923 3925 3927 3930 3932 3934 3936 3939 3943 3946 3948 3951 3952 3957 3959 3960 3960 3961 3961 3962 3964 3969 3973 3979 3983 3989 3992 3994 3997 3999 4004 4012 4019 4027 4033 4037 4040 4042 4042 4043 4046 4046 4048 4048 4049 4051 4052 4055 4055 4055 4055 4051 4046 4044 4042 4038 4035 4032 4028 4009 3993 3939 3574 3173 3002 2933 0 0 0 0 1945 1920 1911 1899 1877 1863 1861 1860 1840 1830 1829 1823 1820 1820 1818 1814 1811 1807 1804 1802 1798 1798 1794 1794 1793 1792 1792 1792 1788 1787 1783 1781 1778 1775 1770 1765 1759 1754 1750 1743 1739 1739 1736 1732 1728 1726 1724 1723 1721 1719 1717 1713 1710 1708 1705 1703 1700 1696 1693 1690 1688 1685 1682 1679 1676 1674 1672 1671 1668 1665 1664 1661 1659 1658 1658 1657 1654 1652 1648 1645 1643 1642 1640 1639 1637 1635 1634 1632 1631 1629 1628 1627 1624 1621 1618 1616 1614 1611 1606 1604 1601 1600 1592 1590 1587 1581 1579 1576 1574 1571 1569 1567 1566 1565 1563 1560 1558 1556 1555 1554 1552 1551 1551 1551 1553 1553 1553 1550 1550 1549 1548 1546 1545 1543 1540 1535 1531 1531 1528 1526 1523 1519 1516 1514 1510 1508 1507 1505 1505 1503 1502 1501 1501 1499 1497 1496 1495 1493 1491 1489 1488 1487 1486 1484 1482 1480 1479 1477 1475 1473 1471 1470 1468 1467 1465 1463 1460 1458 1455 1451 1449 1446 1443 1441 1440 1439 1436 1433 1431 1431 1430 1428 1426 1425 1424 1423 1423 1422 1421 1420 1419 1418 1417 1417 1417 1416 1416 1416 1414 1412 1409 1407 1406 1403 1402 1400 1398 1397 1397 1396 1396 1395 1393 1391 1391 1389 1388 1387 1385 1382 1379 1378 1377 1376 1375 1373 1373 1371 1371 1370 1368 1368 1366 1366 1365 1364 1363 1363 1362 1362 1362 1361 1361 1360 1360 1360 1366 1383 1385 1396 0 0 0 0 0 1943 1951 1954 1958 1961 1961 1961 1961 1962 1962 1962 1962 1962 1960 1959 1959 1958 1956 1955 1953 1952 1951 1950 1949 1948 1945 1941 1940 1937 1936 1935 1934 1934 1932 1932 1932 1932 1933 1933 1933 1933 1933 1933 1933 1933 1933 1933 1932 1932 1932 1930 1930 1928 1928 1928 1930 1932 1932 1932 1932 1933 1933 1934 1937 1944 1944 1946 1946 1947 0
3064 3064 3064 3065 3066 3066 3066 3066 3030 2749 0 0 0 0 0 0 0 2326 2351 2354 2376 2391 2402 2425 0 2544 2644 2686 2713 2715 2715 2736 2747 2747 2747 2745 2710 2640 2629 2597 2541 0 0 2487 2498 2504 2507 2507 2515 2515 2515 2514 2514 2514 2535 2543 2543 2543 2537 2521 2520 2516 2515 2507 2505 2502 2502 2498 2498 2498 2509 2511 2515 2537 2610 2661 2794 2925 3027 3193 3303 3462 3476 3479 3481 3492 3495 3503 3504 3504 3509 3510 3509 3509 3518 3519 3518 3522 3522 3518 3517 3517 3517 3516 3514 3511 3511 3511 3513 3516 3518 3520 3524 3525 3527 3530 3533 3536 3540 3543 3544 3547 3552 3557 3561 3563 3565 3568 3572 3575 3578 3583 3587 3592 3600 3604 3609 3612 3616 3618 3620 3621 3624 3628 3633 3637 3640 3641 3645 3647 3649 3652 3656 3657 3657 3659 3663 3666 3670 3674 3678 3686 3690 3694 3697 3701 3706 3708 3711 3715 3718 3721 3724 3731 3735 3739 3743 3748 3753 3758 3762 3765 3768 3772 3776 3778 3781 3784 3788 3791 3793 3795 3799 3801 3805 3807 3809 3812 3813 3816 3819 3821 3823 3825 3829 3832 3839 3844 3846 3850 3853 3855 3858 3859 3861 3862 3863 3866 3871 3873 3876 3881 3885 3888 3893 3898 3900 3905 3909 3913 3914 3917 3917 3918 3920 3922 3924 3927 3930 3932 3934 3936 3939 3940 3943 3947 3948 3952 3954 3957 3958 3959 3959 3960 3962 3964 3969 3973 3979 3983 3989 3992 3994 3996 3999 4004 4010 4019 4027 4033 4037 4040 4043 4046 4046 4049 4050 4050 4050 4050 4051 4052 4055 4055 4055 4055 4051 4046 4044 4042 4038 4035 4032 4008 3985 3959 3526 3009 2710 2566 0 0 0 0 1946 1937 1920 1919 1916 1879 1867 1866 1866 1846 1832 1826 1826 1824 1823 1818 1815 1813 1809 1806 1804 1800 1798 1795 1792 1790 1790 1790 1790 1787 1783 1778 1778 1776 1771 1767 1764 1758 1754 1750 1743 1739 1738 1735 1731 1728 1726 1724 1722 1721 1719 1716 1712 1709 1707 1704 1702 1699 1696 1693 1690 1687 1684 1680 1678 1676 1673 1672 1670 1667 1665 1663 1661 1659 1658 1655 1653 1651 1650 1647 1645 1643 1641 1640 1638 1637 1635 1634 1632 1630 1628 1627 1625 1622 1620 1617 1615 1613 1611 1606 1604 1601 1601 1597 1594 1589 1587 1583 1579 1574 1571 1569 1567 1566 1564 1562 1560 1557 1556 1555 1554 1552 1551 1551 1551 1552 1552 1552 1550 1549 1549 1548 1545 1544 1542 1540 1534 1531 1529 1526 1524 1522 1518 1515 1511 1508 1505 1503 1502 1502 1501 1500 1500 1499 1498 1497 1496 1495 1493 1491 1490 1488 1487 1486 1484 1483 1480 1479 1477 1475 1473 1471 1469 1468 1466 1464 1463 1460 1459 1456 1453 1451 1449 1444 1442 1441 1441 1438 1435 1433 1432 1432 1429 1428 1426 1424 1423 1423 1422 1421 1420 1419 1418 1418 1417 1416 1416 1415 1415 1414 1412 1408 1405 1403 1402 1402 1400 1398 1397 1396 1396 1396 1394 1392 1391 1391 1389 1388 1385 1384 1381 1379 1378 1376 1375 1373 1372 1372 1371 1371 1370 1368 1367 1366 1365 1365 1364 1363 1362 1362 1361 1361 1361 1360 1359 1359 1359 1364 1383 1385 1386 0 0 0 0 0 1942 1943 1952 1956 1959 1959 1959 1960 1960 1960 1962 1962 1962 1960 1959 1959 1957 1956 1954 1953 1952 1951 1948 1948 1946 1943 1940 1939 1937 1935 1935 1934 1933 1932 1931 1931 1931 1932 1932 1932 1932 1932 1932 1932 1931 1931 1931 1931 1930 1930 1929 1929 1927 1927 1927 1930 1931 1931 1931 1931 1932 1933 1934 1937 1937 1937 1937 1935 1935 0
3065 3065 3065 3065 3066 3066 3066 3066 3030 2714 0 0 0 0 0 2264 2291 2323 2344 2347 2368 2391 2420 0 2528 2613 2650 2695 2713 2715 2716 2738 2761 2764 2768 2776 2800 2800 2800 2724 2670 2633 2623 2584 2563 2542 2526 2519 2519 2519 2519 2519 2522 2531 2536 2544 2544 2544 2540 2524 2523 2519 2516 2500 2500 2499 2496 2492 2490 2478 2478 2478 2503 2537 2559 2575 2599 2645 2702 2805 2881 3119 3275 3367 3454 3485 3487 3490 3504 3504 3511 3511 3514 3518 3522 3522 3518 3522 3524 3522 3522 3525 3522 3519 3519 3514 3514 3514 3516 3517 3519 3521 3525 3527 3528 3531 3534 3539 3540 3543 3545 3548 3552 3557 3561 3563 3565 3569 3573 3576 3580 3584 3588 3595 3601 3607 3611 3615 3616 3619 3621 3626 3630 3633 3636 3639 3641 3643 3646 3649 3651 3655 3657 3658 3662 3663 3664 3667 3671 3674 3681 3686 3690 3694 3697 3702 3706 3708 3712 3716 3719 3721 3725 3731 3735 3739 3743 3749 3753 3758 3762 3764 3768 3772 3776 3778 3781 3784 3787 3789 3792 3795 3799 3801 3804 3806 3809 3812 3813 3816 3819 3822 3823 3825 3828 3832 3839 3844 3848 3850 3853 3855 3858 3861 3863 3864 3864 3866 3873 3878 3880 3884 3889 3891 3895 3899 3903 3907 3909 3913 3914 3917 3917 3918 3920 3922 3924 3927 3930 3932 3934 3936 3938 3940 3942 3944 3948 3950 3951 3953 3954 3956 3956 3960 3962 3964 3969 3973 3977 3981 3985 3992 3993 3996 3999 4003 4008 4016 4023 4030 4037 4041 4044 4046 4048 4050 4052 4052 4052 4052 4052 4052 4055 4055 4055 4053 4049 4044 4042 4041 4038 4024 4000 3975 3934 3703 3081 2579 0 0 0 0 0 1948 1942 1927 1922 1919 1917 1879 1873 1871 1868 1851 1834 1829 1828 1827 1823 1819 1815 1812 1809 1806 1804 1802 1799 1795 1792 1789 1789 1788 1788 1785 1780 1777 1774 1773 1771 1767 1763 1758 1754 1750 1743 1739 1737 1732 1730 1727 1726 1723 1721 1720 1718 1715 1711 1708 1706 1704 1702 1699 1695 1692 1690 1687 1684 1680 1678 1676 1673 1671 1669 1666 1664 1662 1660 1658 1656 1652 1649 1649 1649 1647 1645 1643 1641 1639 1638 1637 1635 1634 1632 1629 1627 1624 1623 1621 1618 1616 1613 1611 1608 1606 1604 1603 1601 1597 1594 1589 1587 1583 1579 1574 1571 1568 1566 1566 1564 1562 1559 1557 1555 1555 1553 1551 1549 1549 1549 1550 1550 1550 1547 1547 1546 1546 1543 1540 1539 1537 1534 1530 1528 1525 1522 1519 1515 1513 1509 1506 1504 1502 1501 1500 1500 1499 1499 1499 1498 1497 1495 1494 1493 1491 1490 1488 1487 1485 1484 1482 1480 1479 1477 1474 1473 1470 1469 1468 1465 1464 1462 1460 1459 1457 1454 1453 1450 1446 1446 1445 1442 1438 1435 1434 1434 1433 1430 1428 1426 1425 1424 1423 1422 1421 1420 1419 1419 1418 1417 1416 1416 1414 1414 1412 1410 1408 1404 1403 1402 1402 1399 1398 1397 1396 1395 1394 1394 1392 1390 1390 1389 1387 1385 1382 1380 1378 1378 1376 1375 1373 1372 1371 1371 1371 1370 1368 1367 1366 1365 1365 1364 1363 1362 1361 1360 1360 1360 1360 1359 1359 1359 1364 1375 1385 1385 1386 0 0 0 0 0 1943 1948 1950 1950 1955 1955 1958 1960 1960 1961 1961 1961 1959 1958 1958 1957 1956 1954 1952 1951 1950 1948 1947 1945 1942 1939 1939 1936 1935 1933 1933 1932 1931 1930 1930 1930 1931 1932 1932 1932 1930 1930 1930 1929 1929 1929 1929 1929 1928 1928 1928 1927 1927 1927 1929 1931 1931 1931 1931 1932 1933 1933 1933 1934 1934 1934 1934 1934 0
3064 3064 3064 3064 3065 3066 3066 3066 3030 2608 0 0 0 0 2291 2291 2291 2319 2333 2337 2362 2391 2421 0 2601 2641 2672 2698 2713 2715 2715 2745 2773 2776 2792 2794 2805 2805 2805 2793 2765 2754 2751 2732 2722 2682 2584 2551 2547 2547 2547 2547 2547 2555 2551 2551 2551 2551 2547 2525 2524 2519 2519 2502 2499 2499 2496 2492 2490 2478 2478 2478 2503 2537 2559 2574 2581 2621 2664 2680 2697 2705 2799 2853 2940 3092 3276 3355 3427 3500 3503 3511 3514 3518 3522 3522 3518 3523 3526 3526 3529 3530 3530 3530 3528 3525 3521 3521 3519 3519 3519 3521 3527 3529 3531 3533 3537 3539 3543 3543 3546 3549 3553 3557 3561 3563 3565 3570 3574 3577 3582 3585 3591 3597 3601 3607 3611 3615 3619 3622 3626 3630 3633 3636 3639 3640 3641 3644 3648 3651 3654 3656 3658 3660 3663 3665 3669 3673 3675 3676 3683 3687 3690 3695 3698 3703 3707 3709 3712 3716 3721 3724 3728 3731 3735 3739 3744 3749 3754 3759 3762 3764 3768 3772 3775 3778 3781 3784 3786 3788 3790 3795 3799 3800 3802 3805 3808 3812 3813 3816 3820 3822 3823 3823 3827 3831 3836 3844 3848 3850 3853 3855 3858 3861 3864 3865 3865 3867 3873 3881 3884 3887 3889 3894 3897 3901 3905 3907 3910 3913 3914 3916 3917 3918 3920 3922 3924 3926 3929 3932 3935 3936 3938 3940 3942 3944 3947 3950 3951 3951 3952 3955 3956 3960 3962 3964 3968 3972 3976 3981 3985 3989 3993 3996 3999 4003 4008 4016 4023 4030 4037 4041 4048 4051 4052 4052 4053 4053 4053 4052 4052 4052 4053 4053 4053 4049 4045 4040 4040 4034 4026 4000 3966 3910 3247 2781 2530 0 0 0 0 2016 2009 1948 1942 1927 1926 1917 1911 1882 1875 1874 1868 1851 1836 1830 1829 1827 1823 1819 1815 1811 1809 1806 1804 1802 1799 1795 1792 1789 1787 1787 1787 1783 1779 1776 1773 1772 1770 1767 1762 1757 1753 1750 1741 1737 1734 1732 1728 1727 1725 1722 1720 1719 1717 1713 1709 1707 1705 1703 1701 1698 1695 1691 1688 1686 1684 1680 1677 1675 1673 1670 1667 1664 1662 1660 1659 1658 1656 1652 1649 1649 1649 1647 1645 1642 1641 1640 1638 1637 1635 1634 1631 1629 1626 1623 1621 1619 1617 1615 1611 1609 1606 1606 1603 1603 1601 1597 1594 1591 1589 1583 1579 1574 1571 1567 1566 1564 1563 1562 1559 1557 1554 1554 1553 1549 1548 1547 1547 1547 1547 1547 1544 1543 1543 1542 1542 1540 1538 1536 1533 1529 1526 1524 1520 1517 1514 1510 1506 1503 1502 1501 1501 1500 1499 1499 1499 1498 1497 1496 1494 1494 1492 1491 1489 1489 1487 1485 1484 1482 1481 1479 1476 1474 1473 1470 1469 1467 1465 1464 1462 1460 1459 1457 1454 1453 1451 1447 1447 1445 1443 1439 1437 1436 1435 1434 1431 1429 1427 1425 1424 1424 1423 1422 1422 1420 1419 1418 1417 1416 1415 1414 1413 1411 1410 1407 1404 1403 1402 1401 1399 1398 1396 1396 1395 1393 1392 1390 1389 1388 1387 1385 1383 1381 1380 1378 1377 1376 1375 1372 1371 1371 1371 1371 1370 1368 1367 1366 1365 1364 1364 1363 1362 1361 1360 1360 1360 1360 1359 1359 1359 1360 1366 1380 1386 1393 0 0 0 0 0 1942 1943 1948 1948 1953 1953 1956 1960 1960 1960 1960 1960 1959 1958 1958 1957 1956 1954 1951 1950 1949 1947 1946 1945 1942 1939 1937 1935 1934 1933 1932 1930 1930 1929 1929 1929 1930 1930 1930 1929 1928 1928 1927 1927 1927 1926 1926 1926 1926 1925 1925 1925 1925 1926 1929 1930 1931 1931 1930 1930 1931 1933 1933 1933 1934 1934 1933 1934 0
3059 3059 3052 3059 3061 3064 3064 3064 2987 2534 0 0 0 0 2293 2296 2296 2319 2333 2337 2359 2390 0 2516 2605 2652 2691 2703 2715 2720 2734 2764 2784 2787 2794 2797 2809 2809 2809 2800 2774 2762 2762 2762 2762 2762 2754 2730 2696 2692 2671 2631 2600 2556 2556 2555 2555 2555 2551 2543 2530 2524 2519 2502 2499 2497 2496 2492 2490 2478 2478 2478 2503 2539 2559 2569 2572 2608 2653 2657 2657 2657 2657 2657 2675 2762 2872 2937 3061 3262 3501 3507 3509 3509 3522 3522 3521 3523 3525 3525 3526 3530 3531 3534 3532 3532 3532 3524 3524 3524 3524 3524 3527 3534 3535 3537 3538 3542 3543 3546 3546 3551 3554 3557 3561 3564 3568 3571 3575 3578 3582 3586 3592 3597 3602 3607 3611 3615 3619 3624 3627 3632 3636 3641 3643 3643 3643 3645 3649 3653 3656 3657 3660 3663 3663 3666 3670 3674 3678 3681 3684 3687 3691 3696 3699 3704 3708 3709 3712 3717 3722 3725 3729 3734 3736 3740 3744 3749 3754 3759 3762 3765 3768 3771 3774 3778 3780 3784 3786 3787 3790 3793 3796 3800 3801 3804 3808 3812 3814 3818 3820 3822 3823 3823 3826 3830 3833 3841 3848 3850 3852 3855 3858 3862 3865 3866 3868 3869 3875 3881 3885 3888 3891 3896 3901 3903 3906 3908 3910 3912 3914 3916 3917 3918 3921 3923 3924 3926 3929 3933 3935 3937 3938 3940 3941 3944 3947 3950 3951 3951 3952 3955 3956 3961 3963 3965 3968 3972 3976 3980 3984 3988 3992 3995 3999 4003 4008 4016 4023 4030 4039 4048 4056 4056 4056 4057 4057 4056 4056 4055 4054 4053 4053 4052 4051 4049 4045 4040 4036 4032 4010 3980 3938 3175 2634 0 0 0 0 2034 2031 2006 1998 1948 1946 1937 1926 1918 1907 1891 1876 1875 1868 1852 1836 1830 1829 1827 1823 1819 1815 1812 1809 1806 1804 1802 1799 1795 1792 1788 1786 1784 1784 1782 1779 1775 1773 1772 1769 1765 1762 1757 1753 1747 1741 1735 1733 1730 1728 1725 1723 1721 1719 1717 1715 1711 1709 1706 1704 1701 1699 1697 1694 1691 1687 1685 1682 1679 1677 1675 1672 1670 1666 1664 1662 1660 1659 1657 1655 1652 1649 1649 1649 1647 1645 1642 1641 1639 1638 1637 1635 1634 1631 1629 1626 1622 1620 1617 1615 1612 1610 1608 1606 1605 1603 1603 1601 1597 1594 1591 1589 1583 1579 1575 1571 1567 1566 1564 1563 1561 1558 1555 1554 1553 1551 1549 1547 1547 1546 1546 1546 1546 1543 1541 1541 1541 1541 1539 1538 1536 1531 1528 1525 1522 1520 1517 1513 1508 1504 1500 1500 1500 1500 1499 1498 1498 1498 1497 1496 1496 1494 1493 1492 1491 1489 1489 1487 1485 1483 1482 1481 1478 1476 1474 1472 1470 1469 1467 1465 1464 1462 1460 1459 1457 1454 1453 1451 1449 1447 1445 1444 1441 1439 1437 1436 1434 1431 1430 1427 1425 1425 1424 1424 1423 1422 1421 1420 1418 1417 1416 1415 1413 1412 1411 1410 1407 1404 1403 1402 1401 1399 1398 1396 1395 1394 1392 1391 1390 1388 1387 1385 1383 1382 1381 1380 1377 1377 1376 1375 1372 1371 1371 1371 1370 1370 1368 1367 1366 1365 1364 1364 1363 1362 1361 1360 1360 1360 1359 1358 1358 1358 1359 1364 1374 1385 1386 1403 0 0 0 0 0 1942 1943 1945 1948 1952 1953 1956 1959 1959 1959 1959 1958 1958 1957 1957 1955 1954 1951 1949 1947 1947 1946 1945 1942 1939 1937 1935 1934 1933 1932 1930 1929 1928 1928 1928 1928 1927 1927 1926 1926 1926 1925 1925 1925 1925 1925 1924 1924 1924 1924 1924 1924 1926 1928 1929 1929 1929 1929 1929 1930 1930 1930 1932 1932 1932 1932 1937 0
