2133 2133 2128 2128 2128 2128 2118 2118 2113 2073 2068 2068 2068 2068 2118 2125 2157 0 0 0 0 2509 2559 2634 2677 2698 2731 2785 2815 2859 2910 2946 2983 3025 3064 3080 3080 3088 3088 3088 3093 3095 3096 3104 3110 3132 3146 3156 3157 3166 3169 3171 3177 3188 3208 3230 3238 3238 3240 3242 3242 3248 3252 3254 3259 3268 3272 3274 3275 3279 3283 3285 3285 3286 3286 3286 3286 3288 3293 3293 3293 3293 3290 3290 3290 3290 3291 3292 3295 3297 3298 3300 3305 3312 3312 3317 3318 3319 3323 3326 3329 3333 3338 3343 3347 3353 3357 3361 3364 3368 3372 3379 3386 3389 3390 3395 3402 3412 3419 3422 3424 3426 3430 3435 3439 3444 3447 3450 3453 3456 3457 3461 3466 3470 3476 3481 3485 3490 3492 3495 3496 3498 3501 3506 3509 3511 3514 3517 3519 3524 3533 3537 3542 3546 3553 3553 3553 3554 3556 3556 3563 3569 3569 3570 3570 3571 3572 3574 3576 3577 3579 3582 3586 3588 3588 3589 3589 3590 3595 3601 3611 3617 3623 3626 3626 3627 3627 3631 3635 3639 3643 3647 3647 3648 3648 3649 3653 3656 3656 3657 3658 3660 3664 3664 3665 3665 3667 3671 3677 3679 3679 3680 3681 3684 3687 3691 3694 3696 3696 3696 3696 3697 3701 3706 3708 3710 3710 3712 3715 3717 3719 3721 3723 3724 3726 3729 3731 3734 3736 3737 3737 3739 3740 3740 3740 3740 3740 3738 3734 3734 3734 3734 3734 3734 3732 3732 3732 3732 3734 3734 3734 3734 3732 3729 3727 3725 3723 3723 3722 3719 3714 3711 3710 3709 3708 3706 3703 3702 3697 3693 3689 3688 3686 3681 3674 3674 3674 3685 3685 3685 3678 3660 3659 3658 3653 3644 3635 3629 3620 3600 3580 3561 3229 2794 2526 0 2397 2392 2385 2373 2357 2346 2338 2332 2324 2315 2301 2284 2252 2175 0 0 0 0 0 0 0 0 0 0 0 0 0 0 0 0 0 0 0 0 0 0 0 0 0 0 0 0 0 0 0 0 0 0 0 0 0 0 0 0 0 0 0 0 0 0 1450 1449 1448 1448 1448 1438 1437 1434 1428 1427 1426 1422 1418 1414 1414 1413 1411 1410 1410 1406 1403 1401 1399 1399 1397 1394 1391 1388 1388 1387 1385 1383 1380 1377 1374 1373 1372 1369 1366 1364 1363 1362 1361 1360 1356 1353 1351 1349 1347 1347 1344 1341 1337 1335 1334 1333 1331 1330 1329 1327 1325 1323 1321 1319 1317 1315 1315 1314 1313 1312 1310 1307 1305 1304 1303 1301 1299 1297 1295 1292 1291 1289 1288 1286 1284 1283 1281 1279 1278 1277 1276 1274 1272 1270 1268 1266 1264 1263 1261 1260 1258 1257 1255 1253 1252 1250 1248 1246 1244 1243 1241 1239 1237 1236 1234 1233 1231 1230 1229 1228 1226 1224 1223 1222 1220 1218 1217 1215 1213 1212 1210 1209 1207 1206 1204 1203 1202 1200 1199 1198 1197 1195 1194 1193 1192 1191 1189 1187 1186 1185 1183 1182 1182 1181 1181 1180 1180 1180 1181 1184 1185 1191 1205 1231 0 0 0 0 0 1814 1858 1880 1890 1892 1894 1897 1899 1900 1900 1900 1902 1902 1904 1905 1905 1905 1905 1904 1904 1903 1902 1901 1900 1899 1899 1897 1896 1896 1896 1896 1896 1895 1894 1894 1894 1894 1894 1894 1894 1894 1894 1894 1893 1893 1893 1893 1893 1893 1893 1891 1891 1891 1891 1890 1887 1886 1885 1884 1884 1882 1882 1881 1881 1881 1880 1880 1881 1885 1894 1899 1905 1912 1914 1914 1914 1914 1914 1915 1915 1915 1912 1911 1911 1910 1909 1907 1906 1902 1896 1890 1886 1878 1874 1868 1862 1854 1845 1842 1836 1833 1833 1832 1831 1831
2158 2158 2139 2139 2125 2118 2118 2118 2111 2094 2094 2089 2094 2102 2121 2125 2157 0 0 0 0 0 2550 2633 2672 2698 2731 2797 2813 2860 2912 2950 2983 3040 3086 3086 3088 3095 3095 3105 3105 3108 3110 3110 3115 3129 3145 3153 3156 3166 3171 3172 3177 3185 3196 3217 3232 3236 3240 3240 3242 3248 3256 3257 3261 3268 3276 3280 3281 3283 3283 3285 3285 3285 3283 3283 3283 3285 3293 3294 3294 3294 3294 3294 3294 3294 3295 3296 3298 3302 3303 3305 3311 3315 3320 3320 3320 3325 3328 3331 3334 3334 3339 3343 3348 3353 3358 3362 3366 3371 3374 3379 3386 3389 3391 3395 3402 3412 3419 3422 3425 3428 3431 3438 3442 3446 3449 3451 3453 3456 3457 3461 3466 3473 3480 3485 3487 3490 3493 3497 3499 3501 3505 3509 3512 3513 3515 3517 3520 3524 3533 3537 3542 3547 3553 3556 3556 3557 3558 3560 3568 3572 3573 3573 3574 3575 3578 3579 3581 3582 3582 3583 3586 3590 3590 3590 3591 3591 3596 3604 3612 3622 3629 3632 3632 3633 3633 3636 3639 3643 3646 3650 3652 3652 3653 3654 3656 3658 3659 3660 3660 3665 3666 3667 3668 3668 3669 3675 3682 3683 3683 3683 3683 3686 3689 3691 3694 3696 3696 3696 3697 3697 3701 3703 3708 3710 3710 3712 3716 3720 3722 3725 3726 3727 3728 3730 3732 3734 3737 3737 3738 3739 3741 3743 3744 3744 3744 3741 3737 3734 3734 3734 3734 3734 3732 3732 3732 3732 3734 3738 3738 3738 3735 3731 3727 3725 3724 3724 3722 3719 3716 3714 3712 3710 3706 3700 3699 3698 3694 3693 3688 3687 3684 3681 3676 3676 3676 3688 3700 3700 3700 3681 3659 3658 3657 3651 3641 3633 3620 3599 3580 3561 3107 2702 0 2433 2398 2392 2383 2369 2360 2348 2338 2332 2323 2308 2300 2277 0 0 0 0 0 0 0 0 0 0 0 0 0 0 0 0 0 0 0 0 0 0 0 0 0 0 0 0 0 0 0 0 0 0 0 0 1481 1479 1475 1470 1463 1460 1458 1452 1451 1448 1448 1445 1442 1441 1441 1438 1438 1436 1435 1429 1425 1424 1423 1422 1418 1414 1410 1408 1407 1407 1406 1404 1403 1401 1399 1398 1396 1394 1390 1388 1388 1387 1385 1383 1379 1377 1374 1373 1372 1369 1366 1364 1363 1362 1361 1359 1357 1354 1351 1349 1347 1346 1344 1341 1337 1336 1335 1333 1331 1330 1329 1327 1325 1323 1321 1319 1318 1315 1314 1314 1313 1312 1310 1307 1305 1304 1303 1301 1299 1297 1295 1293 1291 1289 1288 1286 1284 1283 1281 1279 1278 1276 1275 1273 1272 1270 1268 1266 1264 1263 1261 1259 1258 1256 1255 1253 1252 1250 1247 1246 1244 1243 1241 1239 1237 1235 1234 1233 1231 1230 1228 1227 1226 1224 1223 1222 1220 1218 1216 1215 1213 1212 1210 1209 1207 1206 1204 1203 1202 1200 1199 1198 1196 1195 1193 1192 1191 1190 1189 1187 1185 1184 1183 1182 1182 1181 1181 1181 1181 1181 1181 1184 1186 1192 1212 0 0 0 0 0 0 1834 1864 1886 1893 1894 1894 1896 1898 1900 1901 1901 1903 1904 1905 1905 1905 1905 1905 1905 1904 1903 1902 1901 1901 1899 1899 1897 1896 1896 1896 1896 1895 1895 1894 1894 1894 1894 1894 1894 1894 1893 1892 1892 1892 1891 1891 1891 1891 1891 1891 1889 1889 1889 1888 1888 1886 1883 1882 1882 1881 1881 1880 1880 1880 1880 1880 1880 1881 1886 1894 1899 1906 1914 1915 1917 1917 1917 1916 1915 1915 1915 1912 1911 1911 1910 1910 1907 1903 1899 1895 1890 1886 1878 1874 1868 1862 1857 1848 1843 1837 1837 1836 1834 1831 1831
2163 2163 2143 2143 2125 2122 2118 2115 2111 2109 2108 2108 2109 2135 2136 2161 2188 2222 0 0 0 0 2550 2633 2672 2700 2744 2797 2813 2873 2912 2950 2994 3047 3086 3086 3094 3097 3097 3112 3112 3112 3115 3115 3115 3129 3145 3153 3156 3168 3177 3178 3179 3185 3195 3206 3220 3232 3236 3242 3244 3248 3257 3260 3261 3268 3277 3281 3284 3285 3285 3287 3287 3287 3284 3284 3284 3285 3293 3294 3294 3294 3294 3294 3296 3298 3299 3299 3301 3302 3303 3307 3315 3319 3320 3323 3323 3326 3329 3333 3336 3337 3343 3344 3348 3354 3358 3362 3366 3371 3374 3379 3386 3389 3391 3395 3402 3413 3421 3422 3425 3430 3438 3443 3445 3448 3450 3452 3453 3456 3459 3463 3467 3474 3482 3487 3489 3493 3496 3499 3501 3503 3508 3511 3514 3517 3519 3521 3523 3527 3533 3537 3542 3547 3553 3556 3556 3557 3558 3563 3568 3573 3574 3575 3577 3578 3582 3584 3586 3586 3586 3587 3588 3591 3591 3591 3592 3593 3598 3604 3613 3623 3635 3638 3639 3640 3641 3642 3645 3646 3650 3653 3656 3658 3659 3659 3659 3661 3662 3666 3668 3671 3671 3672 3672 3672 3672 3677 3683 3683 3685 3685 3685 3687 3689 3691 3694 3696 3697 3697 3699 3701 3703 3703 3708 3710 3710 3714 3720 3724 3725 3727 3729 3730 3731 3732 3734 3736 3738 3739 3739 3739 3741 3743 3746 3746 3746 3743 3739 3734 3734 3734 3734 3734 3732 3732 3732 3733 3738 3741 3742 3742 3742 3738 3734 3729 3726 3724 3722 3719 3717 3715 3713 3710 3706 3700 3699 3697 3694 3693 3688 3687 3684 3681 3681 3681 3681 3694 3703 3703 3703 3697 3674 3669 3668 3666 3653 3633 3620 3596 3555 3443 2934 2615 0 2418 2398 2389 2376 2363 2355 2348 2338 2325 2309 2303 2288 0 0 0 0 0 0 0 0 0 0 0 0 0 0 0 0 0 0 0 0 1525 1513 1513 1513 1514 1514 1514 1513 1513 1502 1493 1488 1486 1485 1481 1480 1480 1478 1474 1468 1464 1461 1458 1453 1449 1449 1448 1448 1443 1442 1441 1440 1437 1437 1430 1427 1426 1425 1423 1423 1421 1418 1414 1410 1408 1407 1405 1405 1404 1403 1401 1399 1398 1396 1394 1390 1389 1388 1387 1385 1383 1380 1377 1375 1373 1372 1369 1366 1364 1363 1362 1361 1359 1357 1354 1352 1349 1347 1346 1344 1341 1338 1337 1335 1333 1331 1330 1328 1326 1325 1322 1321 1319 1318 1315 1314 1314 1313 1312 1310 1307 1305 1304 1302 1300 1299 1297 1295 1293 1291 1289 1288 1285 1284 1283 1281 1279 1278 1276 1274 1273 1272 1270 1268 1266 1264 1263 1261 1259 1258 1256 1255 1253 1251 1249 1247 1246 1244 1242 1241 1239 1237 1235 1234 1233 1231 1230 1228 1227 1226 1224 1223 1222 1220 1218 1216 1215 1213 1212 1210 1209 1207 1205 1204 1203 1201 1200 1199 1198 1196 1195 1193 1192 1190 1190 1188 1186 1185 1183 1183 1182 1182 1181 1181 1181 1181 1181 1181 1184 1187 1198 1212 0 0 0 0 0 0 1834 1875 1890 1893 1894 1894 1896 1898 1899 1901 1902 1903 1904 1905 1905 1905 1905 1905 1905 1905 1904 1903 1903 1901 1901 1900 1898 1897 1896 1896 1896 1895 1895 1894 1894 1893 1893 1893 1893 1893 1892 1891 1891 1891 1891 1890 1890 1890 1890 1888 1887 1887 1887 1887 1887 1885 1882 1881 1881 1880 1880 1879 1879 1879 1880 1880 1880 1881 1887 1894 1900 1906 1915 1916 1919 1920 1920 1920 1919 1916 1913 1912 1911 1911 1910 1910 1907 1902 1897 1894 1891 1886 1878 1874 1868 1863 1862 1855 1845 1838 1837 1837 1835 1835 1835
2165 2165 2143 2143 2127 2122 2118 2118 2115 2113 2109 2109 2115 2135 2138 2175 2191 2222 2266 0 0 0 2550 2633 2672 2717 2749 2797 2813 2876 2916 2950 2998 3048 3086 3093 3099 3099 3099 3115 3117 3117 3117 3117 3122 3130 3146 3153 3163 3178 3181 3184 3185 3185 3195 3206 3220 3230 3236 3242 3244 3254 3259 3260 3262 3272 3279 3284 3285 3286 3286 3288 3288 3288 3284 3284 3284 3285 3293 3302 3302 3302 3301 3301 3301 3304 3304 3304 3304 3304 3307 3312 3315 3319 3321 3323 3327 3328 3331 3333 3337 3339 3344 3350 3350 3353 3358 3362 3366 3371 3374 3377 3383 3389 3391 3395 3405 3416 3422 3427 3431 3435 3440 3446 3449 3452 3453 3453 3454 3456 3459 3463 3467 3474 3482 3488 3490 3494 3498 3501 3503 3506 3509 3512 3515 3520 3524 3525 3526 3530 3533 3537 3542 3546 3553 3556 3557 3558 3559 3563 3568 3573 3576 3577 3580 3582 3586 3588 3590 3590 3590 3590 3590 3593 3594 3594 3595 3600 3604 3608 3614 3624 3636 3641 3642 3645 3647 3649 3650 3652 3654 3657 3661 3663 3663 3664 3664 3664 3666 3670 3672 3675 3676 3676 3676 3676 3676 3679 3685 3685 3687 3687 3687 3689 3691 3692 3695 3697 3698 3700 3704 3704 3704 3704 3708 3710 3712 3715 3721 3725 3728 3729 3730 3732 3734 3736 3737 3739 3740 3740 3740 3741 3742 3744 3746 3746 3746 3745 3742 3737 3737 3737 3737 3737 3735 3735 3735 3738 3741 3745 3746 3746 3746 3745 3739 3733 3730 3725 3723 3721 3718 3717 3715 3710 3706 3700 3699 3697 3694 3693 3691 3687 3684 3684 3684 3684 3687 3695 3704 3704 3704 3697 3674 3669 3668 3666 3653 3633 3603 3596 3553 3232 2815 2546 0 2415 2397 2389 2374 2362 2355 2348 2334 2324 2309 2303 2278 0 0 0 0 0 0 0 0 0 0 0 1554 1551 1543 1531 1528 1528 1527 1527 1522 1513 1509 1507 1506 1506 1505 1504 1500 1498 1494 1489 1487 1485 1480 1478 1478 1477 1477 1472 1468 1464 1461 1458 1453 1449 1448 1448 1448 1443 1442 1441 1439 1436 1435 1430 1427 1426 1425 1424 1423 1421 1418 1414 1410 1408 1407 1405 1404 1403 1403 1401 1399 1398 1396 1394 1390 1389 1388 1387 1385 1382 1379 1377 1374 1373 1371 1368 1366 1365 1364 1362 1361 1359 1357 1354 1352 1349 1347 1346 1344 1341 1338 1337 1335 1333 1331 1329 1328 1325 1322 1322 1320 1318 1318 1315 1314 1312 1311 1310 1308 1306 1305 1303 1301 1299 1298 1297 1295 1293 1291 1289 1288 1285 1284 1282 1281 1279 1278 1276 1274 1273 1272 1270 1268 1266 1264 1262 1261 1259 1258 1256 1254 1253 1251 1249 1247 1246 1244 1242 1241 1239 1237 1235 1234 1233 1231 1230 1228 1227 1226 1224 1222 1222 1220 1218 1216 1215 1213 1212 1210 1209 1207 1205 1204 1203 1201 1199 1198 1197 1195 1195 1193 1192 1190 1189 1187 1186 1185 1183 1183 1182 1181 1181 1181 1181 1181 1181 1181 1184 1189 1198 1212 0 0 0 0 0 0 1853 1878 1894 1894 1894 1894 1896 1898 1899 1901 1902 1903 1905 1905 1906 1906 1906 1906 1905 1905 1904 1904 1904 1902 1902 1900 1898 1897 1896 1896 1896 1895 1895 1894 1893 1893 1892 1892 1892 1891 1890 1890 1890 1890 1890 1890 1890 1889 1889 1888 1887 1886 1885 1884 1884 1882 1880 1880 1879 1879 1879 1879 1879 1879 1880 1880 1880 1881 1888 1895 1901 1908 1917 1917 1920 1925 1925 1925 1919 1916 1913 1912 1912 1911 1911 1910 1906 1900 1894 1892 1891 1889 1883 1874 1870 1863 1862 1860 1853 1847 1844 1843 1839 1835 1835
2170 2170 2144 2144 2127 2122 2122 2122 2121 2118 2118 2119 2119 2137 2157 2180 2191 2222 2254 0 0 0 2573 2640 2682 2717 2752 2757 2813 2879 2916 2951 3002 3051 3079 3099 3099 3110 3126 3126 3126 3123 3119 3119 3123 3130 3146 3162 3176 3188 3188 3189 3190 3190 3195 3206 3220 3230 3236 3242 3244 3254 3259 3267 3273 3278 3284 3288 3289 3290 3290 3290 3291 3292 3292 3292 3292 3293 3298 3305 3305 3305 3306 3306 3306 3308 3308 3308 3308 3308 3310 3315 3326 3327 3327 3330 3330 3333 3333 3334 3339 3340 3347 3350 3350 3352 3357 3359 3364 3369 3371 3375 3383 3389 3393 3399 3407 3416 3423 3429 3433 3439 3442 3446 3449 3453 3454 3454 3455 3456 3459 3463 3467 3475 3482 3488 3491 3496 3500 3503 3505 3508 3511 3514 3518 3521 3525 3528 3528 3531 3534 3541 3543 3546 3553 3556 3556 3559 3559 3564 3568 3573 3576 3579 3581 3586 3588 3589 3590 3592 3592 3592 3593 3596 3597 3597 3601 3607 3613 3616 3624 3625 3637 3644 3646 3650 3654 3656 3656 3658 3659 3663 3668 3668 3668 3667 3667 3667 3667 3670 3673 3675 3678 3678 3679 3679 3682 3684 3687 3688 3689 3689 3689 3692 3693 3693 3695 3697 3698 3703 3707 3707 3708 3708 3708 3712 3714 3719 3725 3730 3731 3732 3732 3734 3737 3740 3741 3743 3743 3743 3743 3743 3743 3744 3747 3747 3747 3747 3743 3743 3743 3746 3746 3746 3743 3743 3743 3743 3743 3745 3749 3749 3749 3747 3744 3738 3733 3727 3724 3722 3719 3717 3716 3713 3712 3705 3701 3698 3697 3695 3691 3689 3688 3686 3686 3686 3687 3696 3703 3703 3703 3697 3674 3669 3668 3666 3653 3625 3597 3584 3530 3081 2697 2512 0 2410 2395 2386 2368 2358 2355 2345 2334 2324 2309 2303 2276 0 0 0 0 0 0 1565 1556 1542 1540 1539 1538 1538 1534 1528 1524 1524 1523 1521 1518 1512 1508 1506 1506 1505 1504 1503 1499 1497 1494 1488 1486 1481 1478 1478 1477 1477 1477 1469 1467 1464 1461 1458 1453 1451 1449 1448 1446 1443 1442 1441 1439 1436 1435 1430 1427 1426 1425 1423 1423 1421 1418 1415 1412 1409 1407 1405 1404 1403 1401 1400 1399 1397 1396 1393 1390 1389 1388 1386 1384 1382 1379 1377 1374 1373 1371 1368 1367 1365 1364 1362 1359 1358 1356 1354 1352 1349 1347 1346 1344 1341 1338 1337 1335 1333 1331 1329 1327 1325 1322 1322 1320 1318 1317 1315 1314 1312 1311 1309 1308 1306 1305 1303 1301 1299 1298 1296 1295 1293 1291 1289 1288 1285 1284 1282 1281 1279 1278 1275 1274 1272 1271 1270 1269 1266 1264 1262 1261 1259 1258 1256 1254 1253 1251 1249 1247 1246 1244 1242 1241 1239 1237 1236 1234 1233 1231 1230 1228 1227 1225 1224 1222 1222 1220 1218 1216 1215 1213 1212 1210 1209 1207 1205 1204 1203 1201 1199 1198 1197 1195 1194 1192 1191 1190 1188 1187 1186 1185 1183 1182 1182 1181 1181 1181 1181 1181 1181 1181 1181 1189 1201 1212 0 0 0 0 0 1843 1861 1888 1893 1894 1895 1895 1896 1898 1899 1901 1902 1903 1905 1905 1906 1906 1906 1906 1905 1905 1904 1904 1904 1902 1902 1901 1900 1897 1897 1897 1897 1896 1895 1894 1893 1893 1892 1892 1890 1890 1890 1890 1890 1890 1890 1889 1889 1888 1888 1888 1886 1884 1883 1883 1881 1879 1878 1878 1878 1878 1878 1879 1879 1879 1880 1880 1880 1881 1891 1896 1901 1917 1918 1918 1921 1925 1925 1925 1919 1916 1913 1912 1912 1912 1911 1908 1905 1900 1894 1892 1891 1889 1885 1874 1870 1863 1863 1861 1856 1851 1851 1850 1846 1843 1843
2170 2170 2144 2144 2133 2133 2133 2141 2141 2141 2122 2122 2122 2137 2157 2180 2191 2219 2252 0 0 0 2573 2640 2682 2717 2752 2754 2813 2889 2927 2961 3013 3051 3079 3094 3101 3136 3136 3136 3135 3131 3124 3124 3124 3130 3148 3171 3184 3194 3194 3194 3194 3194 3204 3214 3225 3232 3240 3247 3251 3256 3264 3274 3283 3285 3288 3291 3293 3293 3294 3295 3298 3299 3299 3299 3299 3301 3306 3308 3308 3308 3308 3308 3308 3309 3311 3312 3312 3312 3314 3319 3328 3332 3334 3335 3338 3339 3339 3340 3341 3343 3347 3350 3350 3352 3357 3359 3364 3369 3371 3375 3383 3390 3397 3405 3411 3417 3424 3429 3434 3440 3444 3447 3450 3453 3454 3454 3455 3456 3460 3465 3469 3475 3482 3488 3491 3496 3502 3504 3507 3511 3513 3515 3518 3522 3526 3530 3532 3535 3538 3543 3543 3547 3553 3556 3556 3559 3561 3564 3568 3573 3576 3579 3583 3587 3591 3592 3592 3593 3593 3596 3597 3600 3602 3605 3611 3614 3620 3625 3633 3640 3645 3648 3649 3650 3655 3659 3662 3662 3663 3667 3672 3672 3672 3670 3670 3670 3672 3672 3674 3676 3679 3681 3682 3683 3684 3687 3689 3689 3691 3692 3693 3696 3697 3697 3698 3698 3701 3707 3710 3710 3711 3711 3711 3714 3720 3724 3729 3733 3734 3734 3734 3737 3739 3741 3745 3746 3746 3746 3746 3745 3745 3745 3747 3749 3749 3749 3746 3746 3746 3752 3752 3752 3749 3748 3748 3748 3748 3749 3749 3749 3749 3747 3746 3743 3738 3733 3729 3726 3721 3721 3721 3718 3718 3717 3709 3704 3703 3700 3691 3690 3690 3689 3689 3690 3690 3696 3701 3701 3701 3689 3673 3667 3664 3664 3647 3612 3597 3556 3376 2922 2616 0 2415 2402 2385 2369 2360 2352 2352 2343 2334 2324 2316 2301 2276 0 0 0 0 1580 1559 1550 1546 1542 1539 1538 1538 1535 1531 1526 1524 1523 1523 1520 1516 1512 1508 1505 1505 1505 1504 1501 1498 1496 1491 1486 1482 1481 1478 1477 1477 1475 1474 1471 1467 1465 1462 1459 1456 1452 1451 1448 1446 1443 1443 1441 1440 1437 1435 1430 1428 1426 1425 1423 1422 1421 1418 1417 1414 1412 1408 1405 1404 1403 1401 1400 1398 1397 1395 1393 1390 1389 1386 1384 1383 1381 1379 1377 1374 1372 1371 1368 1367 1365 1364 1362 1359 1358 1356 1353 1352 1349 1347 1345 1343 1341 1338 1337 1335 1333 1331 1329 1327 1325 1322 1321 1320 1318 1317 1315 1314 1312 1311 1309 1307 1306 1305 1303 1301 1299 1298 1296 1295 1293 1291 1289 1288 1285 1284 1282 1281 1279 1277 1275 1274 1273 1272 1270 1269 1266 1264 1262 1261 1259 1258 1256 1254 1253 1251 1249 1247 1246 1244 1243 1241 1239 1237 1236 1234 1233 1231 1230 1229 1227 1225 1224 1222 1221 1219 1218 1216 1215 1213 1211 1210 1209 1207 1205 1204 1202 1201 1199 1198 1197 1195 1194 1192 1191 1189 1188 1187 1185 1184 1183 1182 1181 1181 1181 1181 1181 1181 1181 1181 1181 1189 1201 1212 0 0 0 0 0 1867 1867 1894 1894 1894 1894 1894 1896 1898 1899 1901 1902 1903 1905 1905 1905 1905 1905 1905 1905 1904 1904 1904 1903 1903 1902 1901 1900 1899 1898 1898 1897 1896 1895 1894 1893 1892 1892 1891 1890 1889 1889 1889 1889 1889 1889 1889 1888 1887 1886 1886 1885 1883 1882 1879 1878 1878 1877 1877 1877 1877 1878 1878 1878 1879 1880 1880 1880 1881 1893 1898 1907 1918 1919 1921 1923 1925 1925 1925 1917 1915 1911 1911 1911 1911 1911 1908 1905 1900 1894 1892 1891 1890 1886 1875 1870 1863 1863 1862 1858 1851 1851 1850 1850 1850 1850
2180 2180 2170 2170 2166 2166 2166 2166 2166 2141 2135 2135 2135 2153 2164 2180 2190 2219 2247 0 0 0 2573 2640 2682 2715 2749 2753 2813 2889 2962 2985 3030 3067 3078 3090 3101 3136 3142 3145 3145 3142 3128 3128 3128 3135 3154 3173 3190 3198 3201 3201 3205 3205 3208 3218 3226 3232 3240 3249 3256 3266 3275 3282 3284 3287 3289 3292 3293 3294 3295 3299 3299 3300 3300 3300 3301 3302 3310 3310 3310 3309 3309 3309 3311 3311 3312 3315 3316 3317 3317 3321 3328 3332 3335 3337 3339 3339 3340 3340 3342 3346 3348 3353 3355 3355 3357 3359 3364 3369 3371 3375 3383 3392 3401 3407 3414 3420 3425 3430 3439 3445 3447 3450 3451 3452 3455 3455 3459 3460 3462 3466 3469 3475 3483 3488 3493 3498 3503 3507 3511 3513 3515 3519 3523 3528 3532 3535 3536 3538 3543 3546 3548 3549 3553 3556 3560 3562 3564 3565 3568 3573 3577 3584 3588 3591 3594 3596 3597 3599 3600 3601 3603 3607 3611 3618 3622 3623 3625 3630 3635 3641 3645 3648 3650 3651 3656 3659 3662 3664 3667 3671 3674 3674 3674 3674 3674 3676 3677 3678 3679 3679 3681 3684 3685 3687 3687 3689 3690 3691 3692 3695 3697 3699 3701 3701 3701 3701 3704 3710 3715 3715 3715 3715 3715 3717 3724 3729 3734 3735 3735 3736 3737 3739 3742 3745 3746 3747 3749 3749 3749 3749 3749 3749 3752 3752 3752 3751 3751 3751 3752 3754 3754 3754 3751 3751 3751 3753 3753 3753 3753 3753 3750 3747 3746 3743 3739 3735 3734 3731 3725 3725 3724 3723 3723 3722 3718 3713 3711 3702 3691 3690 3690 3690 3690 3690 3690 3695 3698 3698 3698 3684 3667 3658 3657 3657 3641 3599 3597 3552 3324 2850 2537 0 2411 2393 2371 2356 2349 2343 2343 2342 2333 2324 2316 2301 2274 0 0 0 1632 1570 1554 1549 1546 1542 1539 1538 1538 1535 1530 1526 1524 1523 1522 1519 1516 1513 1509 1506 1504 1503 1501 1499 1498 1496 1491 1486 1482 1481 1478 1477 1477 1475 1474 1471 1467 1465 1462 1460 1456 1454 1451 1448 1446 1444 1443 1441 1439 1437 1435 1431 1430 1427 1425 1423 1421 1420 1418 1417 1414 1412 1409 1407 1405 1403 1401 1400 1398 1397 1395 1393 1390 1389 1386 1384 1382 1381 1379 1376 1374 1372 1370 1368 1366 1365 1363 1361 1359 1357 1356 1353 1351 1349 1347 1345 1343 1341 1339 1337 1335 1333 1331 1329 1327 1325 1323 1322 1320 1318 1317 1315 1314 1312 1311 1309 1307 1306 1305 1303 1302 1299 1298 1296 1295 1293 1291 1289 1287 1285 1283 1282 1281 1279 1277 1276 1274 1272 1272 1270 1269 1267 1265 1263 1261 1259 1258 1256 1254 1253 1251 1249 1248 1246 1244 1243 1241 1239 1237 1236 1235 1233 1232 1230 1229 1227 1225 1224 1222 1221 1219 1217 1216 1214 1213 1211 1209 1208 1206 1205 1204 1202 1200 1199 1198 1197 1195 1193 1192 1191 1189 1188 1186 1185 1184 1183 1182 1181 1181 1181 1181 1182 1182 1182 1183 1184 1188 1198 1212 0 0 0 0 0 1879 1885 1893 1893 1894 1894 1894 1896 1898 1899 1900 1902 1903 1904 1905 1905 1905 1905 1905 1905 1904 1903 1903 1903 1903 1902 1902 1900 1900 1899 1898 1897 1896 1895 1894 1893 1892 1891 1890 1890 1889 1889 1888 1888 1888 1888 1888 1888 1887 1886 1885 1883 1882 1880 1877 1876 1875 1875 1875 1876 1876 1877 1878 1878 1878 1880 1880 1880 1886 1895 1903 1914 1918 1921 1923 1925 1925 1925 1921 1910 1909 1909 1909 1911 1911 1911 1908 1905 1902 1895 1892 1891 1890 1886 1874 1870 1863 1862 1862 1858 1851 1851 1851 1851 1852 1852
2213 2213 2213 2214 2213 2206 2206 2191 2172 2141 2135 2135 2135 2158 2175 2176 2182 2203 2240 0 0 0 2557 2610 2656 2690 2694 2748 2802 2889 2965 3028 3037 3067 3071 3081 3101 3136 3149 3149 3149 3148 3138 3138 3138 3146 3159 3173 3190 3198 3202 3202 3205 3205 3208 3221 3228 3235 3246 3253 3265 3275 3280 3282 3285 3287 3290 3293 3294 3294 3295 3299 3300 3300 3300 3300 3301 3305 3311 3312 3312 3312 3312 3312 3312 3313 3313 3316 3317 3318 3318 3322 3328 3332 3335 3337 3339 3340 3341 3343 3343 3347 3350 3353 3355 3357 3362 3363 3367 3370 3373 3378 3383 3395 3402 3408 3416 3420 3425 3435 3445 3445 3448 3450 3451 3452 3455 3456 3462 3467 3467 3467 3469 3476 3483 3488 3494 3498 3503 3509 3515 3518 3519 3521 3526 3531 3537 3538 3543 3547 3552 3555 3557 3558 3558 3560 3564 3566 3567 3567 3570 3573 3579 3584 3588 3595 3600 3602 3603 3605 3605 3606 3607 3611 3621 3628 3629 3629 3632 3632 3637 3641 3645 3648 3650 3651 3656 3660 3663 3668 3672 3675 3676 3676 3678 3678 3680 3681 3682 3684 3685 3685 3685 3685 3688 3689 3691 3692 3692 3692 3693 3696 3701 3706 3706 3707 3707 3708 3711 3712 3719 3719 3719 3719 3719 3719 3726 3731 3735 3736 3737 3737 3740 3741 3744 3745 3748 3748 3750 3751 3752 3752 3753 3756 3756 3756 3754 3754 3754 3755 3755 3755 3755 3754 3754 3754 3755 3760 3760 3760 3759 3758 3752 3747 3747 3743 3739 3735 3734 3733 3728 3727 3726 3725 3724 3722 3720 3718 3712 3703 3692 3692 3691 3690 3690 3686 3686 3686 3686 3686 3686 3679 3667 3656 3655 3654 3638 3599 3588 3495 3155 2680 0 2422 2400 2377 2366 2353 2349 2343 2341 2338 2333 2324 2316 2301 2273 0 0 0 1629 1565 1553 1549 1546 1542 1540 1539 1539 1534 1530 1526 1524 1523 1522 1519 1516 1513 1509 1507 1503 1502 1499 1498 1495 1495 1492 1486 1482 1481 1479 1478 1477 1475 1473 1471 1468 1465 1463 1460 1457 1454 1451 1448 1446 1444 1443 1441 1439 1437 1435 1432 1430 1427 1425 1423 1421 1420 1418 1417 1414 1412 1410 1407 1405 1404 1402 1400 1398 1396 1394 1393 1391 1389 1386 1384 1382 1380 1378 1376 1373 1371 1370 1368 1366 1364 1362 1361 1359 1357 1356 1353 1351 1349 1347 1345 1343 1341 1339 1337 1335 1333 1331 1329 1327 1325 1323 1322 1320 1319 1317 1316 1314 1312 1311 1309 1307 1307 1305 1303 1302 1299 1298 1296 1295 1293 1291 1289 1287 1285 1283 1282 1280 1279 1277 1276 1274 1272 1271 1270 1269 1267 1265 1263 1261 1259 1258 1256 1254 1253 1250 1249 1248 1246 1244 1243 1241 1239 1238 1236 1235 1233 1232 1230 1228 1227 1225 1224 1222 1220 1219 1217 1215 1214 1212 1211 1209 1208 1206 1205 1203 1202 1200 1199 1197 1196 1195 1193 1192 1190 1188 1187 1186 1184 1183 1183 1181 1181 1181 1181 1181 1182 1183 1184 1184 1184 1188 1197 1212 0 0 0 0 0 1880 1887 1893 1893 1894 1894 1894 1895 1897 1899 1900 1901 1902 1903 1903 1904 1905 1905 1905 1904 1903 1903 1903 1902 1902 1902 1902 1901 1900 1899 1898 1897 1896 1895 1894 1893 1891 1890 1890 1889 1888 1887 1887 1887 1887 1887 1886 1886 1885 1885 1884 1881 1879 1877 1875 1875 1875 1874 1874 1874 1875 1877 1877 1877 1878 1880 1880 1880 1888 1897 1906 1914 1918 1921 1923 1926 1926 1926 1921 1910 1909 1909 1909 1911 1911 1911 1910 1905 1903 1902 1894 1891 1890 1885 1873 1866 1861 1861 1860 1856 1848 1848 1848 1850 1852 1852
2240 2242 2242 2242 2240 2222 2206 2191 2172 2141 2141 2141 2146 2174 2174 2175 2179 2179 2238 0 0 0 2516 2572 2617 2662 2666 2724 2802 2883 2965 3029 3037 3064 3067 3072 3091 3113 3146 3148 3148 3148 3142 3142 3142 3149 3160 3175 3190 3198 3205 3206 3206 3207 3215 3230 3234 3246 3252 3259 3266 3275 3280 3283 3286 3288 3293 3295 3295 3296 3297 3302 3303 3303 3302 3302 3303 3305 3312 3314 3315 3315 3315 3315 3314 3314 3314 3317 3318 3318 3321 3324 3329 3333 3336 3338 3339 3341 3343 3344 3346 3347 3351 3355 3357 3360 3366 3374 3381 3383 3385 3392 3396 3397 3403 3411 3416 3422 3430 3439 3446 3448 3449 3450 3451 3452 3455 3457 3463 3472 3472 3474 3474 3478 3484 3490 3494 3498 3503 3512 3519 3522 3522 3523 3527 3532 3539 3543 3548 3552 3557 3562 3563 3564 3565 3565 3567 3569 3570 3572 3574 3575 3579 3584 3588 3595 3601 3603 3606 3610 3610 3610 3611 3615 3622 3631 3632 3634 3634 3634 3638 3642 3647 3649 3651 3653 3657 3661 3666 3670 3673 3675 3677 3679 3679 3684 3687 3687 3687 3687 3687 3688 3688 3688 3690 3691 3692 3692 3692 3692 3693 3696 3701 3708 3710 3712 3712 3713 3715 3720 3723 3723 3723 3723 3723 3723 3728 3734 3739 3741 3741 3741 3744 3744 3746 3748 3749 3750 3752 3755 3755 3756 3760 3760 3760 3758 3757 3757 3757 3757 3757 3756 3755 3755 3755 3756 3760 3761 3761 3761 3759 3758 3755 3750 3747 3743 3739 3735 3734 3733 3730 3727 3727 3727 3726 3723 3720 3719 3713 3706 3692 3692 3692 3688 3688 3685 3684 3684 3683 3681 3677 3675 3663 3654 3653 3651 3634 3599 3588 3275 2867 2567 0 2419 2397 2377 2366 2353 2348 2342 2339 2338 2332 2322 2309 2297 2269 0 0 0 1629 1565 1551 1549 1547 1544 1542 1542 1539 1534 1530 1526 1524 1523 1521 1519 1516 1513 1511 1507 1503 1502 1499 1498 1495 1493 1490 1488 1485 1484 1481 1478 1476 1475 1473 1471 1468 1465 1463 1460 1458 1455 1453 1449 1446 1444 1443 1441 1439 1437 1435 1432 1430 1427 1425 1423 1421 1420 1418 1416 1414 1412 1410 1408 1406 1404 1402 1400 1398 1396 1394 1393 1391 1389 1386 1384 1382 1380 1378 1375 1373 1371 1370 1368 1366 1364 1362 1360 1359 1357 1355 1353 1350 1349 1347 1345 1343 1341 1338 1337 1335 1333 1331 1329 1327 1326 1323 1322 1321 1319 1318 1316 1314 1312 1311 1309 1308 1307 1305 1303 1302 1300 1298 1296 1295 1293 1291 1289 1287 1285 1283 1282 1280 1279 1277 1276 1274 1272 1271 1270 1269 1267 1265 1263 1261 1259 1258 1256 1254 1253 1250 1249 1248 1246 1244 1243 1241 1239 1238 1236 1235 1233 1232 1230 1228 1227 1225 1223 1222 1220 1219 1217 1215 1214 1212 1210 1209 1207 1206 1205 1203 1202 1200 1199 1197 1196 1194 1193 1192 1190 1188 1186 1185 1184 1183 1182 1181 1181 1180 1180 1180 1182 1183 1184 1184 1185 1188 1197 1212 0 0 0 0 1843 1886 1888 1891 1892 1893 1893 1893 1895 1897 1898 1900 1900 1900 1902 1902 1902 1903 1903 1903 1903 1903 1903 1902 1902 1902 1902 1901 1900 1900 1899 1898 1897 1895 1894 1894 1893 1891 1890 1890 1889 1888 1887 1887 1886 1886 1885 1884 1883 1883 1881 1880 1879 1877 1876 1875 1875 1874 1874 1873 1873 1873 1874 1876 1877 1878 1880 1880 1880 1891 1898 1913 1915 1918 1921 1923 1926 1926 1926 1921 1910 1909 1909 1909 1913 1913 1913 1910 1906 1905 1904 1900 1896 1890 1883 1873 1866 1861 1861 1860 1855 1846 1842 1842 1842 1852 1852
2270 2270 2258 2258 2245 2222 2206 2191 2162 2141 2141 2141 2146 2172 2172 2172 2172 2172 2203 0 0 0 0 2528 2587 2648 2652 2722 2797 2862 2965 3029 3037 3046 3050 3056 3082 3111 3142 3148 3148 3148 3145 3145 3145 3152 3161 3176 3190 3198 3204 3206 3210 3221 3233 3245 3249 3254 3255 3259 3266 3275 3280 3283 3288 3294 3295 3298 3299 3301 3301 3306 3306 3306 3306 3305 3305 3305 3312 3316 3318 3318 3318 3317 3317 3317 3317 3318 3318 3320 3323 3324 3329 3333 3336 3339 3340 3341 3343 3347 3349 3352 3354 3359 3363 3364 3368 3382 3394 3400 3403 3405 3405 3410 3415 3418 3419 3423 3431 3440 3446 3449 3450 3452 3452 3455 3455 3459 3466 3472 3477 3477 3478 3480 3486 3493 3501 3506 3511 3518 3524 3525 3526 3527 3530 3534 3539 3544 3548 3554 3559 3563 3566 3566 3566 3568 3569 3572 3573 3574 3577 3578 3580 3586 3589 3596 3602 3606 3609 3611 3611 3611 3611 3616 3624 3634 3635 3637 3639 3641 3642 3642 3647 3652 3657 3659 3662 3666 3669 3672 3674 3676 3677 3680 3684 3688 3688 3689 3689 3689 3689 3689 3689 3690 3691 3692 3692 3692 3692 3692 3693 3696 3701 3708 3711 3712 3712 3715 3721 3725 3727 3728 3728 3729 3730 3730 3734 3738 3743 3745 3745 3746 3746 3747 3748 3749 3750 3753 3755 3758 3758 3758 3763 3763 3763 3759 3757 3757 3757 3757 3757 3756 3753 3753 3753 3756 3760 3761 3761 3761 3759 3758 3755 3752 3747 3743 3739 3735 3734 3734 3732 3731 3730 3728 3726 3723 3721 3720 3715 3707 3698 3693 3693 3692 3688 3684 3684 3683 3683 3678 3673 3667 3658 3653 3645 3642 3624 3599 3588 3187 2798 2528 2447 2419 2397 2377 2366 2353 2348 2342 2338 2337 2331 2320 2309 2296 2267 0 0 0 1628 1564 1551 1549 1547 1545 1543 1542 1538 1534 1530 1527 1525 1522 1520 1518 1516 1513 1511 1508 1505 1502 1499 1498 1495 1493 1490 1488 1486 1484 1481 1478 1476 1475 1473 1471 1468 1465 1463 1461 1458 1455 1453 1450 1447 1444 1443 1441 1439 1437 1435 1432 1430 1428 1425 1424 1422 1420 1418 1416 1414 1412 1410 1408 1407 1404 1402 1400 1398 1396 1394 1393 1391 1389 1387 1385 1382 1380 1378 1375 1373 1371 1370 1368 1366 1364 1362 1360 1358 1357 1355 1353 1350 1349 1347 1345 1343 1341 1338 1337 1335 1333 1331 1329 1327 1326 1324 1323 1321 1319 1318 1316 1314 1313 1311 1309 1308 1307 1305 1303 1302 1300 1298 1296 1295 1293 1291 1289 1287 1285 1283 1282 1280 1279 1277 1276 1274 1272 1271 1270 1269 1267 1265 1263 1260 1259 1257 1255 1254 1252 1250 1249 1248 1246 1244 1242 1241 1239 1238 1236 1235 1233 1231 1230 1228 1227 1225 1223 1222 1220 1218 1217 1215 1214 1212 1210 1208 1207 1206 1204 1203 1201 1200 1198 1197 1196 1194 1193 1192 1190 1188 1186 1185 1183 1182 1181 1181 1180 1180 1180 1180 1181 1183 1183 1184 1184 1185 1192 1212 0 0 0 0 1847 1887 1890 1891 1892 1892 1893 1893 1895 1897 1897 1899 1900 1900 1901 1901 1901 1902 1903 1903 1902 1902 1902 1902 1902 1902 1902 1901 1900 1900 1899 1898 1897 1895 1893 1893 1892 1891 1890 1890 1889 1888 1887 1887 1886 1886 1885 1883 1883 1881 1880 1879 1877 1876 1875 1875 1875 1874 1873 1873 1873 1873 1874 1876 1877 1878 1880 1881 1885 1893 1898 1913 1916 1920 1922 1923 1926 1926 1926 1921 1910 1910 1910 1917 1917 1917 1913 1910 1907 1906 1904 1901 1900 1890 1883 1875 1866 1861 1861 1860 1855 1843 1835 1835 1835 1846 1846
2270 2270 2258 2258 2245 2222 2189 2170 2162 2141 2141 2141 2146 2170 2170 2170 2170 2170 2177 0 0 0 0 2515 2577 2582 2650 2718 2790 2856 2941 3029 3029 3031 3036 3047 3076 3109 3139 3139 3139 3141 3143 3143 3159 3167 3171 3176 3190 3198 3204 3208 3214 3225 3240 3245 3254 3256 3259 3259 3266 3271 3277 3281 3288 3294 3296 3299 3303 3304 3304 3308 3309 3309 3309 3307 3307 3307 3312 3316 3318 3318 3318 3318 3317 3317 3317 3319 3320 3322 3323 3326 3329 3333 3337 3340 3340 3344 3348 3350 3353 3356 3359 3366 3370 3371 3376 3389 3401 3408 3410 3410 3411 3412 3416 3422 3431 3439 3447 3448 3450 3450 3452 3453 3457 3459 3459 3463 3469 3475 3479 3480 3481 3484 3491 3500 3508 3513 3519 3523 3525 3527 3529 3529 3532 3536 3540 3544 3549 3556 3560 3564 3566 3568 3568 3568 3570 3573 3575 3578 3579 3581 3583 3586 3589 3597 3602 3609 3614 3614 3615 3615 3616 3619 3624 3634 3639 3641 3641 3643 3643 3645 3650 3658 3664 3666 3667 3669 3673 3675 3676 3676 3678 3682 3685 3688 3689 3689 3689 3689 3689 3690 3690 3692 3693 3693 3693 3692 3692 3692 3692 3695 3702 3708 3712 3712 3713 3716 3721 3725 3727 3729 3731 3735 3736 3738 3741 3743 3745 3748 3748 3748 3749 3749 3751 3752 3753 3754 3757 3759 3760 3762 3765 3765 3765 3759 3758 3758 3756 3756 3756 3754 3753 3753 3753 3756 3760 3760 3760 3759 3758 3756 3755 3752 3748 3743 3739 3735 3734 3734 3734 3733 3732 3731 3728 3724 3723 3721 3716 3710 3703 3699 3696 3693 3688 3684 3684 3683 3683 3678 3668 3662 3652 3642 3632 3624 3620 3580 3389 3012 2654 2507 2447 2419 2397 2384 2374 2355 2349 2342 2338 2337 2331 2320 2309 2296 0 0 0 0 1616 1564 1551 1550 1547 1546 1544 1542 1538 1534 1531 1527 1525 1522 1520 1518 1516 1513 1511 1508 1505 1502 1500 1498 1495 1493 1492 1488 1486 1484 1481 1478 1476 1475 1473 1471 1468 1465 1463 1461 1458 1456 1453 1451 1448 1445 1443 1441 1439 1437 1435 1433 1431 1428 1426 1424 1422 1420 1418 1416 1414 1412 1410 1408 1407 1405 1402 1400 1398 1397 1394 1393 1391 1389 1387 1385 1382 1380 1378 1375 1373 1371 1370 1368 1366 1364 1362 1360 1358 1357 1355 1353 1350 1349 1347 1345 1343 1341 1338 1337 1335 1333 1332 1330 1327 1326 1324 1323 1321 1320 1318 1316 1315 1313 1311 1310 1308 1306 1305 1303 1302 1300 1298 1296 1295 1293 1291 1289 1287 1285 1283 1282 1280 1279 1277 1275 1273 1272 1271 1270 1268 1267 1264 1262 1260 1258 1256 1255 1253 1252 1250 1248 1247 1246 1244 1242 1240 1239 1237 1236 1234 1233 1231 1229 1228 1226 1225 1223 1221 1219 1218 1217 1215 1213 1211 1209 1208 1207 1205 1204 1202 1201 1200 1198 1197 1196 1194 1193 1191 1190 1188 1186 1185 1183 1182 1181 1181 1180 1180 1180 1180 1180 1181 1181 1184 1184 1185 1192 0 0 0 0 0 1857 1890 1890 1891 1892 1892 1893 1893 1894 1896 1896 1898 1899 1899 1900 1900 1901 1902 1902 1902 1902 1902 1901 1901 1901 1901 1901 1901 1900 1899 1898 1897 1895 1895 1893 1893 1892 1891 1890 1890 1889 1888 1887 1887 1886 1886 1885 1883 1883 1881 1880 1879 1877 1876 1875 1875 1874 1874 1873 1873 1873 1873 1874 1876 1879 1879 1882 1885 1889 1894 1900 1917 1918 1922 1923 1923 1926 1926 1926 1921 1921 1921 1921 1921 1921 1921 1913 1910 1907 1906 1904 1902 1900 1897 1883 1875 1866 1865 1860 1859 1853 1843 1832 1832 1832 1846 1846
2270 2270 2258 2258 2214 2189 2185 2170 2162 2154 2146 2146 2146 2168 2168 2168 2143 2143 2143 0 0 0 0 0 2551 2557 2643 2706 2786 2844 2938 2996 3006 3008 3011 3046 3074 3107 3126 3130 3131 3131 3136 3151 3174 3186 3189 3189 3195 3200 3204 3208 3214 3225 3240 3245 3256 3256 3256 3259 3261 3268 3273 3279 3288 3294 3299 3301 3305 3305 3307 3308 3313 3313 3313 3313 3313 3313 3314 3317 3319 3319 3319 3318 3318 3318 3318 3320 3322 3324 3325 3329 3333 3337 3339 3343 3346 3348 3350 3351 3356 3358 3363 3370 3374 3378 3384 3393 3401 3408 3412 3416 3419 3419 3421 3429 3434 3444 3450 3453 3453 3456 3456 3458 3458 3460 3463 3469 3475 3480 3483 3484 3486 3489 3496 3504 3513 3518 3522 3523 3525 3527 3529 3532 3534 3536 3540 3544 3550 3556 3561 3565 3568 3568 3569 3570 3572 3574 3576 3579 3584 3584 3587 3587 3591 3597 3604 3611 3616 3619 3619 3620 3623 3625 3633 3639 3642 3643 3644 3646 3649 3649 3655 3665 3671 3672 3672 3673 3675 3677 3678 3680 3681 3684 3687 3689 3690 3690 3690 3690 3691 3691 3693 3696 3696 3696 3695 3692 3692 3692 3692 3695 3702 3708 3712 3713 3713 3718 3723 3726 3728 3730 3733 3737 3742 3748 3748 3749 3749 3749 3749 3750 3750 3750 3751 3754 3755 3755 3757 3760 3760 3762 3765 3765 3765 3762 3758 3758 3758 3757 3756 3754 3752 3752 3752 3753 3754 3755 3755 3755 3755 3755 3754 3752 3748 3743 3739 3737 3737 3736 3735 3735 3734 3732 3729 3727 3726 3725 3720 3713 3709 3702 3698 3693 3688 3687 3687 3684 3684 3678 3668 3654 3642 3631 3617 3610 3604 3580 3255 2920 2628 2495 2447 2419 2397 2387 2379 2358 2350 2344 2338 2338 2331 2320 2309 2296 0 0 0 0 1606 1560 1552 1551 1549 1547 1545 1542 1538 1535 1531 1528 1525 1522 1520 1518 1516 1513 1511 1508 1506 1503 1500 1498 1495 1493 1492 1488 1486 1484 1481 1479 1477 1475 1474 1472 1469 1467 1464 1461 1459 1456 1453 1452 1449 1446 1444 1442 1439 1437 1435 1433 1431 1429 1426 1425 1422 1420 1418 1417 1415 1412 1410 1409 1407 1405 1403 1401 1398 1397 1394 1393 1391 1389 1387 1385 1382 1380 1378 1376 1373 1371 1370 1368 1366 1364 1362 1360 1358 1356 1355 1353 1351 1349 1347 1345 1343 1341 1338 1337 1335 1334 1332 1330 1328 1326 1325 1323 1321 1320 1318 1316 1315 1313 1311 1310 1308 1307 1305 1303 1301 1300 1298 1296 1295 1293 1291 1288 1286 1285 1283 1282 1280 1278 1277 1275 1273 1272 1271 1270 1268 1267 1264 1262 1260 1258 1256 1255 1253 1251 1249 1247 1247 1245 1243 1242 1240 1239 1237 1236 1234 1232 1231 1229 1228 1226 1224 1223 1221 1219 1217 1217 1214 1212 1211 1209 1207 1206 1205 1204 1202 1201 1199 1198 1197 1196 1194 1193 1191 1190 1188 1186 1185 1183 1182 1181 1181 1180 1180 1180 1180 1180 1180 1181 1183 1184 1184 1192 0 0 0 0 0 1857 1890 1891 1892 1892 1892 1893 1893 1894 1894 1895 1897 1897 1898 1899 1899 1900 1900 1901 1902 1902 1902 1901 1900 1900 1900 1900 1899 1899 1898 1898 1896 1895 1894 1893 1893 1892 1891 1890 1890 1890 1889 1888 1888 1887 1886 1885 1883 1883 1881 1880 1879 1877 1876 1875 1875 1874 1873 1872 1872 1872 1873 1874 1876 1879 1879 1883 1886 1893 1899 1911 1922 1924 1925 1925 1925 1926 1926 1926 1926 1926 1925 1925 1925 1924 1922 1913 1910 1908 1907 1907 1903 1900 1897 1887 1875 1867 1865 1860 1859 1850 1842 1832 1832 1832 1846 1846
2255 2255 2231 2231 2205 2189 2185 2177 2175 2170 2169 2169 2168 2168 2168 2168 2142 2142 2142 0 0 0 0 0 2532 2536 2607 2693 2745 2811 2886 2939 2977 2980 3006 3035 3072 3099 3116 3122 3131 3131 3136 3163 3187 3201 3206 3207 3209 3210 3212 3213 3214 3225 3240 3244 3256 3256 3256 3259 3261 3264 3269 3274 3282 3292 3303 3303 3305 3307 3307 3308 3313 3316 3316 3316 3317 3317 3319 3319 3320 3320 3320 3319 3319 3319 3321 3322 3324 3325 3327 3331 3334 3337 3340 3343 3347 3350 3351 3354 3356 3361 3366 3370 3376 3381 3387 3393 3401 3408 3412 3419 3423 3424 3426 3430 3438 3446 3450 3453 3456 3457 3458 3458 3462 3465 3468 3472 3477 3482 3484 3485 3488 3493 3500 3508 3517 3520 3522 3524 3525 3527 3530 3533 3534 3538 3542 3546 3552 3558 3563 3566 3569 3569 3569 3571 3572 3575 3577 3580 3584 3587 3589 3592 3595 3599 3607 3613 3617 3622 3623 3624 3627 3631 3638 3642 3644 3645 3648 3651 3654 3655 3658 3668 3674 3674 3675 3675 3676 3679 3680 3683 3685 3687 3690 3692 3692 3692 3692 3692 3694 3695 3695 3697 3697 3697 3695 3692 3692 3692 3692 3695 3702 3708 3712 3714 3716 3719 3724 3727 3729 3732 3735 3738 3744 3753 3753 3753 3752 3752 3752 3752 3752 3752 3753 3756 3757 3758 3758 3760 3763 3764 3766 3766 3766 3764 3761 3761 3760 3759 3756 3754 3752 3752 3752 3752 3753 3755 3755 3755 3754 3754 3753 3752 3748 3742 3740 3740 3739 3739 3738 3736 3734 3732 3731 3730 3729 3727 3721 3713 3709 3704 3698 3694 3690 3690 3690 3688 3688 3686 3668 3653 3638 3625 3605 3604 3595 3519 3200 2852 2567 2472 2447 2419 2396 2387 2379 2362 2354 2345 2339 2338 2336 2327 2314 2295 0 0 0 0 1592 1560 1553 1551 1549 1547 1545 1542 1538 1535 1532 1528 1525 1523 1520 1518 1516 1513 1511 1508 1506 1503 1500 1498 1496 1494 1492 1488 1486 1484 1481 1480 1477 1476 1474 1473 1470 1467 1464 1462 1459 1457 1454 1452 1450 1447 1444 1442 1440 1438 1435 1433 1431 1429 1427 1425 1423 1421 1418 1417 1415 1413 1410 1409 1407 1405 1403 1401 1398 1397 1394 1393 1391 1389 1387 1385 1382 1380 1378 1376 1373 1371 1370 1368 1366 1364 1362 1360 1358 1356 1355 1353 1351 1349 1347 1345 1343 1340 1338 1337 1335 1333 1332 1330 1328 1327 1325 1323 1322 1320 1318 1317 1315 1313 1311 1310 1308 1307 1305 1303 1301 1299 1298 1296 1295 1293 1291 1288 1286 1285 1283 1281 1280 1278 1277 1275 1273 1272 1270 1269 1268 1266 1264 1262 1259 1258 1255 1254 1251 1250 1248 1247 1245 1245 1243 1242 1240 1239 1237 1235 1234 1232 1231 1229 1227 1225 1224 1222 1221 1218 1217 1216 1214 1212 1211 1209 1207 1205 1205 1203 1202 1201 1199 1198 1197 1196 1194 1192 1191 1190 1188 1186 1185 1183 1182 1181 1181 1181 1180 1180 1180 1180 1180 1181 1183 1184 1188 1196 0 0 0 0 0 1874 1890 1891 1892 1892 1893 1893 1893 1894 1894 1895 1895 1896 1897 1898 1898 1899 1899 1900 1900 1900 1900 1900 1899 1899 1899 1899 1898 1898 1897 1897 1895 1895 1894 1893 1893 1892 1891 1890 1890 1890 1890 1889 1888 1887 1886 1885 1884 1883 1882 1880 1879 1878 1878 1876 1875 1874 1873 1873 1873 1873 1874 1875 1877 1879 1879 1884 1894 1897 1901 1913 1923 1928 1928 1928 1926 1926 1926 1926 1926 1926 1926 1926 1925 1924 1923 1915 1911 1908 1907 1907 1904 1899 1897 1887 1875 1867 1865 1862 1859 1853 1841 1832 1832 1832 1847 1847
2244 2244 2225 2225 2205 2197 2197 2197 2201 2204 2204 2201 2185 2172 2168 2168 2142 2142 2142 0 0 0 0 0 0 2509 2588 2666 2735 2773 2824 2884 2975 2979 2983 3008 3044 3079 3102 3108 3131 3139 3152 3167 3187 3201 3210 3216 3216 3216 3214 3214 3214 3224 3228 3239 3249 3254 3256 3257 3261 3264 3267 3268 3279 3292 3303 3304 3308 3310 3311 3313 3314 3317 3319 3320 3321 3321 3321 3321 3321 3321 3321 3321 3321 3321 3323 3326 3328 3330 3331 3333 3337 3339 3341 3344 3348 3350 3351 3354 3356 3362 3366 3370 3377 3382 3387 3393 3400 3407 3412 3419 3424 3428 3428 3431 3439 3448 3453 3456 3458 3459 3459 3463 3464 3467 3469 3472 3479 3485 3486 3487 3490 3497 3507 3514 3519 3520 3522 3525 3527 3528 3530 3533 3536 3540 3545 3551 3557 3562 3565 3567 3569 3570 3572 3574 3575 3575 3577 3580 3584 3587 3589 3592 3595 3601 3607 3614 3620 3623 3624 3625 3629 3636 3642 3644 3645 3648 3654 3658 3660 3660 3661 3668 3675 3678 3680 3681 3681 3683 3683 3685 3687 3690 3692 3693 3694 3694 3694 3694 3696 3697 3697 3698 3698 3698 3698 3697 3697 3697 3697 3700 3707 3712 3715 3717 3721 3722 3726 3730 3734 3736 3739 3740 3746 3755 3755 3755 3754 3754 3754 3753 3754 3754 3754 3756 3758 3760 3760 3761 3764 3766 3767 3767 3767 3766 3764 3763 3763 3761 3760 3757 3754 3752 3752 3752 3753 3755 3755 3755 3754 3753 3753 3750 3747 3742 3742 3742 3742 3742 3740 3738 3734 3733 3732 3731 3730 3729 3721 3713 3709 3705 3700 3697 3695 3695 3695 3695 3695 3688 3670 3648 3631 3619 3604 3595 3585 3415 3041 2656 2503 2460 2439 2412 2395 2387 2379 2367 2358 2347 2339 2338 2336 2327 2316 2295 0 0 0 0 1592 1560 1553 1551 1549 1547 1545 1542 1538 1535 1532 1529 1526 1524 1520 1518 1516 1513 1511 1508 1506 1503 1501 1499 1496 1494 1492 1489 1486 1484 1481 1480 1478 1476 1474 1473 1470 1468 1465 1462 1459 1457 1455 1453 1450 1447 1445 1443 1441 1438 1435 1433 1431 1429 1427 1425 1423 1421 1418 1417 1415 1413 1411 1409 1407 1405 1403 1401 1399 1397 1395 1393 1391 1389 1387 1384 1382 1380 1378 1376 1373 1371 1370 1368 1366 1364 1362 1360 1358 1356 1355 1353 1351 1348 1346 1345 1342 1340 1338 1337 1335 1334 1332 1330 1328 1327 1325 1323 1322 1320 1318 1317 1315 1313 1311 1310 1308 1307 1305 1303 1301 1299 1298 1296 1295 1293 1291 1288 1286 1284 1283 1281 1280 1278 1277 1275 1273 1272 1270 1269 1267 1266 1264 1261 1258 1256 1254 1252 1250 1249 1248 1246 1245 1244 1243 1242 1239 1238 1236 1235 1234 1232 1230 1229 1227 1225 1223 1222 1220 1218 1216 1215 1214 1211 1210 1208 1207 1205 1204 1203 1202 1201 1199 1198 1197 1196 1194 1192 1191 1190 1188 1186 1185 1183 1182 1181 1181 1181 1181 1181 1180 1180 1180 1181 1183 1186 1199 1211 0 0 0 0 0 1874 1889 1891 1892 1892 1893 1893 1893 1893 1893 1894 1895 1895 1896 1896 1897 1897 1898 1899 1899 1899 1899 1899 1899 1898 1898 1898 1898 1898 1897 1897 1895 1895 1894 1893 1893 1892 1891 1890 1890 1890 1890 1889 1888 1887 1887 1885 1884 1883 1882 1881 1880 1879 1878 1877 1876 1874 1873 1873 1873 1874 1875 1877 1878 1879 1879 1884 1896 1898 1904 1915 1925 1929 1929 1929 1928 1928 1928 1928 1928 1928 1927 1926 1925 1925 1923 1917 1911 1908 1908 1907 1904 1899 1893 1887 1875 1869 1867 1863 1859 1853 1843 1843 1843 1845 1850 1850
2244 2244 2225 2225 2225 2225 2232 2237 2237 2237 2224 2222 2205 2187 2177 2173 2143 2143 2143 0 0 0 0 0 0 2477 2563 2637 2697 2744 2799 2882 2948 2960 2968 2986 3031 3052 3057 3105 3125 3140 3153 3167 3187 3201 3210 3216 3216 3216 3214 3214 3214 3218 3226 3239 3249 3257 3257 3262 3263 3264 3267 3268 3279 3292 3305 3306 3308 3314 3314 3317 3318 3321 3321 3322 3323 3323 3325 3326 3326 3326 3325 3323 3323 3323 3325 3329 3332 3334 3335 3335 3337 3340 3342 3345 3350 3353 3353 3356 3359 3363 3367 3372 3378 3382 3387 3392 3398 3407 3413 3419 3426 3428 3429 3434 3439 3448 3452 3456 3460 3460 3461 3467 3471 3473 3476 3476 3481 3485 3487 3491 3495 3501 3508 3515 3520 3522 3525 3526 3528 3529 3530 3534 3540 3545 3549 3555 3561 3565 3566 3567 3570 3573 3576 3577 3577 3577 3578 3580 3583 3588 3591 3592 3596 3601 3607 3616 3621 3626 3628 3630 3634 3638 3642 3646 3649 3651 3656 3661 3662 3662 3665 3670 3676 3680 3684 3686 3688 3688 3688 3688 3690 3693 3694 3695 3696 3696 3696 3697 3700 3700 3700 3700 3700 3700 3701 3701 3701 3701 3701 3707 3713 3718 3722 3723 3724 3729 3733 3738 3742 3745 3745 3747 3751 3755 3755 3755 3755 3755 3756 3756 3756 3757 3757 3757 3759 3762 3763 3765 3765 3766 3768 3768 3768 3766 3766 3766 3764 3764 3763 3759 3756 3753 3753 3753 3753 3755 3756 3756 3756 3753 3753 3750 3746 3743 3743 3743 3742 3742 3742 3741 3737 3733 3732 3732 3731 3729 3725 3713 3709 3706 3701 3699 3699 3699 3699 3699 3699 3689 3670 3648 3630 3617 3610 3593 3570 3300 2894 2618 2483 2453 2435 2409 2392 2384 2379 2370 2359 2347 2339 2338 2336 2327 2316 2295 0 0 0 0 1592 1563 1553 1551 1549 1547 1544 1541 1537 1535 1532 1530 1526 1524 1520 1518 1516 1513 1511 1509 1507 1503 1501 1499 1497 1494 1492 1489 1487 1484 1482 1480 1478 1476 1474 1473 1471 1468 1465 1462 1459 1457 1455 1453 1450 1448 1445 1443 1441 1439 1436 1433 1431 1429 1428 1426 1423 1421 1419 1417 1416 1413 1412 1409 1407 1405 1403 1401 1399 1397 1395 1393 1391 1389 1386 1384 1382 1380 1378 1376 1374 1371 1370 1368 1366 1364 1362 1360 1358 1356 1354 1352 1350 1348 1346 1344 1342 1340 1338 1337 1335 1334 1332 1330 1329 1327 1325 1324 1322 1321 1319 1317 1315 1314 1312 1310 1308 1307 1305 1303 1301 1299 1297 1296 1295 1293 1290 1288 1284 1284 1282 1281 1280 1278 1276 1275 1273 1272 1270 1269 1267 1264 1264 1261 1256 1253 1252 1250 1250 1248 1247 1246 1245 1244 1242 1241 1239 1237 1235 1235 1233 1231 1230 1228 1227 1224 1223 1221 1219 1218 1216 1214 1213 1211 1209 1208 1207 1205 1204 1203 1202 1201 1199 1198 1197 1196 1194 1192 1191 1190 1188 1186 1185 1183 1182 1181 1181 1181 1181 1181 1181 1181 1182 1184 1186 1188 1199 1213 0 0 0 0 0 1876 1889 1891 1892 1892 1893 1893 1892 1892 1892 1892 1893 1894 1894 1895 1895 1896 1897 1898 1898 1898 1898 1898 1898 1898 1898 1898 1898 1898 1897 1896 1895 1895 1894 1893 1893 1892 1891 1891 1890 1890 1890 1889 1889 1887 1887 1886 1885 1883 1882 1882 1880 1879 1878 1878 1877 1875 1875 1875 1875 1876 1879 1879 1879 1879 1879 1890 1900 1904 1909 1920 1929 1931 1931 1931 1930 1930 1930 1929 1929 1928 1928 1926 1925 1924 1923 1920 1914 1909 1908 1907 1904 1897 1891 1885 1874 1870 1867 1863 1859 1853 1845 1845 1845 1848 1850 1850
2244 2244 2226 2239 2239 2239 2288 2288 2288 2255 2232 2230 2209 2194 2188 2175 2160 2160 2160 0 0 0 0 0 2406 2462 2537 2623 2672 2718 2798 2875 2924 2946 2951 2986 3022 3050 3056 3094 3123 3140 3153 3170 3183 3197 3210 3216 3216 3216 3214 3214 3214 3218 3226 3238 3249 3257 3260 3262 3262 3263 3267 3268 3279 3292 3305 3306 3310 3316 3319 3323 3323 3324 3324 3325 3325 3325 3328 3328 3328 3328 3326 3326 3326 3326 3326 3329 3333 3335 3335 3338 3340 3344 3345 3346 3351 3353 3355 3358 3361 3364 3367 3372 3377 3382 3387 3392 3398 3407 3414 3423 3428 3432 3435 3437 3441 3446 3450 3456 3460 3463 3464 3470 3471 3474 3477 3482 3485 3486 3490 3493 3498 3503 3510 3516 3521 3524 3528 3529 3530 3531 3535 3540 3545 3553 3559 3563 3565 3566 3566 3568 3571 3574 3577 3578 3578 3579 3579 3580 3583 3588 3591 3593 3596 3601 3607 3616 3621 3629 3633 3638 3641 3641 3644 3647 3651 3653 3658 3662 3663 3667 3668 3673 3678 3683 3689 3691 3691 3691 3693 3693 3693 3696 3697 3697 3698 3698 3698 3701 3703 3703 3703 3703 3703 3703 3703 3703 3703 3703 3705 3712 3718 3723 3725 3725 3730 3733 3739 3746 3750 3752 3753 3753 3754 3756 3756 3757 3757 3757 3757 3758 3758 3759 3759 3759 3761 3762 3764 3765 3766 3767 3768 3768 3769 3768 3768 3768 3768 3767 3765 3761 3757 3753 3753 3753 3754 3757 3757 3757 3756 3753 3753 3750 3746 3743 3743 3743 3743 3743 3742 3742 3739 3735 3734 3732 3732 3729 3725 3713 3709 3706 3703 3702 3702 3702 3702 3702 3702 3692 3671 3648 3630 3630 3610 3593 3538 3211 2833 2562 2473 2450 2430 2401 2387 2382 2379 2370 2359 2348 2340 2338 2332 2326 2317 2295 0 0 0 0 1592 1563 1553 1550 1549 1547 1544 1541 1537 1535 1532 1530 1527 1524 1520 1518 1516 1514 1511 1509 1507 1504 1502 1499 1497 1495 1492 1489 1487 1484 1483 1481 1478 1476 1474 1473 1471 1468 1465 1462 1460 1457 1455 1453 1450 1448 1445 1443 1441 1439 1437 1434 1431 1429 1428 1426 1424 1422 1420 1418 1416 1413 1412 1410 1408 1405 1404 1401 1399 1397 1395 1393 1391 1389 1386 1384 1382 1380 1378 1376 1374 1371 1369 1367 1365 1364 1362 1360 1358 1356 1354 1352 1350 1348 1346 1344 1342 1340 1338 1337 1335 1334 1332 1330 1329 1327 1325 1324 1322 1321 1319 1317 1316 1314 1312 1310 1308 1307 1305 1303 1301 1299 1297 1295 1294 1293 1290 1287 1284 1284 1282 1281 1280 1278 1276 1274 1273 1272 1270 1269 1266 1263 1261 1260 1255 1253 1251 1250 1249 1247 1244 1244 1243 1242 1241 1240 1239 1237 1235 1234 1233 1231 1230 1228 1226 1224 1222 1220 1219 1217 1215 1214 1212 1211 1209 1207 1206 1205 1204 1203 1202 1201 1199 1198 1197 1196 1194 1192 1191 1190 1188 1187 1185 1184 1183 1182 1181 1181 1181 1181 1181 1182 1182 1185 1187 1193 1200 0 0 0 0 0 0 1877 1887 1888 1889 1889 1889 1890 1890 1890 1890 1890 1892 1892 1893 1894 1895 1895 1896 1896 1897 1897 1897 1897 1898 1898 1898 1898 1898 1897 1897 1896 1895 1895 1894 1893 1892 1892 1891 1891 1890 1890 1890 1890 1889 1888 1887 1886 1885 1884 1883 1882 1881 1879 1879 1878 1878 1878 1877 1877 1877 1880 1880 1881 1881 1881 1887 1895 1903 1912 1915 1929 1931 1933 1933 1933 1931 1931 1931 1930 1930 1928 1928 1926 1925 1924 1923 1920 1916 1909 1907 1907 1904 1894 1889 1885 1871 1870 1868 1865 1863 1859 1850 1850 1850 1850 1850 1850
2250 2250 2234 2250 2250 2282 2302 2302 2302 2275 2275 2239 2211 2196 2194 2193 2193 2194 2204 2237 0 0 0 2390 2406 2462 2505 2595 2671 2717 2771 2860 2886 2915 2943 2982 3020 3047 3053 3078 3117 3140 3158 3170 3183 3189 3199 3209 3211 3212 3212 3213 3213 3218 3226 3237 3249 3257 3260 3262 3262 3263 3267 3269 3282 3302 3305 3306 3312 3316 3320 3323 3328 3330 3330 3330 3329 3329 3329 3329 3329 3329 3329 3329 3329 3331 3331 3332 3333 3336 3337 3339 3343 3346 3348 3349 3352 3356 3359 3360 3363 3367 3370 3373 3378 3383 3388 3392 3398 3407 3416 3426 3433 3437 3439 3439 3442 3447 3451 3456 3462 3466 3468 3470 3473 3475 3479 3482 3485 3488 3492 3496 3500 3506 3511 3518 3522 3524 3528 3530 3532 3534 3539 3546 3554 3560 3567 3567 3567 3567 3567 3569 3572 3574 3577 3579 3579 3579 3580 3581 3583 3588 3591 3593 3596 3601 3606 3616 3621 3629 3633 3639 3642 3645 3646 3649 3653 3656 3658 3664 3666 3669 3671 3675 3679 3685 3692 3696 3696 3696 3695 3695 3695 3697 3700 3702 3702 3702 3703 3704 3705 3705 3705 3705 3705 3705 3705 3705 3705 3705 3710 3718 3724 3725 3726 3728 3731 3735 3741 3746 3751 3759 3759 3759 3759 3759 3760 3760 3760 3760 3760 3760 3760 3760 3760 3761 3763 3764 3766 3766 3766 3768 3769 3769 3769 3769 3769 3769 3769 3767 3765 3762 3758 3756 3756 3756 3756 3760 3760 3760 3756 3754 3754 3750 3746 3744 3744 3744 3744 3744 3744 3742 3741 3737 3737 3735 3735 3735 3725 3713 3709 3706 3704 3702 3702 3702 3704 3704 3704 3694 3677 3653 3630 3630 3610 3593 3499 3125 2711 2537 2465 2449 2427 2398 2387 2382 2377 2370 2359 2348 2341 2338 2332 2326 2317 2295 0 0 0 0 1591 1563 1554 1550 1549 1547 1544 1541 1537 1535 1532 1530 1527 1524 1521 1518 1516 1514 1512 1509 1507 1504 1502 1499 1497 1495 1492 1490 1488 1485 1483 1481 1478 1476 1474 1472 1470 1468 1465 1463 1459 1457 1455 1453 1450 1448 1445 1443 1441 1439 1437 1434 1431 1429 1428 1426 1424 1422 1420 1418 1416 1414 1412 1410 1408 1406 1404 1402 1399 1397 1395 1393 1391 1389 1386 1384 1382 1380 1378 1375 1373 1371 1369 1367 1365 1364 1362 1360 1358 1356 1353 1351 1350 1348 1345 1343 1341 1340 1338 1337 1335 1333 1332 1330 1329 1327 1325 1324 1323 1321 1319 1317 1316 1314 1312 1310 1308 1306 1304 1302 1300 1299 1297 1295 1294 1293 1290 1287 1285 1284 1282 1281 1280 1278 1275 1273 1272 1272 1270 1269 1266 1263 1261 1258 1255 1252 1250 1250 1248 1247 1244 1243 1243 1242 1240 1240 1238 1237 1235 1233 1232 1231 1229 1228 1225 1223 1222 1220 1218 1216 1215 1213 1212 1211 1209 1207 1206 1205 1204 1202 1202 1201 1199 1198 1197 1195 1194 1192 1191 1190 1188 1187 1185 1184 1183 1182 1181 1181 1181 1181 1181 1182 1182 1185 1190 1194 1209 0 0 0 0 0 0 1874 1885 1886 1886 1886 1887 1887 1887 1887 1889 1890 1890 1891 1892 1893 1893 1893 1894 1895 1895 1895 1896 1896 1896 1897 1897 1897 1897 1897 1896 1895 1894 1894 1894 1893 1892 1892 1891 1891 1890 1890 1890 1890 1889 1888 1888 1887 1886 1884 1883 1882 1881 1880 1879 1879 1878 1878 1878 1878 1878 1881 1882 1882 1883 1885 1890 1899 1908 1926 1927 1934 1934 1935 1934 1934 1933 1933 1932 1932 1931 1929 1926 1924 1923 1922 1921 1920 1916 1910 1907 1904 1902 1894 1889 1885 1871 1870 1868 1865 1864 1860 1858 1854 1854 1851 1851 1851
2253 2253 2243 2253 2253 2282 2302 2302 2302 2277 2277 2240 2211 2203 2203 2203 2209 2209 2210 2237 2269 2315 2368 2381 2432 2462 2505 2595 2663 2707 2764 2795 2832 2872 2921 2978 3014 3027 3053 3076 3111 3133 3153 3167 3180 3185 3194 3203 3209 3209 3211 3214 3219 3222 3230 3237 3249 3257 3257 3259 3260 3262 3267 3272 3293 3301 3304 3307 3313 3316 3321 3325 3331 3335 3335 3335 3334 3334 3334 3334 3331 3331 3331 3331 3333 3338 3338 3338 3338 3338 3340 3342 3345 3348 3351 3353 3354 3358 3362 3365 3368 3369 3374 3375 3378 3383 3388 3395 3406 3414 3420 3427 3433 3437 3439 3441 3443 3448 3452 3456 3462 3466 3468 3472 3474 3475 3481 3484 3485 3489 3494 3499 3504 3509 3512 3519 3522 3525 3528 3531 3533 3538 3548 3553 3555 3560 3567 3568 3568 3569 3569 3569 3573 3575 3577 3579 3579 3580 3582 3584 3587 3589 3592 3593 3596 3601 3606 3615 3620 3629 3634 3639 3643 3645 3647 3650 3654 3657 3661 3664 3668 3671 3674 3678 3682 3688 3695 3698 3698 3698 3698 3698 3699 3700 3703 3703 3705 3705 3705 3706 3707 3707 3708 3708 3708 3708 3708 3708 3709 3709 3715 3722 3727 3728 3730 3731 3731 3736 3742 3747 3752 3759 3766 3767 3767 3767 3766 3766 3766 3766 3763 3763 3761 3761 3761 3762 3764 3766 3766 3767 3768 3769 3769 3770 3770 3770 3770 3769 3769 3768 3765 3764 3762 3761 3759 3759 3759 3760 3760 3760 3758 3756 3754 3751 3748 3748 3747 3747 3745 3745 3744 3742 3741 3740 3739 3738 3738 3735 3726 3714 3709 3708 3706 3702 3702 3702 3704 3704 3704 3695 3681 3667 3643 3631 3612 3597 3360 2961 2644 2494 2465 2448 2427 2398 2387 2379 2377 2370 2358 2350 2348 2342 2332 2326 2317 2295 0 0 0 0 1582 1560 1554 1550 1549 1547 1544 1541 1537 1535 1532 1530 1527 1524 1521 1518 1516 1514 1512 1509 1507 1504 1502 1499 1497 1495 1492 1491 1488 1485 1483 1481 1478 1475 1472 1471 1469 1468 1465 1463 1460 1457 1455 1453 1450 1447 1445 1443 1440 1438 1437 1434 1432 1429 1428 1426 1424 1422 1421 1418 1416 1415 1412 1410 1408 1406 1404 1402 1399 1397 1395 1393 1391 1389 1386 1384 1382 1380 1377 1375 1373 1370 1369 1367 1365 1363 1362 1359 1358 1356 1353 1351 1349 1347 1345 1343 1341 1340 1338 1337 1335 1333 1332 1330 1328 1327 1325 1324 1323 1321 1319 1318 1316 1314 1312 1310 1308 1306 1304 1302 1300 1299 1297 1295 1294 1292 1290 1287 1286 1285 1282 1281 1279 1277 1275 1273 1270 1269 1268 1267 1265 1262 1260 1256 1251 1248 1246 1246 1246 1244 1242 1241 1240 1240 1239 1238 1238 1236 1235 1233 1232 1231 1229 1227 1225 1223 1221 1220 1218 1216 1214 1213 1211 1210 1209 1207 1206 1205 1204 1202 1202 1201 1199 1198 1197 1195 1194 1192 1191 1190 1189 1187 1186 1184 1183 1182 1182 1182 1181 1181 1181 1181 1181 1185 1192 1193 1209 0 0 0 0 0 1849 1874 1883 1884 1884 1885 1885 1885 1886 1886 1888 1888 1888 1890 1891 1891 1892 1892 1893 1893 1894 1894 1895 1895 1896 1896 1896 1896 1895 1895 1895 1895 1894 1894 1894 1893 1892 1891 1890 1890 1890 1890 1890 1890 1890 1889 1889 1888 1886 1885 1883 1882 1881 1880 1879 1879 1878 1878 1878 1879 1879 1881 1883 1885 1887 1889 1894 1905 1916 1933 1933 1935 1936 1936 1936 1936 1934 1934 1933 1932 1931 1929 1926 1923 1922 1921 1920 1918 1916 1910 1906 1902 1898 1894 1889 1885 1872 1870 1868 1865 1864 1862 1861 1861 1858 1855 1851 1851
2253 2253 2253 2254 2254 2282 2302 2302 2302 2284 2280 2243 2214 2207 2207 2207 2209 2209 2210 2237 2259 2305 2368 2379 2432 2462 2505 2573 2648 2695 2752 2795 2832 2872 2914 2974 3014 3022 3053 3076 3108 3132 3153 3167 3176 3182 3188 3202 3206 3209 3211 3215 3219 3224 3231 3237 3245 3245 3247 3249 3249 3259 3268 3277 3301 3305 3306 3307 3314 3319 3323 3329 3334 3337 3338 3341 3341 3341 3340 3334 3333 3332 3332 3332 3334 3341 3342 3342 3343 3343 3343 3345 3349 3352 3357 3359 3359 3359 3365 3371 3373 3375 3375 3378 3381 3384 3390 3397 3407 3414 3420 3427 3433 3437 3440 3441 3444 3448 3452 3456 3462 3466 3468 3473 3474 3478 3483 3486 3489 3491 3497 3502 3506 3511 3516 3521 3524 3526 3529 3532 3535 3542 3549 3553 3557 3560 3567 3568 3568 3569 3571 3571 3574 3577 3578 3580 3581 3583 3584 3585 3587 3589 3593 3595 3598 3602 3606 3615 3620 3629 3635 3642 3646 3647 3650 3653 3657 3661 3665 3668 3672 3675 3678 3682 3686 3692 3697 3700 3700 3700 3700 3700 3700 3701 3703 3704 3706 3706 3707 3707 3710 3710 3710 3711 3712 3712 3712 3712 3712 3712 3717 3722 3727 3730 3731 3731 3732 3737 3744 3748 3755 3759 3766 3772 3772 3772 3770 3769 3769 3768 3767 3767 3766 3765 3765 3765 3766 3767 3769 3769 3771 3772 3772 3772 3771 3771 3770 3770 3769 3768 3766 3764 3762 3761 3759 3759 3759 3760 3760 3760 3759 3757 3756 3755 3752 3751 3750 3749 3747 3745 3744 3742 3741 3740 3739 3738 3738 3735 3726 3714 3710 3708 3707 3702 3702 3702 3704 3704 3704 3696 3686 3676 3651 3612 3610 3577 3214 2861 2582 0 2463 2446 2427 2398 2387 2379 2377 2364 2354 2350 2348 2342 2334 2327 2319 2295 0 0 0 0 1581 1560 1554 1552 1549 1547 1544 1541 1539 1536 1533 1530 1527 1524 1521 1518 1516 1514 1512 1509 1507 1505 1502 1500 1497 1495 1493 1491 1488 1486 1483 1481 1477 1474 1472 1469 1467 1466 1464 1463 1460 1457 1455 1452 1449 1447 1445 1442 1440 1438 1436 1434 1432 1429 1427 1425 1424 1422 1421 1418 1416 1415 1412 1410 1408 1406 1404 1402 1400 1397 1395 1393 1391 1389 1387 1384 1382 1380 1377 1374 1372 1370 1369 1366 1364 1362 1361 1359 1357 1355 1353 1351 1349 1347 1345 1343 1341 1340 1338 1336 1334 1333 1331 1330 1328 1327 1325 1324 1323 1321 1319 1318 1316 1314 1312 1310 1308 1306 1304 1302 1300 1298 1297 1295 1294 1291 1290 1287 1286 1285 1282 1280 1278 1277 1274 1271 1270 1268 1268 1267 1265 1262 1259 1255 1251 1246 1244 1242 1241 1239 1239 1239 1239 1239 1239 1238 1237 1236 1235 1233 1232 1230 1229 1227 1225 1223 1221 1220 1218 1216 1214 1213 1211 1210 1208 1207 1206 1205 1204 1202 1201 1201 1199 1198 1197 1195 1194 1192 1191 1190 1189 1187 1186 1185 1183 1183 1182 1181 1181 1180 1180 1180 1181 1183 1188 1192 0 0 0 0 0 0 1857 1878 1878 1882 1883 1884 1884 1885 1885 1885 1886 1887 1888 1889 1889 1890 1890 1891 1891 1892 1893 1893 1894 1894 1894 1894 1894 1894 1894 1894 1894 1894 1893 1893 1892 1891 1891 1891 1890 1890 1890 1890 1891 1891 1891 1891 1890 1888 1886 1885 1884 1882 1882 1880 1879 1879 1879 1879 1879 1879 1880 1881 1885 1888 1891 1895 1899 1909 1922 1933 1933 1935 1936 1936 1936 1936 1934 1934 1933 1932 1931 1929 1926 1923 1922 1920 1918 1917 1916 1910 1906 1901 1897 1894 1889 1888 1874 1862 1862 1862 1862 1862 1862 1861 1858 1856 1853 1853
2253 2253 2253 2258 2258 2280 2301 2301 2301 2299 2284 2247 2215 2215 2212 2210 2210 2210 2210 2233 2259 2299 2357 2362 2432 2477 2520 2568 2630 2694 2745 2793 2832 2872 2914 2974 3010 3019 3053 3070 3096 3128 3151 3167 3170 3170 3188 3202 3206 3209 3211 3216 3219 3228 3231 3236 3244 3244 3247 3249 3249 3259 3268 3291 3301 3306 3307 3311 3319 3324 3325 3332 3338 3339 3340 3345 3345 3345 3342 3336 3333 3333 3333 3333 3335 3341 3345 3345 3346 3346 3347 3349 3353 3358 3364 3364 3365 3366 3366 3375 3382 3382 3382 3383 3384 3386 3391 3398 3407 3414 3420 3427 3433 3437 3440 3443 3447 3450 3454 3456 3459 3464 3468 3473 3476 3481 3485 3488 3490 3493 3497 3503 3509 3515 3520 3525 3528 3529 3531 3535 3539 3545 3550 3555 3559 3561 3566 3569 3570 3571 3572 3575 3577 3579 3580 3582 3582 3584 3586 3586 3588 3589 3593 3598 3602 3606 3612 3615 3620 3629 3635 3643 3649 3655 3659 3662 3662 3666 3669 3674 3677 3680 3685 3687 3691 3695 3698 3700 3701 3701 3701 3701 3702 3702 3703 3705 3706 3707 3710 3711 3712 3712 3713 3713 3715 3716 3716 3717 3717 3717 3720 3723 3727 3731 3733 3734 3736 3739 3744 3748 3755 3761 3766 3772 3772 3772 3770 3770 3769 3769 3770 3769 3769 3769 3769 3769 3769 3769 3771 3772 3774 3774 3774 3774 3772 3772 3770 3770 3769 3769 3767 3764 3762 3761 3759 3759 3759 3759 3759 3759 3759 3759 3758 3756 3756 3754 3752 3750 3748 3746 3743 3742 3741 3740 3738 3738 3737 3733 3726 3714 3710 3708 3707 3704 3704 3704 3705 3705 3705 3696 3689 3680 3658 3649 3612 3536 3127 2769 2562 2480 2460 2443 2425 2400 2387 2382 2371 2364 2354 2350 2348 2342 2335 2327 2320 2279 0 0 0 0 1581 1560 1557 1552 1549 1547 1544 1543 1540 1536 1533 1530 1526 1524 1521 1518 1516 1514 1512 1509 1507 1505 1503 1500 1497 1495 1493 1491 1489 1486 1484 1481 1477 1474 1471 1469 1467 1465 1464 1462 1460 1457 1455 1452 1449 1446 1445 1442 1440 1438 1436 1434 1431 1429 1427 1425 1424 1422 1421 1418 1417 1415 1412 1410 1408 1406 1404 1402 1400 1398 1395 1393 1391 1389 1387 1384 1382 1379 1375 1374 1369 1367 1367 1365 1363 1361 1359 1357 1357 1355 1353 1350 1348 1347 1345 1343 1341 1339 1337 1336 1334 1333 1331 1330 1328 1327 1325 1324 1323 1321 1319 1318 1316 1314 1312 1310 1308 1306 1304 1302 1300 1298 1296 1295 1293 1291 1289 1287 1286 1284 1282 1280 1277 1275 1272 1270 1268 1267 1267 1266 1265 1261 1257 1253 1249 1245 1242 1240 1239 1239 1239 1239 1239 1239 1239 1238 1236 1235 1234 1233 1232 1230 1228 1226 1224 1223 1221 1219 1218 1216 1214 1213 1211 1209 1208 1207 1206 1205 1203 1202 1201 1201 1199 1198 1197 1195 1194 1192 1191 1190 1189 1187 1186 1185 1184 1183 1182 1181 1181 1180 1180 1180 1180 1182 1187 1192 0 0 0 0 0 0 1858 1878 1878 1880 1882 1884 1884 1884 1884 1884 1885 1886 1887 1887 1888 1889 1889 1890 1890 1891 1892 1892 1893 1893 1893 1893 1893 1892 1892 1892 1892 1892 1892 1892 1892 1891 1890 1890 1890 1890 1890 1890 1891 1891 1891 1891 1890 1888 1886 1885 1884 1883 1882 1881 1880 1879 1879 1879 1879 1880 1881 1883 1887 1892 1895 1899 1902 1911 1925 1933 1933 1935 1935 1936 1936 1936 1934 1934 1933 1932 1930 1929 1927 1924 1921 1919 1917 1914 1911 1909 1903 1898 1894 1894 1889 1888 1877 1862 1862 1862 1863 1863 1863 1861 1858 1858 1857 1857
2251 2252 2252 2256 2259 2280 2290 2300 2300 2300 2292 2254 2216 2215 2212 2211 2211 2211 2211 2233 2259 2299 2305 2361 2429 2480 2521 2567 2612 2676 2745 2787 2857 2886 2914 2969 2977 3015 3049 3068 3096 3128 3138 3139 3151 3170 3188 3202 3206 3209 3215 3220 3224 3228 3231 3236 3244 3244 3247 3249 3249 3259 3279 3298 3307 3314 3318 3322 3325 3326 3331 3338 3338 3340 3343 3349 3349 3349 3348 3347 3343 3342 3342 3342 3343 3345 3346 3349 3351 3351 3353 3353 3356 3361 3368 3368 3370 3370 3372 3380 3385 3388 3389 3390 3391 3393 3395 3401 3406 3414 3420 3427 3433 3437 3440 3445 3449 3453 3454 3456 3459 3464 3468 3474 3479 3483 3485 3489 3491 3494 3499 3505 3510 3517 3524 3530 3530 3533 3533 3539 3542 3546 3551 3555 3559 3561 3566 3569 3573 3574 3576 3577 3579 3581 3582 3583 3584 3587 3588 3588 3588 3589 3594 3598 3602 3608 3616 3620 3624 3630 3637 3643 3649 3655 3664 3668 3668 3670 3674 3678 3682 3685 3689 3693 3696 3698 3700 3701 3701 3702 3702 3703 3704 3704 3704 3707 3708 3711 3714 3715 3715 3715 3715 3716 3717 3719 3719 3719 3720 3720 3724 3725 3727 3731 3734 3740 3742 3747 3751 3753 3755 3761 3766 3772 3772 3772 3771 3770 3770 3770 3770 3770 3770 3770 3772 3773 3773 3774 3774 3774 3776 3776 3776 3775 3775 3774 3774 3771 3769 3769 3767 3765 3763 3761 3759 3759 3759 3759 3761 3762 3762 3762 3762 3759 3757 3755 3753 3750 3748 3747 3743 3740 3739 3737 3737 3736 3735 3730 3720 3714 3710 3708 3707 3704 3704 3704 3705 3705 3705 3699 3698 3690 3658 3649 3612 3473 3012 2680 2498 2455 2447 2436 2419 2400 2389 2382 2370 2363 2354 2348 2347 2342 2335 2327 2320 2273 0 0 0 0 1579 1561 1557 1552 1549 1547 1545 1543 1540 1536 1533 1529 1526 1524 1521 1519 1516 1514 1512 1509 1507 1505 1503 1500 1498 1495 1493 1491 1489 1486 1484 1481 1476 1474 1469 1467 1465 1464 1463 1462 1460 1457 1455 1452 1448 1446 1445 1442 1440 1438 1436 1434 1431 1429 1427 1425 1423 1422 1419 1418 1417 1415 1412 1410 1408 1406 1404 1402 1400 1398 1395 1393 1391 1389 1387 1383 1380 1377 1372 1371 1369 1367 1367 1365 1363 1359 1357 1357 1356 1355 1353 1349 1347 1346 1345 1343 1340 1337 1337 1336 1334 1333 1331 1330 1328 1327 1326 1324 1323 1321 1319 1317 1316 1314 1312 1310 1308 1306 1304 1302 1300 1298 1296 1295 1294 1291 1288 1287 1286 1284 1282 1281 1277 1275 1272 1269 1268 1267 1267 1266 1265 1260 1256 1252 1248 1245 1242 1240 1239 1238 1238 1238 1238 1238 1238 1236 1236 1235 1234 1233 1231 1229 1228 1226 1224 1223 1221 1219 1218 1216 1214 1213 1211 1209 1208 1207 1206 1205 1203 1202 1201 1201 1199 1198 1196 1195 1194 1192 1191 1190 1189 1187 1186 1185 1184 1183 1182 1182 1181 1180 1180 1180 1180 1180 1181 1187 0 0 0 0 0 0 1867 1874 1877 1880 1881 1882 1882 1883 1883 1883 1884 1885 1885 1886 1887 1888 1888 1889 1890 1890 1891 1892 1892 1892 1892 1892 1892 1891 1891 1891 1891 1891 1891 1891 1890 1890 1889 1889 1889 1889 1889 1889 1890 1891 1891 1891 1890 1888 1886 1885 1884 1883 1882 1881 1881 1879 1879 1879 1879 1880 1881 1884 1888 1892 1895 1903 1905 1912 1926 1930 1931 1934 1935 1935 1935 1935 1934 1933 1932 1931 1930 1929 1927 1924 1921 1918 1915 1912 1910 1906 1901 1896 1894 1890 1888 1888 1877 1862 1862 1862 1863 1863 1863 1861 1861 1861 1861 1861
2251 2255 2255 2256 2267 2280 2290 2301 2302 2302 2301 2264 2219 2218 2215 2213 2211 2211 2211 2233 2257 2298 2304 2360 2426 2480 2521 2559 2602 2653 2720 2786 2858 2914 2914 2966 2975 3015 3046 3064 3092 3107 3119 3134 3151 3170 3196 3208 3215 3215 3217 3220 3224 3227 3231 3235 3244 3255 3258 3263 3266 3276 3292 3301 3310 3315 3320 3323 3328 3332 3337 3339 3339 3341 3346 3352 3353 3353 3354 3354 3354 3354 3353 3353 3352 3352 3352 3355 3357 3359 3359 3359 3361 3364 3369 3369 3372 3374 3374 3381 3387 3390 3392 3394 3395 3396 3400 3403 3406 3414 3420 3427 3433 3438 3444 3448 3453 3454 3456 3456 3459 3464 3468 3474 3480 3484 3487 3490 3494 3496 3500 3506 3513 3521 3527 3532 3533 3533 3535 3542 3546 3550 3553 3556 3559 3561 3566 3571 3577 3577 3577 3578 3580 3582 3583 3585 3587 3588 3588 3589 3590 3590 3595 3599 3603 3608 3616 3622 3628 3634 3637 3643 3649 3655 3664 3670 3672 3672 3675 3680 3685 3689 3692 3696 3697 3698 3700 3701 3702 3702 3703 3704 3705 3706 3707 3710 3712 3715 3717 3718 3718 3718 3719 3719 3720 3721 3721 3721 3721 3724 3725 3726 3727 3731 3734 3740 3745 3749 3752 3755 3758 3762 3766 3767 3768 3769 3770 3770 3770 3771 3771 3771 3771 3771 3774 3777 3778 3778 3778 3778 3778 3778 3777 3777 3777 3777 3777 3775 3772 3769 3767 3765 3763 3761 3759 3759 3759 3759 3761 3762 3763 3763 3763 3762 3759 3755 3753 3752 3751 3747 3743 3738 3737 3736 3736 3735 3734 3727 3719 3713 3709 3708 3707 3707 3707 3707 3707 3707 3706 3703 3700 3690 3658 3649 3612 3440 2911 2585 2471 2453 2442 2435 2416 2400 2390 2379 2370 2363 2354 2348 2347 2343 2335 2327 2319 2273 0 0 0 0 1579 1561 1557 1552 1549 1547 1545 1543 1540 1536 1533 1529 1526 1524 1521 1519 1516 1514 1512 1510 1507 1505 1503 1500 1499 1496 1493 1491 1489 1486 1484 1481 1476 1474 1468 1464 1463 1463 1463 1462 1460 1457 1454 1450 1446 1446 1445 1442 1440 1437 1436 1433 1432 1429 1427 1424 1422 1421 1419 1418 1416 1414 1412 1410 1408 1406 1404 1402 1400 1397 1395 1393 1391 1388 1385 1383 1380 1376 1372 1371 1369 1367 1365 1364 1362 1359 1357 1354 1353 1351 1350 1348 1347 1346 1344 1343 1340 1337 1337 1335 1334 1333 1331 1330 1328 1327 1326 1324 1323 1321 1319 1317 1316 1314 1312 1310 1308 1307 1304 1302 1300 1298 1296 1295 1294 1290 1288 1287 1285 1284 1282 1281 1277 1274 1271 1269 1267 1267 1266 1266 1265 1260 1255 1252 1247 1243 1241 1239 1239 1238 1238 1238 1238 1238 1237 1236 1236 1235 1233 1232 1231 1229 1228 1226 1224 1222 1221 1219 1217 1216 1214 1213 1211 1210 1208 1207 1206 1205 1203 1202 1201 1200 1199 1198 1196 1195 1194 1192 1191 1190 1188 1187 1186 1185 1184 1183 1183 1182 1181 1180 1180 1180 1180 1180 1181 1187 0 0 0 0 0 0 1867 1874 1877 1879 1880 1880 1881 1882 1882 1883 1883 1884 1884 1885 1886 1886 1887 1888 1889 1890 1890 1890 1890 1891 1891 1891 1891 1890 1889 1889 1889 1889 1889 1889 1889 1888 1888 1888 1887 1887 1887 1887 1889 1889 1889 1889 1888 1887 1886 1885 1884 1883 1882 1881 1881 1880 1880 1880 1881 1881 1881 1884 1888 1892 1897 1903 1906 1914 1927 1929 1930 1933 1935 1935 1935 1935 1934 1933 1931 1930 1929 1929 1927 1924 1921 1917 1915 1912 1909 1904 1899 1896 1894 1890 1884 1882 1877 1862 1862 1862 1864 1864 1864 1861 1861 1861 1866 1866
2251 2255 2255 2256 2271 2282 2290 2307 2314 2314 2314 2287 2256 2256 2252 2244 2242 2236 2236 2236 2260 2295 2300 0 0 2480 2521 2558 2595 2632 2692 2780 2865 2917 2929 2954 2959 2983 2995 3025 3062 3094 3112 3128 3151 3178 3197 3214 3215 3215 3218 3220 3224 3226 3227 3232 3245 3261 3268 3275 3278 3289 3296 3303 3311 3317 3320 3323 3328 3332 3339 3341 3341 3342 3347 3353 3357 3357 3360 3362 3362 3362 3363 3362 3363 3364 3364 3365 3365 3366 3367 3367 3367 3370 3373 3374 3375 3375 3376 3381 3387 3390 3392 3394 3396 3399 3402 3403 3408 3414 3420 3429 3436 3441 3445 3448 3453 3457 3458 3461 3464 3467 3472 3478 3483 3486 3490 3493 3495 3500 3504 3509 3514 3522 3528 3532 3534 3535 3537 3543 3550 3555 3560 3564 3567 3567 3570 3574 3577 3579 3580 3580 3580 3583 3584 3585 3587 3588 3589 3590 3592 3596 3597 3599 3603 3608 3616 3622 3628 3634 3637 3642 3647 3655 3664 3670 3672 3673 3677 3681 3685 3689 3692 3696 3697 3698 3700 3701 3702 3703 3704 3706 3707 3709 3712 3714 3717 3718 3720 3720 3720 3720 3721 3724 3724 3724 3723 3723 3723 3724 3727 3727 3729 3732 3735 3741 3745 3749 3752 3755 3758 3762 3764 3766 3766 3766 3769 3771 3772 3772 3772 3771 3771 3771 3775 3778 3780 3780 3780 3779 3779 3779 3779 3779 3779 3779 3779 3778 3776 3772 3768 3765 3763 3761 3759 3758 3758 3758 3761 3762 3763 3763 3763 3762 3759 3756 3755 3753 3753 3750 3743 3738 3737 3736 3735 3733 3729 3724 3718 3710 3708 3708 3707 3707 3707 3709 3710 3710 3713 3710 3704 3690 3651 3632 3620 3316 2825 2573 2468 2452 2440 2433 2412 2398 2390 2379 2370 2363 2355 2348 2346 2340 2335 2327 2303 0 0 0 0 0 1575 1561 1555 1551 1548 1547 1545 1542 1540 1536 1533 1530 1527 1525 1522 1519 1516 1514 1512 1510 1507 1505 1503 1500 1499 1496 1493 1491 1487 1483 1480 1478 1475 1473 1467 1461 1461 1461 1460 1460 1460 1457 1454 1450 1446 1443 1439 1438 1438 1437 1436 1433 1432 1429 1427 1424 1422 1421 1419 1417 1416 1414 1412 1410 1408 1406 1404 1401 1400 1397 1395 1393 1391 1388 1385 1383 1380 1376 1372 1370 1368 1367 1365 1364 1361 1358 1356 1354 1352 1350 1348 1347 1345 1345 1344 1342 1340 1337 1336 1335 1334 1333 1332 1330 1328 1327 1326 1324 1323 1321 1319 1317 1316 1314 1312 1310 1308 1307 1304 1302 1300 1298 1296 1295 1293 1290 1288 1287 1284 1284 1282 1281 1277 1274 1271 1268 1266 1266 1266 1265 1265 1260 1254 1250 1247 1243 1241 1239 1238 1238 1238 1238 1238 1237 1237 1236 1236 1235 1233 1232 1230 1229 1227 1226 1224 1222 1221 1219 1217 1216 1214 1213 1211 1210 1208 1207 1206 1205 1203 1202 1201 1200 1198 1197 1196 1195 1193 1192 1191 1190 1188 1187 1186 1185 1183 1183 1182 1182 1181 1180 1180 1180 1180 1180 1181 1187 0 0 0 0 1780 1835 1867 1873 1877 1879 1879 1879 1879 1879 1880 1882 1882 1883 1884 1884 1885 1885 1886 1887 1888 1888 1889 1889 1889 1889 1889 1889 1889 1889 1888 1888 1887 1887 1887 1887 1887 1887 1887 1886 1886 1886 1886 1887 1887 1887 1887 1887 1886 1885 1885 1884 1884 1883 1882 1881 1881 1880 1880 1880 1881 1881 1882 1884 1888 1890 1896 1903 1908 1923 1928 1929 1930 1933 1935 1935 1935 1935 1934 1933 1931 1929 1928 1928 1927 1923 1918 1917 1914 1911 1907 1903 1897 1896 1894 1889 1884 1880 1876 1871 1868 1867 1866 1866 1865 1865 1865 1865 1875 1875
2258 2258 2273 2279 2296 2310 2320 2335 2337 2339 2339 2339 2323 2321 2315 2314 2293 2257 2257 2257 2261 2283 2294 0 0 0 2518 2556 2590 2628 2679 2766 2865 2917 2917 2921 2921 2925 2964 3004 3048 3086 3111 3127 3151 3178 3197 3214 3215 3215 3215 3215 3215 3221 3224 3229 3245 3261 3268 3275 3278 3289 3301 3307 3313 3317 3320 3323 3328 3332 3342 3342 3344 3345 3348 3355 3361 3362 3365 3367 3368 3369 3369 3373 3375 3375 3375 3374 3374 3373 3373 3373 3373 3373 3374 3375 3376 3377 3377 3381 3387 3390 3393 3395 3397 3401 3403 3405 3410 3415 3423 3433 3436 3441 3445 3448 3453 3459 3463 3466 3468 3471 3476 3482 3488 3491 3492 3494 3499 3502 3507 3510 3516 3524 3531 3534 3536 3536 3540 3546 3553 3564 3570 3572 3575 3576 3577 3579 3579 3581 3581 3581 3582 3584 3584 3586 3587 3589 3591 3593 3596 3597 3598 3601 3603 3607 3615 3622 3628 3634 3638 3642 3647 3655 3663 3670 3672 3673 3677 3683 3686 3689 3693 3696 3697 3699 3700 3702 3703 3705 3707 3708 3712 3715 3718 3719 3719 3721 3721 3721 3721 3721 3722 3725 3725 3725 3724 3724 3724 3725 3727 3731 3733 3735 3739 3741 3745 3749 3752 3755 3758 3763 3763 3765 3766 3766 3769 3773 3774 3775 3775 3775 3775 3775 3778 3782 3782 3782 3781 3781 3781 3781 3781 3781 3781 3780 3780 3780 3777 3775 3770 3765 3763 3762 3761 3758 3758 3758 3760 3761 3763 3763 3763 3762 3759 3756 3755 3754 3753 3751 3745 3738 3737 3736 3735 3731 3727 3721 3715 3708 3705 3704 3704 3704 3708 3709 3710 3710 3713 3710 3710 3681 3634 3634 3568 3196 2781 2550 2468 2451 2440 2425 2411 2397 2390 2379 2371 2363 2355 2349 2346 2340 2335 2325 2302 0 0 0 0 0 1570 1558 1552 1551 1548 1547 1545 1542 1539 1536 1533 1530 1527 1525 1522 1519 1517 1514 1512 1510 1507 1505 1503 1500 1499 1496 1493 1490 1487 1483 1480 1476 1471 1466 1462 1459 1459 1459 1459 1459 1456 1454 1451 1450 1445 1443 1439 1437 1437 1436 1436 1434 1432 1429 1427 1424 1422 1421 1419 1417 1415 1414 1412 1410 1408 1406 1404 1401 1399 1397 1394 1392 1391 1388 1385 1383 1381 1377 1372 1370 1368 1367 1364 1360 1356 1355 1353 1353 1351 1350 1347 1346 1345 1344 1343 1342 1340 1338 1337 1335 1334 1333 1332 1330 1328 1327 1326 1324 1323 1321 1319 1317 1316 1314 1311 1310 1308 1306 1304 1302 1300 1298 1296 1294 1293 1290 1288 1287 1284 1284 1282 1281 1277 1274 1271 1268 1266 1265 1265 1264 1263 1258 1253 1249 1245 1243 1240 1239 1238 1238 1238 1238 1238 1237 1237 1236 1236 1235 1233 1232 1230 1229 1227 1226 1224 1222 1220 1219 1217 1216 1214 1212 1211 1210 1208 1207 1206 1205 1203 1202 1200 1200 1198 1196 1196 1194 1193 1191 1190 1190 1188 1187 1185 1184 1183 1182 1182 1182 1181 1180 1180 1180 1180 1180 1186 1193 0 0 0 0 1780 1835 1864 1869 1871 1874 1877 1877 1877 1878 1879 1880 1881 1881 1882 1883 1884 1885 1885 1886 1886 1887 1887 1887 1887 1887 1887 1887 1887 1887 1886 1886 1886 1886 1886 1886 1886 1885 1885 1884 1884 1884 1884 1885 1886 1887 1887 1887 1884 1884 1884 1883 1882 1882 1880 1880 1879 1879 1879 1880 1881 1881 1882 1882 1885 1889 1895 1903 1908 1926 1929 1930 1930 1933 1935 1935 1935 1935 1934 1933 1931 1928 1927 1927 1925 1919 1917 1914 1913 1909 1906 1900 1897 1895 1894 1888 1882 1879 1876 1875 1874 1872 1870 1869 1866 1866 1866 1871 1880 1880
2263 2263 2286 2302 2319 2344 2359 2362 2383 2396 2396 2396 2381 2380 2364 2344 2295 2261 2261 2261 2262 2282 2294 2324 0 0 0 2532 2586 2612 2678 2760 2858 2913 2913 2917 2917 2923 2954 3004 3048 3082 3099 3124 3151 3178 3197 3214 3215 3215 3215 3213 3213 3213 3218 3226 3245 3261 3268 3275 3278 3289 3303 3308 3314 3317 3320 3322 3327 3332 3343 3344 3350 3353 3353 3356 3362 3366 3366 3367 3369 3371 3376 3376 3376 3376 3381 3381 3381 3380 3380 3380 3380 3380 3377 3377 3377 3377 3377 3381 3387 3391 3393 3397 3400 3403 3404 3407 3411 3419 3426 3433 3437 3441 3445 3448 3453 3459 3463 3469 3473 3477 3482 3486 3492 3494 3497 3498 3503 3507 3509 3513 3519 3528 3535 3539 3540 3540 3542 3547 3556 3564 3570 3573 3576 3577 3577 3580 3581 3581 3582 3583 3584 3584 3586 3586 3587 3590 3593 3593 3596 3597 3599 3601 3603 3607 3611 3621 3628 3634 3637 3642 3647 3655 3663 3670 3672 3674 3678 3683 3686 3690 3693 3695 3697 3699 3700 3702 3705 3707 3711 3714 3716 3720 3722 3724 3724 3724 3724 3722 3722 3722 3722 3725 3725 3726 3726 3726 3726 3727 3730 3735 3738 3739 3741 3743 3743 3745 3749 3753 3758 3764 3764 3765 3766 3766 3772 3776 3778 3779 3780 3780 3781 3783 3785 3785 3785 3785 3784 3784 3783 3783 3782 3782 3782 3781 3781 3780 3778 3776 3772 3766 3764 3763 3762 3759 3759 3759 3759 3760 3761 3761 3761 3761 3759 3757 3755 3755 3753 3751 3748 3743 3741 3737 3735 3730 3723 3718 3711 3705 3704 3704 3704 3705 3708 3711 3711 3711 3710 3710 3709 3674 3634 3634 3487 3110 2697 2520 2466 2451 2438 2421 2410 2395 2385 2379 2371 2363 2355 2351 2346 2339 2328 2321 2302 0 0 0 0 0 1568 1558 1552 1551 1548 1547 1546 1542 1539 1536 1534 1531 1528 1525 1521 1519 1517 1514 1512 1510 1507 1505 1503 1500 1498 1495 1492 1490 1487 1483 1479 1475 1470 1462 1458 1458 1458 1458 1458 1458 1456 1453 1451 1448 1444 1441 1438 1437 1436 1436 1436 1434 1432 1429 1427 1424 1422 1421 1419 1417 1415 1414 1411 1410 1408 1406 1404 1401 1399 1397 1394 1391 1389 1388 1385 1383 1381 1377 1372 1370 1367 1367 1363 1359 1356 1355 1353 1352 1351 1349 1347 1346 1345 1344 1343 1341 1340 1338 1337 1335 1335 1333 1332 1331 1329 1327 1326 1324 1323 1321 1319 1317 1315 1313 1311 1310 1308 1306 1304 1302 1300 1298 1296 1294 1291 1289 1288 1287 1283 1283 1282 1280 1276 1271 1269 1267 1265 1263 1262 1262 1259 1254 1249 1244 1243 1242 1239 1239 1238 1238 1238 1238 1237 1237 1237 1236 1236 1235 1233 1232 1230 1229 1227 1226 1224 1222 1220 1219 1217 1216 1214 1213 1211 1210 1208 1207 1206 1204 1203 1201 1200 1199 1197 1196 1195 1194 1193 1191 1190 1189 1188 1187 1185 1184 1183 1182 1182 1182 1181 1181 1181 1181 1181 1181 1188 1196 0 0 0 0 1769 1823 1863 1868 1871 1874 1875 1876 1876 1877 1877 1879 1880 1881 1881 1882 1884 1884 1885 1885 1885 1886 1886 1886 1886 1886 1887 1887 1887 1886 1885 1885 1885 1885 1885 1885 1885 1884 1883 1882 1882 1882 1884 1885 1886 1886 1886 1884 1884 1883 1883 1882 1882 1881 1880 1879 1878 1878 1879 1881 1881 1881 1881 1881 1882 1888 1895 1899 1909 1928 1929 1930 1932 1934 1936 1936 1936 1935 1934 1932 1930 1928 1927 1926 1923 1918 1917 1914 1911 1906 1903 1898 1895 1895 1894 1888 1881 1878 1878 1878 1877 1877 1877 1873 1872 1872 1872 1874 1882 1882
2264 2264 2294 2315 2344 2346 2359 2362 2383 2396 2396 2396 2381 2380 2364 2344 2311 2288 2280 2280 2280 2282 2291 2322 2355 0 0 0 2540 2600 2678 2759 2827 2867 2890 2895 2906 2923 2954 3001 3048 3079 3093 3111 3140 3170 3193 3208 3210 3213 3213 3213 3212 3212 3212 3223 3233 3252 3259 3260 3266 3284 3303 3308 3312 3316 3317 3317 3318 3327 3344 3345 3350 3353 3356 3360 3366 3369 3369 3369 3370 3373 3376 3377 3377 3377 3382 3383 3383 3383 3383 3383 3383 3383 3380 3379 3379 3379 3380 3382 3387 3391 3393 3397 3401 3403 3405 3408 3412 3419 3427 3435 3438 3441 3445 3448 3453 3459 3463 3469 3475 3479 3484 3489 3495 3499 3500 3504 3506 3509 3511 3514 3519 3528 3536 3541 3542 3543 3544 3549 3557 3564 3570 3573 3576 3577 3577 3580 3582 3584 3585 3585 3585 3585 3586 3587 3587 3591 3593 3593 3597 3597 3600 3601 3603 3607 3611 3620 3626 3632 3637 3643 3649 3655 3663 3670 3672 3674 3678 3683 3687 3690 3693 3695 3697 3699 3701 3703 3705 3708 3713 3716 3718 3721 3724 3725 3725 3725 3725 3724 3723 3723 3723 3726 3727 3727 3727 3727 3729 3730 3734 3739 3742 3743 3743 3743 3743 3743 3745 3752 3758 3765 3765 3765 3766 3769 3775 3780 3782 3785 3785 3786 3787 3789 3792 3792 3792 3789 3786 3785 3784 3784 3783 3783 3783 3783 3782 3782 3781 3778 3774 3768 3764 3763 3763 3761 3759 3758 3758 3758 3758 3758 3759 3759 3759 3759 3756 3755 3753 3751 3748 3745 3743 3741 3736 3730 3721 3714 3711 3705 3704 3704 3704 3705 3708 3708 3708 3708 3704 3703 3703 3673 3634 3634 3356 2905 2625 2494 2463 2451 2437 2410 2401 2384 2379 2378 2371 2363 2355 2352 2346 2339 2328 2320 2296 0 0 0 0 0 1567 1558 1552 1551 1549 1548 1546 1542 1539 1536 1534 1531 1528 1525 1521 1519 1517 1514 1512 1510 1508 1505 1503 1500 1497 1495 1492 1490 1487 1485 1479 1475 1470 1461 1458 1457 1457 1457 1457 1457 1455 1453 1451 1448 1444 1441 1439 1437 1436 1436 1435 1434 1433 1429 1427 1425 1422 1421 1419 1417 1415 1413 1411 1409 1407 1406 1403 1401 1399 1397 1393 1391 1389 1387 1385 1383 1381 1376 1372 1369 1366 1364 1361 1358 1356 1355 1353 1352 1350 1349 1347 1346 1345 1344 1343 1341 1340 1339 1337 1335 1335 1333 1332 1331 1329 1327 1326 1324 1323 1321 1319 1317 1315 1313 1311 1309 1308 1306 1303 1302 1300 1298 1296 1294 1291 1289 1288 1286 1283 1281 1279 1278 1275 1271 1268 1266 1264 1261 1259 1259 1256 1252 1249 1243 1243 1242 1239 1239 1238 1238 1238 1238 1237 1237 1237 1236 1236 1235 1233 1232 1230 1229 1227 1226 1224 1222 1220 1219 1217 1216 1214 1213 1211 1210 1208 1207 1205 1204 1202 1201 1200 1199 1197 1196 1195 1194 1193 1191 1190 1189 1188 1187 1185 1184 1183 1182 1182 1182 1182 1182 1181 1181 1183 1184 1190 1201 0 0 0 0 1770 1822 1856 1868 1871 1873 1874 1875 1876 1876 1876 1878 1879 1880 1881 1881 1883 1883 1884 1885 1885 1885 1885 1885 1885 1885 1886 1886 1886 1886 1884 1884 1884 1885 1885 1885 1885 1883 1882 1881 1881 1881 1881 1885 1885 1885 1885 1883 1881 1881 1880 1880 1880 1879 1878 1878 1878 1878 1879 1881 1881 1881 1881 1881 1882 1888 1896 1899 1911 1929 1930 1930 1935 1937 1937 1937 1936 1935 1933 1932 1930 1928 1925 1923 1922 1918 1916 1914 1908 1904 1900 1897 1892 1890 1887 1881 1879 1878 1878 1878 1881 1881 1881 1880 1880 1879 1880 1880 1882 1882
2274 2274 2309 2336 2344 2346 2359 2362 2383 2396 2396 2396 2381 2380 2364 2344 2311 2293 2281 2281 2281 2282 2290 2317 2327 2330 0 0 0 2564 2667 2718 2773 2821 2826 2874 2906 2923 2954 3001 3048 3075 3093 3105 3123 3146 3176 3193 3210 3213 3213 3213 3213 3207 3207 3207 3223 3228 3232 3233 3248 3283 3301 3308 3312 3313 3313 3313 3313 3322 3344 3344 3350 3353 3360 3365 3368 3371 3372 3374 3375 3379 3380 3380 3381 3381 3382 3383 3383 3384 3385 3385 3385 3385 3384 3381 3381 3381 3382 3386 3387 3391 3396 3400 3405 3405 3406 3410 3414 3421 3428 3435 3438 3441 3445 3448 3453 3459 3465 3470 3475 3480 3485 3490 3495 3500 3503 3506 3508 3509 3512 3516 3521 3528 3536 3541 3544 3545 3547 3551 3557 3565 3569 3573 3576 3577 3577 3580 3583 3585 3586 3588 3588 3588 3588 3588 3588 3591 3593 3595 3596 3597 3600 3603 3604 3608 3611 3618 3622 3629 3636 3645 3653 3659 3666 3668 3670 3674 3680 3685 3688 3690 3693 3695 3697 3701 3702 3703 3705 3708 3713 3716 3718 3721 3724 3725 3726 3726 3726 3725 3724 3724 3724 3726 3727 3728 3730 3730 3731 3732 3736 3740 3744 3744 3744 3744 3744 3744 3745 3752 3758 3766 3770 3770 3772 3774 3781 3784 3787 3790 3791 3791 3791 3794 3796 3796 3796 3793 3789 3786 3786 3786 3786 3786 3786 3784 3783 3783 3781 3780 3776 3770 3765 3764 3764 3763 3761 3758 3758 3758 3758 3758 3759 3759 3759 3759 3756 3754 3752 3751 3748 3745 3743 3741 3737 3730 3721 3714 3711 3705 3705 3705 3709 3711 3711 3711 3708 3700 3699 3698 3687 3660 3638 3634 3274 2804 2539 2481 2463 2450 2433 2406 2391 2382 2376 2376 2370 2362 2356 2352 2346 2339 2328 2320 2300 0 0 0 0 0 1567 1558 1552 1550 1549 1548 1546 1542 1539 1537 1534 1531 1528 1525 1521 1519 1517 1514 1512 1510 1508 1505 1502 1500 1497 1495 1492 1490 1487 1485 1479 1475 1468 1457 1457 1457 1457 1457 1457 1457 1455 1452 1449 1446 1444 1441 1438 1437 1437 1436 1434 1434 1432 1429 1427 1425 1422 1421 1419 1417 1415 1413 1411 1409 1407 1405 1403 1401 1399 1396 1393 1391 1389 1387 1383 1382 1380 1376 1371 1367 1365 1362 1360 1358 1356 1355 1353 1351 1350 1349 1347 1346 1345 1344 1343 1341 1340 1339 1337 1336 1335 1333 1332 1332 1329 1328 1327 1325 1323 1321 1319 1317 1315 1313 1311 1309 1307 1305 1303 1301 1299 1297 1296 1294 1291 1289 1287 1285 1282 1280 1279 1278 1275 1271 1268 1266 1264 1260 1258 1256 1255 1252 1249 1243 1243 1242 1239 1239 1238 1238 1238 1238 1237 1237 1237 1237 1236 1235 1233 1232 1230 1229 1227 1226 1224 1222 1220 1219 1217 1216 1215 1213 1211 1210 1208 1207 1205 1204 1202 1200 1200 1198 1197 1196 1195 1194 1192 1191 1190 1189 1187 1186 1185 1184 1183 1182 1181 1181 1181 1181 1182 1183 1183 1184 1190 1201 0 0 0 0 1781 1820 1856 1866 1873 1873 1873 1875 1875 1875 1876 1877 1878 1879 1880 1880 1881 1883 1884 1885 1885 1885 1884 1884 1884 1885 1885 1885 1885 1884 1883 1883 1883 1885 1885 1885 1884 1882 1881 1880 1880 1880 1881 1881 1884 1884 1884 1882 1880 1879 1879 1879 1879 1879 1877 1877 1877 1879 1882 1882 1882 1881 1881 1881 1882 1888 1896 1899 1921 1933 1933 1934 1937 1937 1937 1937 1936 1935 1933 1932 1929 1925 1922 1922 1922 1918 1916 1913 1908 1903 1899 1896 1891 1887 1882 1879 1878 1878 1878 1879 1881 1881 1882 1884 1884 1884 1884 1884 1884 1884
2290 2290 2314 2337 2340 2341 2342 2342 2370 2389 2389 2389 2380 2357 2331 2322 2313 2295 2284 2282 2282 2282 2285 2290 2291 2291 0 0 0 2549 2629 2697 2747 2808 2812 2869 2915 2930 2958 3001 3048 3075 3093 3105 3116 3131 3163 3188 3210 3213 3213 3213 3213 3201 3201 3201 3207 3207 3210 3210 3248 3268 3287 3306 3310 3311 3311 3311 3311 3322 3344 3344 3350 3353 3361 3366 3370 3372 3373 3374 3378 3380 3381 3381 3382 3382 3382 3383 3384 3384 3385 3386 3386 3386 3385 3384 3384 3384 3384 3386 3390 3391 3399 3406 3409 3410 3412 3414 3418 3423 3429 3435 3438 3442 3446 3451 3453 3459 3465 3470 3476 3481 3486 3490 3495 3500 3503 3506 3509 3511 3514 3517 3524 3530 3536 3541 3545 3548 3551 3555 3559 3564 3568 3570 3572 3574 3577 3581 3583 3586 3590 3590 3591 3591 3591 3591 3591 3591 3594 3595 3596 3597 3599 3603 3609 3610 3611 3618 3622 3629 3636 3645 3653 3659 3666 3668 3670 3674 3680 3685 3688 3692 3693 3696 3698 3701 3703 3704 3706 3709 3713 3716 3718 3721 3724 3725 3727 3727 3727 3726 3726 3726 3726 3726 3727 3729 3730 3731 3733 3734 3738 3741 3747 3747 3747 3744 3744 3744 3745 3752 3762 3770 3774 3776 3777 3779 3784 3790 3792 3795 3795 3796 3797 3798 3798 3798 3797 3794 3791 3789 3789 3789 3789 3788 3787 3785 3785 3785 3785 3783 3778 3775 3768 3767 3766 3766 3765 3760 3759 3758 3758 3758 3759 3759 3759 3759 3756 3754 3752 3750 3748 3746 3744 3741 3737 3730 3721 3714 3713 3713 3713 3713 3716 3716 3716 3714 3708 3700 3699 3698 3687 3647 3638 3576 3161 2703 2525 2481 2463 2442 2427 2401 2388 2381 2374 2371 2367 2361 2357 2352 2347 2343 2332 2321 2300 0 0 0 0 0 1566 1558 1552 1550 1549 1548 1546 1542 1540 1538 1534 1531 1528 1525 1521 1518 1516 1515 1512 1510 1507 1505 1502 1500 1497 1495 1492 1490 1487 1485 1479 1471 1463 1455 1455 1455 1455 1456 1456 1456 1453 1448 1447 1445 1442 1440 1438 1437 1436 1436 1434 1432 1431 1429 1427 1425 1423 1421 1419 1417 1415 1413 1411 1409 1407 1405 1403 1401 1399 1396 1393 1391 1388 1385 1383 1381 1378 1375 1368 1366 1364 1362 1360 1358 1356 1355 1353 1351 1350 1348 1347 1346 1346 1344 1343 1342 1340 1339 1337 1337 1336 1335 1333 1332 1330 1328 1327 1325 1323 1321 1319 1317 1315 1313 1310 1309 1307 1305 1303 1301 1299 1297 1295 1294 1291 1289 1287 1284 1281 1279 1279 1277 1275 1271 1268 1266 1264 1260 1257 1256 1254 1252 1248 1245 1243 1243 1242 1241 1240 1240 1238 1238 1238 1238 1237 1237 1236 1235 1233 1232 1230 1229 1227 1226 1224 1222 1220 1219 1217 1216 1215 1213 1211 1209 1208 1207 1205 1203 1202 1200 1199 1197 1196 1195 1195 1193 1192 1191 1190 1189 1187 1185 1185 1183 1183 1181 1181 1180 1180 1180 1182 1183 1183 1184 1190 1201 0 0 0 0 1815 1834 1853 1866 1872 1873 1873 1873 1873 1874 1875 1876 1878 1879 1879 1880 1880 1881 1884 1885 1885 1885 1883 1883 1883 1884 1884 1884 1884 1882 1882 1882 1883 1884 1884 1884 1884 1882 1881 1880 1880 1880 1879 1879 1880 1880 1880 1880 1879 1879 1879 1879 1879 1878 1875 1875 1875 1879 1882 1882 1882 1881 1881 1881 1883 1891 1896 1899 1930 1936 1936 1937 1939 1939 1939 1937 1935 1930 1930 1930 1924 1923 1922 1922 1920 1918 1916 1912 1907 1903 1899 1895 1890 1885 1882 1877 1876 1876 1876 1879 1881 1881 1882 1884 1884 1884 1884 1884 1885 1885
2304 2304 2327 2340 2341 2341 2341 2341 2370 2382 2382 2382 2360 2345 2331 2317 2313 2304 2298 2282 2281 2270 2258 2258 2258 2291 0 0 0 2546 2596 2675 2733 2796 2800 2866 2915 2942 2963 3002 3038 3066 3093 3105 3116 3131 3163 3188 3206 3210 3213 3213 3213 3201 3201 3201 3200 3203 3203 3207 3210 3235 3276 3304 3309 3310 3310 3310 3310 3322 3339 3345 3350 3353 3362 3370 3372 3372 3374 3377 3380 3382 3382 3382 3383 3383 3383 3383 3384 3385 3386 3387 3388 3388 3388 3386 3386 3386 3387 3389 3391 3393 3401 3406 3410 3412 3413 3419 3423 3429 3433 3437 3441 3444 3448 3454 3458 3461 3466 3471 3477 3482 3486 3490 3495 3500 3503 3506 3510 3514 3516 3519 3524 3531 3536 3541 3545 3549 3554 3557 3560 3564 3567 3570 3571 3574 3577 3581 3585 3587 3591 3593 3593 3594 3595 3595 3594 3595 3595 3595 3596 3598 3599 3603 3609 3611 3613 3618 3622 3629 3636 3647 3653 3659 3666 3668 3669 3674 3680 3686 3690 3692 3694 3697 3700 3701 3703 3705 3706 3709 3713 3716 3718 3720 3723 3725 3728 3728 3728 3728 3727 3727 3727 3727 3729 3730 3732 3733 3733 3737 3740 3744 3747 3747 3747 3746 3746 3746 3749 3756 3766 3773 3778 3778 3778 3781 3787 3793 3797 3798 3798 3799 3799 3799 3799 3799 3798 3795 3794 3792 3792 3792 3792 3792 3787 3787 3787 3787 3787 3787 3784 3779 3773 3771 3770 3769 3768 3764 3761 3760 3760 3760 3760 3760 3759 3759 3756 3754 3752 3750 3748 3746 3744 3741 3737 3731 3724 3720 3720 3720 3720 3720 3720 3720 3719 3716 3709 3702 3700 3692 3679 3647 3638 3523 3151 2684 2516 2481 2463 2442 2424 2401 2384 2378 2369 2368 2365 2361 2358 2352 2348 2343 2336 2325 2300 0 0 0 0 0 1564 1558 1552 1550 1548 1547 1545 1542 1540 1538 1534 1531 1528 1525 1521 1518 1516 1515 1512 1510 1508 1505 1502 1500 1497 1494 1492 1490 1487 1485 1478 1470 1461 1452 1451 1451 1451 1451 1451 1451 1445 1443 1442 1441 1439 1437 1437 1436 1436 1436 1432 1431 1430 1429 1427 1425 1423 1422 1419 1417 1415 1413 1411 1409 1407 1405 1403 1401 1398 1396 1393 1391 1388 1385 1381 1377 1377 1373 1367 1365 1364 1362 1359 1357 1356 1355 1353 1351 1350 1348 1347 1347 1346 1344 1343 1343 1341 1341 1339 1337 1337 1335 1333 1332 1330 1328 1327 1325 1323 1321 1319 1317 1315 1312 1310 1308 1306 1305 1302 1301 1298 1297 1295 1294 1291 1289 1285 1284 1281 1279 1279 1278 1276 1272 1269 1265 1263 1260 1257 1255 1254 1251 1248 1245 1245 1245 1243 1242 1241 1240 1239 1239 1239 1239 1238 1237 1236 1235 1233 1232 1230 1229 1227 1226 1224 1222 1221 1219 1217 1216 1215 1213 1211 1209 1208 1206 1205 1203 1202 1200 1199 1197 1196 1195 1193 1192 1192 1191 1189 1188 1186 1185 1184 1183 1181 1181 1180 1180 1180 1180 1180 1181 1182 1183 1185 1201 0 0 0 0 1815 1834 1851 1864 1870 1870 1870 1870 1870 1871 1872 1875 1877 1879 1879 1879 1880 1881 1883 1883 1883 1882 1880 1880 1880 1882 1882 1882 1881 1879 1879 1879 1883 1884 1884 1884 1883 1879 1879 1879 1879 1878 1878 1878 1876 1875 1875 1875 1876 1876 1878 1878 1878 1878 1874 1874 1874 1878 1881 1881 1881 1881 1881 1881 1883 1891 1896 1920 1936 1938 1939 1939 1939 1939 1939 1930 1930 1929 1927 1926 1922 1920 1920 1920 1920 1918 1914 1910 1906 1903 1899 1895 1888 1884 1879 1872 1872 1872 1875 1879 1881 1881 1883 1886 1888 1888 1888 1888 1885 1885
2304 2304 2327 2327 2337 2337 2341 2341 2366 2381 2381 2381 2355 2335 2331 2313 2313 2312 2308 2284 2283 2267 2258 2258 2258 2291 0 0 0 2540 2575 2634 2704 2770 2775 2849 2915 2942 2965 3002 3038 3066 3093 3108 3116 3131 3163 3188 3206 3209 3209 3209 3204 3196 3196 3196 3196 3196 3191 3191 3191 3211 3240 3268 3290 3305 3307 3307 3309 3321 3333 3345 3355 3364 3364 3370 3372 3375 3379 3380 3382 3384 3384 3384 3383 3383 3383 3383 3384 3386 3389 3389 3391 3391 3391 3386 3386 3386 3390 3393 3395 3395 3401 3407 3410 3412 3415 3420 3424 3430 3434 3440 3444 3446 3448 3454 3459 3462 3467 3471 3477 3482 3487 3490 3495 3499 3502 3506 3510 3514 3516 3519 3527 3532 3536 3540 3545 3549 3554 3557 3561 3564 3567 3570 3571 3574 3578 3582 3586 3588 3591 3593 3594 3596 3597 3597 3598 3598 3599 3599 3599 3600 3600 3604 3610 3615 3619 3621 3628 3637 3645 3648 3653 3659 3662 3664 3669 3674 3681 3686 3690 3693 3696 3699 3700 3701 3703 3705 3707 3709 3713 3716 3718 3720 3723 3725 3728 3729 3731 3731 3731 3731 3731 3731 3731 3732 3733 3735 3737 3740 3743 3746 3750 3751 3751 3751 3751 3751 3754 3759 3766 3773 3778 3778 3778 3781 3787 3794 3797 3799 3800 3800 3801 3801 3801 3801 3800 3799 3797 3796 3795 3795 3794 3794 3789 3788 3788 3788 3788 3788 3785 3780 3777 3776 3776 3775 3771 3767 3763 3761 3761 3761 3761 3761 3761 3759 3756 3754 3752 3750 3748 3746 3744 3741 3737 3731 3725 3723 3723 3723 3726 3726 3726 3723 3720 3716 3709 3703 3702 3691 3678 3647 3580 3357 3035 2646 2507 2482 2466 2442 2424 2401 2384 2372 2368 2368 2365 2362 2358 2353 2348 2343 2336 2325 2300 0 0 0 0 0 1564 1558 1551 1548 1547 1547 1545 1542 1540 1538 1535 1531 1528 1525 1521 1518 1516 1515 1512 1510 1508 1505 1502 1500 1497 1494 1492 1490 1487 1485 1478 1470 1461 1452 1451 1451 1450 1450 1448 1445 1440 1440 1439 1439 1435 1434 1434 1433 1433 1433 1431 1430 1430 1429 1428 1427 1424 1422 1420 1417 1415 1414 1412 1409 1407 1405 1403 1400 1398 1396 1393 1391 1389 1385 1381 1377 1374 1367 1365 1365 1363 1361 1359 1357 1356 1355 1353 1351 1349 1348 1347 1347 1347 1345 1345 1344 1342 1341 1339 1337 1337 1336 1333 1332 1330 1329 1327 1325 1323 1321 1319 1317 1315 1312 1310 1308 1306 1305 1302 1300 1298 1297 1295 1293 1291 1289 1285 1284 1281 1279 1279 1278 1276 1272 1269 1265 1263 1260 1257 1255 1254 1251 1246 1245 1245 1245 1243 1243 1242 1240 1240 1240 1239 1239 1239 1237 1236 1235 1233 1231 1230 1229 1227 1226 1223 1222 1221 1219 1217 1216 1215 1213 1211 1209 1208 1205 1205 1203 1201 1200 1198 1197 1195 1194 1193 1192 1191 1190 1189 1188 1186 1185 1183 1182 1181 1181 1180 1180 1180 1179 1179 1179 1180 1180 1184 1201 0 0 0 0 1812 1834 1851 1861 1869 1869 1869 1867 1867 1867 1868 1871 1874 1876 1876 1878 1879 1880 1883 1883 1883 1878 1873 1873 1873 1876 1876 1876 1876 1877 1877 1877 1878 1879 1879 1879 1876 1874 1873 1873 1874 1875 1875 1875 1874 1871 1871 1871 1871 1875 1876 1877 1877 1877 1872 1872 1872 1877 1879 1879 1879 1873 1873 1873 1883 1891 1896 1928 1936 1938 1939 1939 1938 1938 1930 1924 1924 1924 1922 1915 1914 1914 1914 1916 1916 1916 1913 1907 1904 1903 1899 1891 1888 1882 1874 1870 1870 1870 1875 1880 1881 1881 1883 1886 1891 1891 1891 1891 1893 1893
