2814 2814 2842 2848 2856 2867 2871 2887 2905 2908 2929 2932 2937 2942 2942 2952 2958 2968 2986 2995 3010 3017 3022 3026 3030 3039 3053 3064 3076 3089 3099 3105 3114 3124 3132 3137 3139 3141 3141 3142 3143 3146 3149 3151 3153 3155 3157 3159 3162 3165 3168 3171 3175 3180 3186 3195 3205 3205 3205 3205 3205 3207 3210 3211 3213 3216 3220 3224 3228 3230 3238 3241 3241 3241 3237 3228 3210 3190 3169 3144 3099 3052 3017 3015 2959 2828 2694 0 0 0 0 1373 1372 1369 1362 1358 1346 1344 1340 1325 1310 1305 1305 1305 1305 1304 1303 1303 1303 1303 1304 1305 1305 1306 1307 1308 1309 1309 1310 1310 1311 1311 1311 1312 1312 1315 1315 1315 1315 1316 1316 1317 1319 1319 1320 1322 1324 1325 1326 1327 1329 1331 1333 1334 1335 1336 1337 1338 1339 1339 1340 1340 1340 1341 1342 1343 1344 1344 1346 1347 1347 1348 1349 1349 1351 1352 1353 1354 1355 1356 1357 1358 1359 1359 1361 1362 1363 1363 1364 1366 1367 1368 1369 1370 1372 1373 1374 1375 1377 1377 1379 1379 1380 1381 1382 1384 1385 1386 1387 1388 1389 1391 1391 1392 1393 1393 1394 1395 1395 1395 1396 1398 1398 1398 1398 1398 1399 1400 1402 1405 1406 1408 1410 1412 1413 1414 1416 1417 1417 1418 1419 1419 1421 1421 1421 1423 1424 1425 1425 1426 1427 1429 1429 1430 1431 1432 1432 1433 1434 1436 1436 1437 1438 1440 1440 1442 1443 1445 1446 1448 1451 1454 1457 1461 1466 1468 1469 1472 1475 1477 1479 1481 1483 1484 1484 1484 1484 1484 1484 1484 1483 1483 1483 1483 1483 1483 1483 1484 1484 1484 1484 1485 1486 1486 1487 1487 1489 1490 1491 1492 1493 1494 1495 1496 1497 1498 1499 1500 1501 1502 1503 1504 1505 1506 1508 1509 1511 1513 1515 1517 1519 1522 1524 1525 1536 1539 1553 1563 0 0 0 0 3039 3042 3042 3042 2802 0 0 2244 2229 2222 2216 2214 2213 2213 2211 2209 2208 2208 2208 2207 2207 2207 2206 2205 2204 2204 2203 2202 2201 2200 2199 2198 2197 2196 2196 2195 2194 2192 2191 2190 2190 2189 2187 2187 2187 2187 2187 2187 2187 2187 2187 2188 2188 2190 2190 2190 2189 2185 2173 2156 2137 2118 2087 2070 2067 2061 2051 2046 2046 2045 2045 2044 2043 2043 2043 2043 2043 2043 2043 2043 2043 2042 2041 2039 2038 2037 2036 2034 2031 2028 2026 2024 2021 2014 2006 2000 1997 1990 1983 1977 1973 1967 1962 1961 1961 1960 1957 1955 1955 1955 1953 1953 1952 1951 1949 1948 1947 1947 1947 1947 1946 1946 1946 1946 1946 1947 1947 1947 1947 1947 1947 1947 1947 1946 1946 1946 1944 1944 1943 1942 1941 1941 1940 1940 1939 1938 1938 1937 1937 1937 1936 1936 1936 1936 1937 1937 1937 1938 1939 1939 1939 1939 1939 1939 1938 1937 1936 1935 1932 1929 1925 1923 1920 1917 1911 1906 1900 1894 1889 1884 1881 1877 1873 1870 1867 1864 1862 1861 1860 1859 1859 1858 1857 1857 1857 1857 1857 1858 1858 1859 1861 1862 1863 1865 1866 1867 1869 1870 1871 1873 1875 1876 1877 1879 1880 1882 1883 1884 1885 1887 1889 1891 1893 1894 1897 1897 1898 1899 1901 1902 1902 1904 1904 1905 1906 1906 1906 1906 1906 1906 1906 1906 1905 1905 1904 1903 1902 1901 1899 1899 1899 1898 1898 1897 1895 1895 1893 1892 1892 1892 1894 1894 1894 1894 1892 1891 1890 1890 1890 1890 1889 1888 1888 1888 1888 1887 1887 1887 1887 1887 1888 1889 1891 1894 1898 1902 1903 1906 1908 1911 1914 1918 1921 1923 1925 1928 1930 1931 1936 1938 1939
2798 2798 2826 2827 2832 2841 2849 2871 2893 2894 2920 2926 2931 2939 2939 2946 2958 2968 2986 3010 3022 3025 3026 3026 3030 3039 3053 3064 3076 3089 3099 3105 3114 3124 3132 3136 3138 3139 3140 3142 3146 3149 3150 3151 3153 3154 3156 3159 3162 3165 3168 3173 3176 3182 3189 3197 3206 3206 3206 3205 3205 3205 3207 3211 3214 3217 3221 3225 3228 3231 3238 3241 3241 3241 3238 3228 3211 3196 3183 3161 3139 3105 3056 3017 2959 2935 2695 0 0 0 0 1380 1379 1378 1376 1368 1365 1357 1347 1326 1310 1307 1305 1305 1304 1304 1303 1303 1303 1303 1304 1305 1305 1306 1307 1308 1309 1309 1310 1310 1311 1311 1311 1311 1312 1313 1314 1315 1315 1315 1316 1317 1319 1319 1320 1322 1323 1324 1325 1327 1328 1331 1332 1334 1334 1336 1336 1338 1339 1339 1340 1340 1340 1341 1342 1343 1344 1344 1346 1347 1347 1349 1349 1350 1351 1353 1353 1354 1355 1356 1357 1358 1359 1360 1361 1362 1363 1363 1364 1366 1367 1368 1369 1371 1373 1373 1374 1376 1377 1379 1379 1380 1380 1381 1382 1384 1385 1387 1389 1390 1390 1391 1392 1393 1394 1394 1395 1395 1395 1396 1396 1398 1398 1398 1401 1401 1402 1402 1403 1405 1406 1408 1410 1412 1413 1414 1416 1417 1418 1418 1419 1419 1421 1422 1422 1423 1424 1425 1426 1427 1428 1430 1430 1431 1432 1432 1433 1434 1435 1436 1436 1438 1438 1440 1441 1442 1443 1445 1446 1448 1451 1454 1457 1460 1465 1468 1469 1472 1475 1477 1479 1481 1483 1484 1484 1484 1484 1484 1484 1483 1483 1483 1483 1483 1483 1483 1483 1483 1484 1484 1484 1485 1485 1486 1487 1487 1488 1489 1491 1492 1493 1494 1495 1496 1497 1498 1499 1500 1501 1502 1503 1504 1505 1507 1508 1509 1511 1513 1515 1517 1519 1522 1525 1529 1536 1536 1553 1563 0 0 0 0 3039 3039 3039 2906 2565 0 0 2241 2224 2221 2216 2214 2214 2212 2211 2209 2207 2207 2207 2207 2206 2206 2205 2205 2204 2204 2203 2202 2201 2200 2199 2198 2198 2197 2196 2195 2194 2193 2192 2192 2191 2189 2188 2187 2187 2187 2187 2187 2188 2188 2188 2188 2189 2190 2193 2193 2193 2191 2174 2157 2139 2118 2087 2070 2067 2061 2051 2046 2045 2045 2044 2042 2042 2040 2040 2040 2041 2041 2041 2041 2041 2041 2039 2038 2038 2036 2034 2033 2030 2028 2025 2022 2017 2011 2004 1998 1996 1990 1983 1977 1970 1967 1961 1960 1959 1957 1953 1953 1953 1952 1951 1951 1950 1950 1949 1948 1947 1947 1947 1946 1945 1945 1945 1945 1946 1946 1946 1946 1947 1947 1947 1947 1946 1946 1945 1945 1944 1943 1942 1942 1941 1940 1939 1939 1938 1938 1937 1937 1936 1936 1935 1935 1935 1935 1936 1936 1937 1937 1937 1938 1938 1938 1938 1938 1937 1936 1935 1934 1932 1929 1925 1922 1919 1915 1911 1907 1900 1894 1889 1884 1881 1877 1872 1868 1865 1863 1861 1859 1859 1859 1857 1857 1857 1856 1856 1857 1857 1858 1858 1859 1861 1862 1863 1864 1866 1867 1869 1870 1871 1873 1875 1876 1877 1879 1880 1882 1883 1884 1886 1887 1889 1891 1892 1894 1895 1897 1898 1898 1900 1900 1901 1902 1903 1903 1904 1905 1905 1905 1905 1905 1905 1905 1904 1903 1902 1901 1900 1899 1898 1897 1897 1897 1896 1895 1894 1893 1891 1891 1891 1892 1892 1892 1892 1891 1891 1890 1890 1889 1889 1889 1888 1886 1886 1886 1886 1886 1886 1886 1886 1886 1888 1889 1891 1893 1897 1902 1903 1906 1907 1909 1914 1918 1921 1923 1926 1928 1929 1931 1933 1934 1934
2743 2743 2787 2810 2813 2818 2832 2852 2854 2878 2897 2920 2922 2925 2931 2940 2955 2976 2996 3020 3023 3026 3027 3027 3030 3039 3047 3053 3065 3081 3096 3103 3110 3124 3132 3135 3137 3138 3139 3142 3146 3149 3150 3151 3151 3153 3156 3160 3162 3165 3168 3175 3178 3185 3190 3198 3206 3206 3206 3205 3205 3205 3207 3211 3215 3219 3223 3225 3228 3231 3238 3241 3241 3241 3238 3231 3211 3199 3187 3170 3153 3123 3095 3070 3005 2991 2842 2517 0 0 0 0 1395 1393 1387 1378 1376 1363 1349 1326 1311 1307 1305 1304 1304 1303 1303 1303 1303 1303 1304 1305 1305 1306 1307 1308 1308 1309 1309 1310 1310 1311 1311 1311 1311 1312 1312 1314 1314 1315 1316 1317 1319 1319 1320 1322 1323 1324 1325 1327 1328 1331 1332 1334 1334 1335 1336 1337 1338 1339 1340 1340 1340 1341 1342 1343 1344 1345 1346 1347 1348 1349 1349 1350 1351 1353 1353 1354 1355 1356 1357 1358 1359 1360 1361 1362 1363 1364 1365 1366 1367 1369 1371 1372 1373 1374 1375 1377 1379 1380 1380 1380 1381 1383 1385 1385 1387 1389 1390 1390 1391 1391 1393 1394 1395 1395 1395 1396 1396 1397 1397 1397 1398 1399 1401 1401 1402 1403 1404 1406 1406 1408 1410 1411 1413 1414 1416 1417 1418 1418 1419 1419 1421 1423 1424 1425 1425 1425 1427 1428 1428 1430 1431 1431 1432 1433 1433 1434 1436 1437 1438 1438 1439 1441 1441 1442 1444 1445 1446 1448 1451 1454 1457 1460 1462 1466 1469 1472 1474 1477 1477 1479 1482 1483 1484 1484 1484 1484 1484 1483 1483 1483 1483 1483 1483 1483 1483 1483 1484 1484 1484 1485 1485 1486 1486 1487 1488 1489 1491 1492 1493 1494 1495 1496 1497 1498 1499 1500 1500 1502 1503 1504 1505 1507 1508 1509 1511 1513 1515 1517 1519 1522 1525 1530 1540 1540 1552 1563 0 0 0 0 0 2992 2992 2691 0 0 2247 2239 2223 2216 2215 2215 2214 2211 2210 2208 2207 2207 2207 2206 2206 2205 2205 2205 2204 2204 2203 2202 2201 2201 2199 2199 2198 2197 2196 2196 2195 2194 2193 2192 2191 2190 2190 2189 2189 2189 2189 2189 2189 2189 2189 2190 2191 2192 2197 2197 2197 2196 2176 2158 2142 2118 2089 2072 2068 2061 2051 2046 2044 2044 2042 2041 2039 2038 2038 2038 2040 2040 2040 2040 2039 2039 2038 2036 2035 2035 2033 2031 2029 2026 2024 2020 2015 2008 2003 1996 1990 1987 1981 1975 1969 1963 1960 1958 1952 1952 1952 1951 1950 1950 1950 1949 1949 1949 1948 1947 1947 1947 1946 1946 1945 1945 1945 1945 1946 1946 1946 1946 1946 1946 1946 1946 1946 1945 1945 1944 1944 1943 1942 1941 1941 1940 1939 1939 1937 1937 1937 1936 1936 1935 1935 1935 1935 1935 1935 1936 1936 1937 1937 1938 1938 1938 1938 1937 1936 1935 1935 1933 1931 1929 1925 1922 1918 1915 1911 1907 1902 1895 1889 1884 1881 1876 1872 1868 1865 1862 1860 1859 1858 1857 1856 1856 1856 1856 1856 1856 1857 1858 1858 1859 1861 1862 1863 1864 1866 1867 1869 1870 1871 1873 1875 1877 1878 1879 1881 1882 1883 1884 1886 1887 1889 1891 1892 1893 1895 1896 1897 1898 1899 1900 1900 1901 1901 1902 1903 1904 1904 1904 1904 1904 1903 1903 1902 1902 1901 1900 1899 1898 1897 1896 1896 1895 1894 1893 1892 1891 1890 1890 1890 1890 1890 1890 1890 1889 1889 1888 1888 1888 1888 1887 1887 1886 1885 1885 1885 1885 1885 1885 1885 1886 1888 1889 1891 1893 1897 1902 1903 1904 1906 1908 1913 1918 1921 1923 1926 1928 1929 1931 1933 1934 1934
2593 2593 2718 2773 2798 2798 2818 2838 2843 2865 2883 2899 2902 2912 2928 2939 2954 2976 2996 3034 3034 3034 3029 3029 3029 3039 3044 3050 3062 3081 3093 3099 3110 3124 3130 3134 3136 3136 3139 3141 3146 3149 3150 3150 3150 3153 3155 3160 3162 3164 3168 3175 3179 3186 3190 3198 3204 3204 3204 3205 3205 3205 3207 3211 3218 3222 3224 3224 3227 3231 3237 3240 3240 3240 3237 3231 3215 3203 3190 3174 3163 3129 3112 3070 3027 3005 2915 2910 2783 0 0 0 0 1400 1390 1380 1379 1367 1349 1326 1311 1307 1305 1303 1303 1303 1303 1303 1303 1303 1304 1305 1305 1306 1307 1307 1308 1308 1309 1309 1310 1310 1311 1311 1311 1311 1312 1313 1314 1315 1317 1318 1319 1320 1321 1322 1323 1324 1325 1327 1328 1331 1332 1333 1333 1335 1336 1337 1338 1339 1339 1340 1340 1341 1342 1343 1344 1345 1346 1347 1348 1349 1350 1351 1352 1353 1353 1354 1355 1356 1357 1358 1359 1360 1361 1362 1363 1364 1365 1366 1367 1369 1371 1372 1373 1375 1376 1377 1379 1381 1381 1381 1382 1384 1385 1387 1387 1389 1390 1390 1391 1392 1393 1395 1395 1396 1396 1397 1397 1397 1397 1398 1398 1399 1401 1401 1402 1403 1404 1406 1407 1408 1410 1411 1413 1414 1416 1417 1418 1418 1419 1419 1421 1423 1424 1425 1425 1425 1427 1428 1429 1430 1432 1433 1434 1434 1435 1435 1437 1437 1438 1439 1440 1441 1442 1442 1444 1445 1446 1448 1451 1454 1457 1460 1460 1465 1468 1470 1473 1475 1477 1479 1482 1483 1484 1484 1484 1483 1483 1483 1483 1483 1483 1483 1483 1483 1483 1483 1483 1483 1484 1485 1485 1486 1486 1487 1488 1489 1491 1492 1493 1494 1495 1496 1497 1498 1499 1500 1500 1502 1503 1504 1505 1507 1508 1510 1511 1513 1515 1516 1517 1521 1525 1530 1540 1540 1541 1570 0 0 0 0 0 0 0 0 0 0 2227 2224 2222 2216 2215 2214 2214 2211 2209 2208 2206 2206 2206 2205 2205 2205 2204 2204 2204 2203 2203 2202 2201 2201 2200 2199 2198 2198 2197 2196 2196 2194 2194 2193 2192 2192 2190 2190 2190 2190 2190 2189 2189 2189 2190 2191 2193 2194 2198 2199 2199 2199 2181 2163 2142 2117 2090 2072 2068 2061 2051 2045 2043 2042 2040 2038 2037 2037 2037 2037 2037 2038 2038 2038 2038 2037 2037 2036 2034 2033 2031 2029 2027 2026 2023 2019 2014 2008 2002 1994 1988 1983 1981 1974 1969 1955 1949 1948 1948 1948 1949 1949 1949 1949 1949 1948 1948 1948 1948 1947 1947 1947 1946 1946 1945 1945 1945 1944 1944 1944 1945 1945 1945 1945 1945 1945 1945 1945 1945 1944 1944 1943 1942 1940 1940 1940 1939 1938 1937 1937 1936 1936 1935 1935 1934 1934 1934 1934 1935 1935 1935 1936 1936 1937 1937 1937 1937 1937 1936 1935 1934 1933 1931 1929 1925 1922 1918 1915 1911 1907 1903 1897 1889 1884 1880 1876 1871 1868 1864 1861 1859 1858 1857 1856 1856 1855 1855 1855 1855 1856 1857 1857 1858 1859 1860 1862 1863 1864 1866 1867 1869 1870 1871 1873 1875 1877 1878 1880 1881 1882 1883 1885 1886 1887 1889 1891 1892 1893 1895 1895 1896 1898 1898 1899 1899 1899 1900 1901 1901 1902 1903 1903 1903 1902 1902 1902 1900 1900 1899 1898 1898 1896 1896 1895 1895 1894 1892 1891 1891 1890 1889 1888 1888 1888 1887 1887 1887 1887 1887 1887 1887 1887 1887 1886 1886 1885 1884 1884 1884 1884 1884 1884 1885 1886 1888 1889 1891 1893 1897 1899 1901 1903 1904 1907 1913 1918 1920 1923 1926 1928 1929 1931 1932 1933 1933
0 0 0 2527 2618 2709 2762 2799 2800 2859 2882 2889 2892 2896 2917 2937 2952 2976 2996 3034 3037 3037 3037 3037 3037 3037 3043 3050 3059 3080 3093 3099 3110 3124 3130 3134 3134 3135 3139 3141 3145 3148 3149 3149 3150 3153 3155 3160 3161 3165 3170 3176 3179 3186 3191 3198 3202 3203 3203 3205 3206 3207 3210 3214 3220 3222 3223 3224 3224 3228 3233 3234 3236 3236 3236 3231 3219 3208 3195 3178 3163 3153 3118 3094 3074 3040 2959 2945 2890 2613 0 0 0 0 1400 1384 1383 1372 1349 1325 1311 1307 1304 1303 1303 1303 1303 1303 1304 1304 1304 1305 1305 1306 1307 1307 1308 1308 1308 1309 1309 1310 1310 1310 1311 1311 1311 1312 1314 1315 1317 1318 1319 1320 1321 1323 1325 1326 1326 1328 1329 1331 1332 1333 1333 1334 1336 1337 1338 1338 1339 1339 1340 1341 1342 1343 1344 1345 1346 1347 1348 1349 1350 1351 1352 1353 1353 1354 1355 1356 1357 1358 1359 1360 1361 1362 1363 1364 1365 1366 1367 1369 1371 1372 1374 1375 1376 1378 1379 1381 1381 1382 1383 1384 1386 1387 1388 1389 1390 1390 1391 1392 1393 1395 1395 1396 1396 1397 1397 1397 1397 1397 1398 1399 1400 1401 1402 1404 1404 1406 1407 1409 1410 1411 1413 1414 1416 1416 1417 1418 1419 1419 1421 1423 1424 1425 1426 1427 1427 1429 1430 1432 1433 1433 1434 1434 1436 1436 1437 1438 1439 1440 1440 1442 1442 1443 1444 1445 1447 1449 1451 1454 1458 1460 1460 1464 1467 1469 1471 1474 1476 1478 1480 1480 1482 1482 1482 1482 1482 1482 1482 1482 1482 1482 1482 1482 1482 1482 1482 1482 1483 1484 1485 1486 1486 1487 1488 1490 1491 1492 1493 1494 1495 1496 1497 1498 1499 1500 1500 1502 1503 1504 1505 1507 1508 1510 1512 1514 1515 1516 1517 1521 1526 1532 1540 1541 1554 1579 0 0 0 0 0 0 0 0 0 2220 2220 2219 2219 2216 2215 2213 2212 2210 2208 2208 2206 2206 2206 2205 2205 2204 2204 2204 2203 2203 2203 2203 2201 2201 2200 2199 2199 2198 2197 2197 2196 2195 2195 2194 2193 2193 2192 2192 2192 2191 2191 2190 2190 2190 2191 2193 2194 2197 2199 2199 2199 2199 2188 2169 2147 2117 2091 2072 2068 2061 2051 2045 2042 2040 2039 2037 2037 2037 2036 2036 2036 2036 2037 2037 2037 2036 2035 2035 2034 2033 2031 2029 2026 2025 2023 2019 2014 2006 2001 1993 1988 1981 1977 1970 1953 1947 1947 1947 1947 1947 1948 1948 1948 1948 1948 1948 1948 1948 1948 1947 1947 1946 1946 1945 1945 1945 1944 1944 1944 1944 1944 1944 1944 1944 1944 1944 1944 1944 1944 1944 1943 1942 1941 1940 1940 1939 1938 1937 1937 1936 1936 1936 1935 1934 1934 1934 1934 1934 1934 1934 1934 1935 1936 1936 1936 1936 1936 1936 1935 1934 1933 1932 1930 1929 1925 1922 1917 1915 1912 1908 1904 1898 1890 1884 1880 1875 1871 1867 1864 1861 1859 1857 1856 1855 1855 1855 1855 1855 1855 1855 1856 1857 1858 1859 1860 1861 1863 1864 1866 1867 1869 1870 1872 1873 1875 1877 1878 1880 1882 1883 1884 1885 1886 1887 1889 1891 1892 1893 1894 1895 1896 1896 1897 1898 1898 1898 1899 1899 1899 1899 1900 1900 1900 1900 1900 1900 1899 1898 1897 1897 1895 1894 1894 1894 1892 1892 1891 1891 1889 1889 1888 1887 1886 1886 1886 1886 1886 1886 1886 1886 1886 1886 1885 1884 1884 1883 1882 1882 1882 1882 1883 1884 1885 1885 1888 1889 1890 1892 1895 1898 1899 1902 1904 1907 1913 1917 1920 1922 1925 1926 1929 1931 1932 1933 1933
0 0 0 0 0 0 2546 2654 2656 2767 2833 2843 2866 2873 2888 2923 2932 2955 2996 3034 3037 3037 3037 3037 3037 3037 3043 3049 3059 3080 3093 3099 3112 3125 3130 3133 3134 3135 3139 3141 3145 3148 3149 3149 3150 3151 3155 3160 3161 3165 3170 3176 3180 3186 3191 3198 3202 3203 3203 3205 3208 3209 3211 3214 3220 3222 3223 3224 3224 3226 3230 3234 3236 3236 3236 3232 3221 3214 3205 3185 3168 3164 3129 3115 3087 3048 3007 2947 2907 2873 2516 0 0 0 0 0 0 1375 1348 1321 1310 1306 1304 1303 1303 1303 1303 1303 1304 1304 1304 1305 1305 1306 1307 1307 1308 1308 1308 1309 1309 1310 1310 1310 1311 1311 1311 1312 1313 1315 1317 1318 1319 1320 1321 1323 1325 1326 1327 1328 1329 1331 1332 1333 1333 1334 1335 1337 1338 1338 1338 1339 1340 1341 1342 1343 1344 1345 1346 1347 1348 1349 1349 1351 1351 1353 1353 1354 1355 1356 1357 1358 1359 1360 1361 1362 1363 1363 1365 1366 1367 1369 1371 1373 1373 1375 1376 1378 1379 1381 1382 1382 1384 1385 1386 1387 1388 1389 1389 1390 1391 1392 1393 1395 1395 1396 1396 1396 1396 1396 1396 1397 1398 1399 1400 1401 1402 1404 1404 1406 1407 1409 1410 1411 1413 1414 1415 1416 1417 1418 1419 1420 1421 1423 1424 1425 1427 1427 1430 1431 1431 1432 1434 1435 1435 1436 1436 1437 1438 1439 1440 1440 1442 1442 1443 1444 1445 1446 1448 1449 1452 1454 1456 1459 1460 1464 1467 1469 1470 1473 1475 1476 1477 1480 1480 1480 1480 1480 1480 1481 1482 1482 1482 1481 1480 1480 1480 1481 1482 1482 1483 1484 1485 1485 1486 1487 1488 1490 1491 1492 1493 1494 1495 1496 1497 1498 1499 1500 1500 1502 1504 1504 1506 1507 1508 1510 1512 1514 1515 1516 1517 1521 1526 1532 1540 1541 1555 1580 0 0 0 0 0 0 0 0 2230 2219 2219 2218 2216 2212 2212 2211 2210 2208 2208 2207 2207 2206 2206 2205 2205 2204 2204 2203 2203 2203 2203 2203 2201 2201 2200 2199 2199 2198 2198 2197 2196 2196 2195 2194 2194 2194 2194 2193 2193 2193 2192 2192 2192 2192 2193 2194 2196 2199 2201 2201 2201 2200 2192 2173 2147 2117 2094 2077 2068 2061 2051 2045 2040 2039 2037 2037 2035 2035 2035 2034 2034 2034 2035 2035 2035 2035 2035 2034 2033 2031 2030 2028 2025 2023 2022 2019 2013 2006 2000 1993 1987 1981 1974 1965 1952 1947 1945 1944 1945 1945 1946 1946 1947 1947 1947 1947 1948 1948 1947 1947 1946 1946 1945 1945 1945 1944 1944 1943 1943 1943 1943 1943 1944 1944 1944 1944 1944 1944 1944 1943 1943 1942 1941 1940 1939 1939 1938 1937 1937 1936 1936 1935 1934 1934 1934 1934 1933 1933 1933 1933 1934 1935 1935 1935 1935 1936 1936 1936 1935 1934 1933 1932 1930 1929 1925 1922 1917 1915 1912 1908 1904 1898 1891 1884 1879 1875 1870 1867 1863 1861 1858 1857 1856 1855 1854 1854 1854 1854 1855 1855 1856 1857 1858 1859 1860 1861 1863 1864 1866 1868 1869 1870 1872 1874 1875 1877 1878 1880 1882 1883 1884 1885 1886 1888 1889 1891 1892 1893 1894 1895 1895 1896 1897 1897 1897 1897 1897 1898 1898 1898 1898 1898 1898 1898 1898 1897 1897 1896 1896 1894 1893 1893 1892 1892 1892 1890 1890 1890 1888 1888 1887 1887 1886 1885 1884 1884 1884 1884 1885 1885 1885 1885 1884 1883 1883 1883 1881 1881 1881 1881 1883 1883 1883 1884 1887 1888 1889 1892 1894 1896 1898 1901 1904 1907 1912 1916 1918 1921 1924 1925 1927 1929 1931 1933 1933
0 0 0 0 0 0 0 0 0 0 0 2686 2731 2811 2859 2867 2880 2904 2969 3018 3032 3033 3033 3036 3037 3037 3046 3050 3058 3080 3095 3113 3121 3125 3130 3131 3133 3135 3141 3144 3145 3148 3149 3149 3150 3150 3153 3156 3161 3165 3172 3176 3181 3188 3192 3198 3202 3203 3203 3206 3208 3210 3211 3214 3220 3222 3223 3224 3224 3226 3230 3234 3236 3236 3236 3232 3229 3221 3210 3197 3185 3177 3156 3126 3104 3070 3007 2997 2907 2873 2670 2567 0 0 0 0 0 1383 1347 1318 1310 1306 1304 1303 1303 1303 1303 1303 1303 1304 1304 1305 1305 1306 1307 1307 1307 1308 1308 1308 1309 1309 1310 1310 1310 1311 1311 1311 1313 1315 1316 1317 1319 1320 1322 1323 1325 1327 1327 1329 1329 1331 1332 1333 1333 1334 1335 1337 1337 1338 1338 1339 1340 1341 1342 1343 1344 1345 1346 1347 1348 1349 1349 1351 1351 1352 1353 1354 1355 1356 1357 1357 1359 1360 1361 1362 1362 1363 1365 1366 1367 1369 1371 1373 1373 1375 1376 1378 1380 1381 1382 1383 1385 1386 1386 1387 1388 1389 1389 1390 1391 1392 1392 1393 1394 1394 1395 1395 1395 1395 1396 1397 1398 1399 1400 1401 1402 1404 1404 1406 1407 1408 1410 1410 1413 1414 1414 1416 1417 1418 1419 1420 1421 1423 1424 1425 1427 1427 1431 1433 1434 1434 1435 1436 1436 1438 1440 1440 1440 1441 1441 1442 1443 1444 1444 1445 1446 1447 1449 1450 1452 1453 1455 1458 1461 1463 1465 1468 1470 1472 1475 1476 1477 1478 1479 1479 1479 1480 1480 1480 1481 1481 1480 1480 1480 1480 1480 1481 1481 1482 1483 1484 1485 1485 1486 1488 1489 1490 1491 1492 1494 1494 1495 1496 1498 1499 1499 1500 1501 1502 1504 1505 1506 1507 1508 1509 1512 1513 1515 1516 1519 1521 1525 1530 1539 1550 1557 0 0 0 0 0 0 0 0 0 2230 2219 2217 2216 2214 2211 2210 2210 2208 2207 2207 2207 2206 2206 2205 2205 2205 2204 2203 2203 2203 2203 2203 2203 2201 2201 2201 2200 2199 2199 2198 2197 2197 2197 2196 2195 2195 2195 2195 2195 2194 2194 2194 2194 2194 2195 2195 2197 2199 2201 2206 2206 2206 2205 2196 2181 2154 2118 2098 2077 2063 2060 2050 2043 2038 2036 2035 2035 2034 2033 2033 2033 2033 2033 2033 2034 2034 2034 2034 2033 2032 2031 2029 2027 2025 2023 2020 2018 2012 2005 2000 1993 1984 1975 1970 1964 1949 1947 1946 1944 1946 1946 1946 1946 1946 1946 1946 1946 1946 1946 1946 1946 1946 1946 1944 1944 1944 1944 1943 1943 1943 1943 1943 1943 1943 1943 1943 1943 1943 1943 1943 1943 1942 1940 1940 1940 1939 1938 1937 1937 1936 1936 1935 1935 1934 1934 1933 1933 1933 1933 1933 1933 1934 1934 1934 1935 1935 1935 1935 1935 1934 1934 1933 1931 1930 1929 1926 1922 1918 1915 1912 1908 1904 1898 1891 1884 1878 1873 1869 1864 1861 1859 1858 1857 1855 1854 1854 1854 1853 1853 1854 1854 1855 1857 1858 1859 1860 1861 1863 1865 1866 1868 1869 1870 1872 1874 1875 1877 1878 1880 1882 1883 1884 1885 1887 1888 1890 1891 1892 1893 1894 1894 1895 1895 1896 1896 1897 1897 1897 1897 1896 1896 1896 1896 1897 1897 1897 1896 1895 1895 1894 1893 1892 1892 1891 1891 1891 1889 1889 1889 1888 1887 1887 1886 1884 1884 1884 1883 1883 1883 1883 1883 1883 1883 1881 1881 1881 1881 1880 1880 1880 1880 1882 1882 1883 1883 1886 1887 1889 1891 1893 1895 1898 1901 1904 1907 1912 1915 1918 1920 1923 1924 1925 1926 1928 1929 1929
0 0 0 0 0 0 0 0 0 0 0 0 0 2584 2697 2732 2739 2810 2884 2972 3015 3018 3031 3031 3033 3042 3046 3050 3058 3080 3102 3113 3121 3125 3127 3131 3133 3135 3141 3144 3151 3151 3151 3151 3151 3151 3151 3153 3161 3165 3174 3178 3185 3192 3195 3200 3201 3202 3203 3206 3208 3210 3212 3214 3219 3222 3223 3224 3224 3226 3230 3235 3237 3237 3237 3237 3234 3234 3226 3212 3195 3181 3181 3146 3109 3079 3009 2947 2893 2873 2670 2567 0 0 0 0 0 0 1346 1317 1309 1306 1304 1303 1303 1303 1303 1303 1304 1304 1304 1304 1305 1306 1306 1307 1307 1308 1308 1308 1308 1309 1309 1310 1310 1311 1311 1311 1313 1315 1316 1317 1319 1320 1322 1323 1325 1327 1328 1329 1329 1331 1332 1333 1334 1335 1335 1337 1337 1338 1338 1339 1340 1340 1341 1343 1344 1345 1346 1347 1347 1348 1349 1350 1351 1352 1353 1354 1354 1355 1356 1357 1359 1360 1361 1362 1362 1363 1364 1365 1367 1369 1371 1373 1374 1375 1377 1378 1379 1380 1382 1383 1385 1386 1386 1387 1388 1389 1389 1390 1390 1391 1392 1392 1392 1394 1395 1395 1395 1395 1396 1397 1398 1399 1400 1401 1402 1404 1404 1406 1407 1408 1409 1410 1411 1413 1414 1416 1417 1418 1419 1420 1421 1423 1426 1426 1428 1429 1431 1433 1434 1435 1436 1436 1438 1439 1440 1440 1440 1441 1442 1443 1443 1444 1444 1445 1447 1447 1449 1450 1452 1452 1455 1458 1461 1463 1464 1466 1469 1471 1474 1476 1476 1477 1478 1478 1479 1478 1478 1478 1478 1478 1479 1479 1479 1479 1479 1481 1481 1482 1483 1483 1485 1485 1486 1488 1489 1490 1491 1493 1494 1495 1495 1497 1498 1499 1500 1501 1502 1503 1504 1505 1506 1507 1508 1509 1511 1512 1514 1516 1519 1521 1525 1532 1539 1551 1558 0 0 0 0 0 0 2263 2263 2244 2229 2216 2216 2214 2214 2210 2209 2208 2208 2207 2207 2207 2206 2206 2205 2205 2204 2204 2203 2203 2203 2203 2203 2202 2202 2202 2201 2200 2200 2200 2199 2199 2198 2197 2197 2196 2196 2196 2196 2196 2196 2196 2196 2196 2196 2198 2199 2199 2201 2204 2208 2210 2210 2210 2199 2183 2162 2124 2101 2077 2061 2056 2050 2041 2036 2034 2034 2033 2033 2032 2031 2031 2031 2031 2032 2033 2033 2033 2033 2032 2031 2029 2028 2027 2024 2020 2018 2016 2011 2004 1999 1992 1984 1975 1964 1957 1949 1946 1944 1944 1944 1946 1946 1946 1946 1946 1946 1945 1945 1946 1946 1945 1945 1945 1944 1944 1944 1944 1943 1943 1943 1943 1943 1943 1943 1943 1943 1943 1943 1943 1942 1942 1941 1940 1940 1939 1939 1937 1936 1936 1936 1935 1935 1934 1933 1933 1933 1933 1933 1933 1933 1933 1933 1933 1934 1934 1935 1935 1935 1934 1934 1933 1932 1931 1930 1929 1926 1922 1918 1916 1912 1908 1903 1897 1890 1884 1878 1872 1867 1864 1860 1859 1857 1855 1853 1852 1852 1852 1852 1852 1852 1854 1855 1857 1858 1859 1860 1862 1864 1865 1866 1868 1869 1871 1873 1874 1876 1877 1878 1880 1882 1884 1885 1886 1887 1888 1890 1891 1892 1893 1893 1894 1894 1895 1895 1895 1895 1896 1896 1896 1896 1896 1895 1895 1895 1895 1895 1895 1895 1893 1893 1892 1891 1891 1891 1891 1890 1889 1888 1887 1887 1886 1885 1884 1884 1883 1883 1883 1882 1882 1882 1882 1882 1881 1881 1880 1880 1880 1879 1879 1879 1879 1880 1881 1882 1883 1884 1886 1889 1890 1892 1895 1898 1901 1903 1907 1910 1913 1916 1919 1922 1923 1924 1925 1927 1929 1929
0 0 0 0 0 0 0 0 0 0 0 0 0 0 0 0 0 0 2646 2830 2834 2925 2973 3016 3031 3042 3046 3048 3058 3079 3102 3113 3119 3121 3122 3125 3131 3133 3141 3144 3151 3151 3153 3153 3153 3152 3152 3152 3160 3165 3174 3178 3185 3192 3195 3200 3201 3202 3203 3206 3208 3210 3211 3214 3218 3222 3224 3226 3227 3230 3233 3235 3237 3237 3237 3237 3234 3234 3226 3223 3215 3195 3183 3152 3109 3079 3009 2947 2893 2812 2670 2567 0 0 0 0 0 0 1344 1314 1306 1305 1305 1302 1302 1302 1303 1303 1303 1304 1304 1304 1305 1306 1306 1306 1307 1307 1308 1308 1308 1309 1309 1310 1310 1310 1311 1311 1313 1315 1316 1317 1319 1320 1322 1323 1325 1327 1328 1329 1329 1331 1332 1333 1334 1334 1335 1337 1337 1337 1338 1339 1339 1340 1341 1343 1344 1345 1346 1347 1347 1348 1349 1350 1351 1352 1353 1354 1354 1355 1356 1357 1359 1360 1360 1362 1362 1363 1364 1365 1367 1369 1371 1373 1374 1375 1377 1378 1379 1380 1382 1383 1385 1386 1386 1387 1388 1389 1389 1390 1390 1390 1390 1391 1392 1392 1394 1395 1395 1395 1396 1397 1398 1399 1400 1401 1402 1403 1404 1405 1406 1408 1409 1410 1411 1413 1414 1416 1417 1418 1419 1420 1422 1424 1426 1428 1430 1432 1434 1434 1435 1436 1438 1438 1439 1439 1440 1440 1440 1442 1443 1443 1443 1444 1444 1445 1447 1447 1450 1450 1450 1452 1453 1456 1461 1463 1464 1466 1468 1469 1473 1476 1476 1476 1476 1476 1476 1476 1477 1477 1477 1477 1477 1478 1478 1479 1479 1481 1481 1482 1483 1484 1485 1485 1487 1488 1489 1491 1492 1493 1494 1495 1496 1497 1499 1499 1501 1501 1502 1503 1504 1505 1506 1507 1508 1509 1510 1511 1513 1516 1519 1521 1525 1532 1539 1551 1567 0 0 0 0 0 2259 2259 2259 2240 2225 2216 2214 2212 2211 2209 2209 2208 2207 2207 2207 2207 2206 2206 2205 2205 2204 2204 2203 2203 2203 2203 2203 2202 2202 2202 2201 2201 2200 2200 2199 2199 2198 2198 2197 2197 2196 2196 2196 2197 2197 2197 2197 2197 2199 2200 2201 2201 2203 2205 2208 2210 2210 2210 2201 2184 2163 2125 2102 2078 2061 2056 2050 2041 2036 2034 2033 2033 2032 2031 2030 2030 2030 2031 2031 2032 2032 2032 2032 2032 2030 2028 2027 2025 2023 2019 2016 2013 2009 2004 1998 1988 1981 1975 1964 1957 1952 1945 1944 1944 1944 1945 1945 1945 1945 1946 1945 1945 1945 1945 1945 1945 1945 1944 1944 1943 1943 1943 1943 1943 1942 1942 1942 1942 1942 1942 1942 1942 1942 1942 1942 1941 1940 1940 1939 1938 1938 1936 1936 1936 1935 1935 1935 1934 1933 1933 1933 1933 1932 1932 1932 1932 1932 1933 1933 1933 1933 1933 1933 1933 1933 1932 1932 1930 1929 1929 1926 1922 1919 1916 1911 1907 1903 1897 1890 1885 1878 1872 1867 1864 1860 1858 1855 1854 1851 1851 1851 1851 1851 1851 1851 1854 1855 1857 1858 1859 1861 1863 1864 1866 1867 1868 1869 1871 1873 1875 1876 1877 1878 1880 1882 1883 1885 1886 1887 1888 1890 1891 1892 1893 1893 1894 1894 1895 1895 1895 1895 1895 1895 1895 1895 1895 1895 1894 1894 1894 1894 1893 1893 1893 1891 1891 1891 1890 1890 1889 1888 1888 1887 1886 1886 1886 1885 1884 1883 1882 1882 1882 1882 1882 1882 1881 1880 1880 1880 1880 1879 1879 1879 1878 1878 1878 1879 1881 1881 1883 1884 1885 1888 1889 1892 1895 1898 1901 1903 1906 1909 1911 1913 1917 1920 1921 1922 1922 1925 1929 1929
0 0 0 0 0 0 0 0 0 0 0 0 0 0 0 0 0 0 0 0 0 2547 2752 2863 2965 3042 3046 3048 3058 3079 3102 3106 3107 3111 3117 3121 3129 3131 3138 3143 3151 3151 3153 3153 3153 3151 3151 3151 3160 3165 3174 3178 3185 3192 3195 3200 3201 3202 3203 3205 3207 3210 3211 3214 3217 3221 3224 3226 3228 3230 3233 3235 3237 3237 3237 3237 3234 3234 3226 3224 3222 3209 3183 3152 3109 3079 3009 2937 2892 2777 2579 0 0 0 0 0 0 0 1343 1311 1306 1305 1304 1302 1302 1302 1302 1303 1303 1304 1304 1304 1305 1306 1306 1306 1307 1307 1308 1308 1308 1309 1309 1310 1310 1310 1311 1312 1313 1315 1316 1318 1319 1320 1322 1323 1325 1327 1328 1329 1330 1331 1332 1333 1334 1334 1335 1336 1336 1337 1338 1338 1340 1340 1341 1343 1344 1345 1345 1347 1347 1348 1349 1350 1351 1352 1353 1353 1354 1355 1356 1357 1358 1359 1360 1361 1362 1363 1364 1365 1367 1369 1371 1373 1373 1375 1377 1378 1379 1380 1382 1383 1385 1385 1386 1387 1388 1389 1389 1390 1390 1390 1390 1391 1391 1392 1393 1395 1395 1395 1396 1397 1398 1399 1400 1401 1402 1403 1404 1405 1406 1408 1409 1410 1411 1412 1414 1415 1417 1418 1419 1420 1422 1424 1427 1428 1430 1433 1435 1436 1437 1438 1438 1439 1439 1439 1440 1441 1441 1442 1443 1443 1443 1444 1444 1445 1447 1447 1450 1450 1450 1452 1453 1454 1459 1461 1461 1462 1464 1466 1471 1473 1473 1473 1473 1473 1473 1474 1474 1475 1475 1475 1476 1477 1478 1478 1479 1481 1482 1482 1483 1484 1485 1486 1487 1489 1490 1491 1493 1494 1495 1496 1498 1498 1499 1500 1501 1502 1503 1503 1504 1505 1506 1507 1508 1509 1510 1511 1512 1515 1517 1520 1524 1532 1538 1551 1566 0 0 0 0 2241 2244 2244 2244 2239 2225 2214 2211 2210 2209 2209 2208 2208 2207 2207 2207 2206 2206 2205 2205 2204 2204 2204 2203 2203 2203 2203 2202 2202 2202 2202 2201 2201 2200 2200 2199 2199 2199 2198 2198 2198 2198 2197 2197 2197 2197 2198 2198 2198 2200 2202 2202 2203 2204 2205 2208 2210 2210 2210 2201 2186 2165 2130 2103 2083 2061 2055 2049 2040 2035 2033 2032 2032 2032 2030 2029 2029 2029 2030 2030 2031 2031 2031 2031 2031 2029 2028 2027 2024 2022 2018 2014 2011 2007 2002 1994 1986 1981 1974 1964 1957 1954 1946 1945 1944 1944 1945 1945 1945 1945 1945 1945 1945 1945 1945 1945 1945 1945 1944 1944 1943 1943 1943 1943 1943 1943 1942 1942 1942 1942 1942 1942 1942 1941 1941 1941 1940 1940 1939 1939 1938 1936 1936 1935 1935 1935 1934 1933 1933 1933 1932 1932 1932 1932 1931 1931 1932 1932 1932 1932 1933 1933 1933 1933 1933 1933 1932 1931 1930 1929 1928 1926 1922 1919 1916 1911 1906 1901 1895 1890 1885 1878 1872 1867 1864 1860 1857 1855 1852 1850 1850 1850 1850 1850 1850 1851 1853 1855 1856 1858 1859 1861 1863 1864 1866 1867 1869 1870 1872 1873 1875 1876 1878 1879 1880 1882 1883 1885 1886 1887 1889 1890 1891 1892 1893 1893 1894 1894 1894 1894 1894 1894 1894 1894 1894 1894 1894 1894 1893 1893 1893 1893 1893 1893 1892 1891 1890 1890 1889 1889 1888 1888 1887 1887 1886 1886 1885 1884 1883 1883 1881 1881 1881 1881 1881 1881 1881 1880 1880 1880 1879 1879 1879 1879 1878 1878 1878 1879 1880 1881 1882 1884 1885 1887 1889 1892 1894 1897 1901 1902 1906 1908 1909 1911 1915 1917 1918 1921 1921 1923 1927 1928
0 0 0 0 0 1881 1882 1890 1891 1909 1932 1978 1988 2036 0 0 0 0 0 0 0 0 0 0 2606 2790 2951 2997 3045 3067 3082 3091 3094 3100 3107 3110 3122 3127 3133 3139 3149 3151 3153 3153 3153 3153 3155 3157 3159 3164 3173 3176 3185 3191 3192 3193 3197 3199 3201 3204 3206 3209 3211 3214 3216 3220 3224 3226 3228 3230 3234 3234 3234 3233 3232 3231 3231 3228 3227 3226 3224 3209 3181 3152 3107 3069 3002 2839 2656 0 0 0 0 0 0 0 0 0 1323 1306 1305 1304 1303 1302 1302 1302 1302 1303 1303 1304 1304 1304 1305 1306 1306 1306 1307 1307 1308 1308 1308 1309 1309 1310 1310 1310 1312 1312 1314 1315 1316 1318 1319 1320 1322 1323 1325 1326 1328 1329 1330 1331 1332 1333 1334 1334 1334 1335 1335 1337 1338 1339 1340 1340 1341 1343 1344 1345 1345 1347 1347 1348 1349 1350 1351 1351 1352 1353 1354 1355 1355 1357 1358 1359 1360 1361 1362 1363 1364 1365 1366 1368 1371 1372 1373 1375 1377 1378 1379 1380 1381 1382 1383 1385 1386 1387 1388 1389 1389 1389 1389 1390 1390 1391 1391 1392 1393 1395 1395 1395 1397 1398 1398 1399 1400 1401 1401 1403 1404 1405 1406 1407 1409 1410 1411 1412 1414 1415 1416 1418 1419 1421 1422 1426 1428 1429 1431 1433 1435 1437 1437 1438 1439 1439 1439 1440 1441 1441 1441 1442 1443 1443 1443 1444 1444 1445 1445 1447 1450 1450 1450 1452 1452 1454 1457 1459 1459 1462 1463 1466 1469 1470 1470 1471 1472 1472 1472 1472 1473 1473 1473 1474 1476 1477 1477 1478 1479 1481 1482 1483 1484 1485 1485 1487 1488 1489 1491 1491 1493 1496 1496 1497 1498 1499 1500 1501 1501 1502 1503 1503 1504 1505 1506 1507 1508 1509 1510 1511 1512 1514 1517 1520 1522 1530 1537 1553 1559 0 0 0 0 2229 2229 2229 2227 2225 2219 2214 2211 2208 2208 2207 2207 2207 2206 2206 2206 2206 2206 2205 2204 2203 2203 2203 2203 2203 2202 2202 2202 2202 2202 2201 2201 2201 2200 2200 2200 2200 2200 2199 2199 2198 2198 2198 2198 2198 2199 2199 2200 2201 2201 2203 2204 2204 2205 2206 2209 2210 2210 2210 2207 2191 2166 2139 2104 2087 2063 2055 2049 2039 2034 2032 2031 2031 2030 2030 2028 2028 2028 2028 2029 2030 2031 2031 2031 2030 2028 2027 2026 2024 2022 2018 2014 2010 2005 2001 1994 1986 1981 1974 1965 1957 1955 1951 1947 1946 1946 1945 1945 1945 1946 1946 1946 1946 1946 1946 1946 1946 1945 1944 1944 1944 1943 1943 1943 1943 1943 1942 1942 1942 1942 1942 1942 1941 1941 1940 1940 1939 1939 1938 1938 1938 1936 1936 1935 1935 1934 1934 1933 1932 1932 1932 1931 1931 1931 1931 1931 1931 1931 1931 1932 1932 1932 1932 1932 1932 1932 1932 1930 1929 1928 1928 1925 1922 1919 1916 1911 1906 1900 1895 1890 1885 1878 1872 1867 1864 1860 1856 1853 1852 1850 1849 1849 1849 1849 1849 1850 1852 1855 1856 1858 1860 1861 1863 1864 1866 1868 1869 1870 1872 1873 1875 1876 1878 1880 1881 1882 1883 1885 1886 1887 1888 1890 1891 1892 1893 1893 1894 1894 1894 1894 1894 1894 1894 1894 1894 1893 1893 1893 1893 1893 1892 1892 1892 1892 1891 1890 1890 1888 1888 1888 1887 1886 1886 1885 1884 1884 1884 1883 1883 1882 1881 1881 1881 1881 1880 1880 1880 1879 1879 1879 1879 1879 1879 1879 1878 1878 1878 1879 1880 1881 1882 1884 1885 1885 1889 1891 1894 1897 1900 1902 1905 1906 1908 1910 1912 1915 1917 1919 1920 1922 1926 1928
0 0 0 0 1855 1879 1882 1890 1891 1909 1932 1955 1966 2008 2016 2016 2019 0 0 0 0 0 0 0 0 0 2516 2587 2827 2953 3012 3049 3053 3069 3074 3098 3104 3112 3123 3136 3147 3151 3153 3154 3154 3154 3157 3158 3158 3163 3171 3174 3179 3185 3186 3193 3197 3198 3199 3200 3203 3205 3209 3213 3214 3220 3223 3226 3228 3230 3233 3233 3233 3231 3231 3229 3227 3227 3227 3226 3224 3209 3170 3121 3072 2999 2946 2745 0 0 0 0 0 0 0 0 0 1315 1312 1304 1304 1304 1303 1302 1302 1302 1302 1303 1303 1304 1304 1304 1305 1305 1306 1306 1307 1307 1308 1308 1308 1309 1309 1310 1310 1310 1312 1313 1314 1315 1317 1318 1320 1320 1322 1323 1325 1326 1328 1329 1330 1331 1332 1333 1333 1334 1334 1334 1335 1336 1338 1338 1340 1340 1341 1342 1344 1344 1345 1347 1347 1348 1348 1350 1350 1351 1352 1353 1353 1354 1355 1356 1357 1358 1359 1360 1361 1362 1363 1365 1366 1367 1369 1372 1373 1374 1375 1378 1379 1380 1380 1381 1382 1384 1386 1386 1387 1387 1388 1388 1389 1390 1390 1391 1391 1392 1393 1394 1395 1396 1397 1398 1398 1399 1400 1401 1401 1403 1404 1405 1406 1407 1409 1410 1411 1412 1414 1415 1416 1418 1419 1421 1422 1426 1428 1430 1431 1434 1435 1437 1438 1439 1439 1440 1440 1440 1441 1441 1441 1442 1443 1443 1443 1443 1444 1444 1445 1446 1449 1449 1450 1452 1452 1454 1455 1457 1459 1462 1463 1465 1467 1468 1468 1469 1470 1471 1471 1471 1471 1472 1472 1474 1476 1476 1477 1477 1480 1481 1482 1483 1485 1485 1486 1487 1488 1489 1492 1492 1493 1496 1498 1498 1499 1500 1501 1502 1503 1503 1504 1504 1504 1505 1507 1508 1509 1510 1511 1512 1512 1514 1517 1520 1522 1527 1537 1557 1559 0 0 0 2183 2223 2223 2223 2223 2221 2218 2214 2211 2208 2207 2207 2206 2206 2206 2206 2206 2205 2205 2204 2203 2203 2203 2202 2202 2202 2202 2202 2201 2201 2201 2201 2201 2201 2201 2200 2200 2200 2200 2199 2199 2199 2199 2199 2199 2199 2200 2200 2201 2202 2203 2205 2206 2206 2206 2206 2209 2210 2210 2210 2209 2192 2168 2139 2106 2088 2064 2055 2047 2039 2034 2032 2031 2030 2030 2029 2028 2028 2028 2028 2028 2029 2029 2030 2030 2029 2027 2026 2025 2023 2021 2018 2014 2009 2004 1998 1992 1986 1981 1975 1967 1960 1960 1955 1951 1948 1947 1947 1946 1946 1946 1946 1947 1947 1947 1947 1946 1946 1945 1945 1944 1944 1943 1943 1943 1943 1943 1943 1942 1942 1942 1942 1942 1941 1941 1940 1940 1939 1939 1938 1938 1937 1936 1936 1935 1935 1934 1934 1933 1932 1932 1931 1931 1931 1931 1931 1931 1931 1931 1931 1931 1931 1932 1932 1932 1932 1931 1931 1930 1929 1927 1927 1925 1922 1919 1916 1911 1906 1900 1895 1891 1885 1878 1872 1867 1864 1859 1855 1853 1851 1850 1848 1848 1848 1848 1848 1850 1852 1854 1856 1858 1860 1862 1863 1865 1866 1868 1869 1871 1873 1873 1875 1877 1878 1880 1881 1882 1883 1885 1886 1887 1888 1889 1891 1892 1893 1893 1894 1894 1894 1894 1894 1894 1893 1893 1893 1893 1892 1892 1892 1892 1892 1892 1892 1890 1890 1890 1889 1888 1887 1887 1887 1886 1885 1885 1884 1884 1883 1883 1882 1882 1881 1881 1881 1880 1880 1879 1879 1878 1878 1878 1878 1878 1878 1878 1878 1878 1878 1879 1879 1881 1882 1884 1884 1885 1887 1890 1892 1896 1899 1901 1903 1905 1905 1908 1911 1914 1916 1919 1920 1922 1925 1927
0 0 0 0 1862 1879 1884 1891 1919 1924 1932 1948 1965 1969 1976 1978 1990 2012 0 0 0 0 0 0 0 0 0 0 0 0 0 2801 2919 2965 2970 3037 3074 3086 3105 3136 3146 3151 3153 3158 3158 3158 3157 3157 3157 3162 3168 3171 3173 3180 3186 3193 3197 3198 3199 3200 3203 3205 3208 3209 3211 3216 3220 3224 3227 3229 3233 3233 3233 3231 3231 3229 3227 3226 3226 3226 3224 3204 3141 3088 3024 2956 2874 0 0 0 0 0 0 0 1347 1331 1315 1315 1309 1304 1304 1304 1303 1302 1302 1302 1302 1303 1303 1304 1304 1304 1305 1305 1306 1306 1307 1307 1308 1308 1308 1309 1310 1310 1310 1311 1312 1313 1314 1315 1317 1318 1320 1320 1322 1323 1324 1326 1327 1328 1330 1331 1331 1332 1332 1333 1334 1334 1335 1336 1337 1338 1339 1340 1341 1342 1343 1344 1345 1347 1347 1348 1348 1350 1350 1351 1352 1352 1353 1354 1354 1355 1357 1358 1359 1360 1361 1362 1363 1364 1366 1367 1369 1372 1373 1374 1375 1377 1378 1380 1380 1381 1382 1383 1384 1385 1385 1387 1387 1387 1389 1389 1390 1391 1391 1391 1392 1394 1395 1396 1397 1398 1398 1399 1399 1401 1401 1403 1404 1405 1406 1407 1409 1410 1411 1412 1414 1415 1416 1418 1419 1421 1422 1426 1428 1430 1432 1434 1435 1437 1438 1440 1440 1440 1440 1441 1441 1441 1442 1442 1443 1443 1443 1443 1444 1444 1445 1446 1448 1449 1450 1452 1453 1454 1455 1457 1459 1462 1463 1464 1465 1466 1467 1467 1469 1470 1470 1470 1470 1471 1472 1474 1475 1476 1477 1477 1480 1481 1484 1487 1488 1488 1488 1488 1490 1493 1494 1495 1498 1499 1500 1500 1502 1502 1503 1503 1504 1505 1505 1505 1506 1506 1507 1508 1509 1510 1511 1512 1514 1514 1517 1521 1522 1527 1537 1558 1559 0 0 0 2223 2223 2223 2222 2221 2217 2217 2214 2211 2208 2207 2206 2206 2206 2206 2205 2204 2204 2204 2203 2202 2202 2202 2201 2201 2201 2201 2201 2201 2201 2201 2201 2201 2201 2200 2200 2200 2200 2200 2200 2200 2200 2200 2200 2200 2200 2201 2201 2202 2203 2205 2206 2208 2208 2208 2209 2213 2214 2214 2214 2209 2192 2168 2141 2106 2088 2065 2054 2045 2039 2034 2032 2030 2029 2028 2028 2027 2027 2027 2027 2027 2028 2028 2028 2028 2028 2027 2026 2025 2022 2021 2018 2014 2008 2003 1998 1992 1987 1982 1976 1971 1966 1960 1957 1953 1953 1952 1950 1948 1948 1948 1947 1947 1947 1947 1947 1946 1946 1945 1945 1944 1944 1944 1944 1943 1943 1943 1943 1943 1942 1942 1942 1942 1941 1941 1940 1940 1939 1939 1938 1938 1937 1936 1936 1935 1934 1933 1933 1933 1932 1932 1931 1930 1930 1930 1930 1930 1930 1930 1930 1931 1931 1931 1931 1931 1931 1931 1930 1929 1929 1927 1926 1924 1922 1919 1916 1911 1907 1900 1896 1891 1885 1879 1872 1867 1864 1858 1855 1853 1851 1849 1848 1848 1848 1848 1848 1850 1852 1853 1855 1858 1860 1862 1863 1865 1867 1868 1870 1871 1873 1874 1875 1877 1878 1880 1881 1882 1883 1885 1886 1887 1888 1889 1891 1892 1893 1893 1894 1894 1894 1894 1893 1893 1893 1893 1893 1892 1892 1892 1892 1892 1891 1891 1890 1890 1889 1889 1889 1887 1887 1886 1886 1885 1885 1884 1884 1883 1882 1882 1882 1881 1881 1881 1880 1880 1879 1879 1878 1878 1878 1877 1877 1877 1877 1877 1877 1877 1878 1879 1879 1881 1882 1884 1884 1885 1887 1887 1890 1893 1896 1898 1900 1902 1904 1905 1908 1912 1916 1918 1920 1922 1925 1927
0 0 0 0 1867 1881 1884 1898 1919 1924 1932 1948 1952 1953 1954 1958 1971 1982 2007 2047 0 0 0 0 0 0 0 0 0 0 0 0 0 2512 2524 2850 2988 3083 3104 3135 3145 3151 3153 3158 3158 3158 3157 3157 3157 3162 3165 3170 3173 3180 3186 3193 3198 3198 3199 3200 3203 3205 3208 3209 3211 3216 3220 3224 3226 3228 3232 3232 3232 3232 3231 3229 3227 3226 3226 3226 3218 3193 3139 3043 2992 2946 2647 0 0 0 0 0 1335 1326 1324 1318 1314 1313 1306 1304 1304 1303 1303 1302 1302 1302 1302 1303 1303 1304 1304 1304 1305 1306 1306 1306 1307 1308 1308 1308 1308 1309 1310 1311 1311 1311 1312 1313 1314 1315 1317 1318 1319 1320 1321 1322 1324 1326 1327 1328 1329 1330 1331 1332 1332 1333 1333 1333 1335 1335 1336 1338 1339 1340 1341 1342 1343 1344 1345 1346 1347 1348 1348 1350 1350 1351 1351 1352 1352 1354 1354 1355 1357 1357 1359 1359 1360 1362 1363 1364 1366 1367 1368 1370 1372 1373 1374 1376 1378 1379 1380 1381 1381 1382 1384 1384 1385 1387 1387 1387 1389 1389 1390 1390 1391 1391 1392 1394 1395 1396 1397 1398 1398 1399 1399 1400 1401 1402 1404 1405 1406 1407 1409 1410 1411 1412 1414 1415 1416 1418 1419 1421 1422 1425 1428 1430 1432 1434 1435 1437 1439 1440 1440 1440 1440 1441 1441 1441 1442 1442 1443 1443 1443 1443 1443 1445 1445 1446 1447 1449 1450 1452 1452 1453 1455 1457 1458 1460 1461 1463 1464 1465 1466 1466 1468 1469 1469 1470 1470 1471 1472 1474 1475 1476 1477 1478 1480 1481 1485 1488 1489 1489 1490 1490 1490 1493 1496 1497 1500 1501 1503 1503 1503 1504 1504 1504 1506 1507 1507 1507 1507 1507 1508 1509 1509 1510 1512 1513 1515 1516 1519 1522 1525 1527 1537 1559 1560 0 0 0 2224 2224 2224 2218 2215 2214 2213 2213 2210 2208 2206 2206 2206 2206 2205 2205 2203 2203 2202 2202 2202 2201 2201 2201 2201 2201 2201 2201 2201 2201 2201 2201 2201 2200 2200 2200 2200 2200 2200 2200 2200 2200 2200 2200 2200 2201 2201 2202 2204 2205 2206 2208 2210 2210 2210 2211 2215 2219 2219 2219 2218 2200 2168 2141 2106 2089 2065 2052 2044 2039 2034 2032 2030 2028 2027 2027 2027 2027 2027 2027 2027 2027 2027 2027 2027 2027 2026 2025 2024 2022 2021 2017 2014 2008 2003 1998 1992 1987 1982 1978 1972 1967 1961 1959 1958 1956 1954 1952 1951 1950 1949 1948 1948 1948 1947 1947 1946 1946 1945 1945 1944 1944 1944 1944 1943 1943 1943 1943 1943 1942 1942 1942 1942 1941 1941 1940 1940 1939 1939 1938 1937 1937 1936 1935 1935 1934 1933 1933 1932 1932 1931 1931 1930 1930 1930 1930 1930 1930 1930 1930 1930 1930 1930 1930 1930 1930 1930 1930 1929 1927 1926 1925 1923 1921 1919 1916 1913 1908 1903 1899 1892 1885 1878 1872 1867 1863 1858 1855 1853 1851 1849 1848 1847 1847 1847 1848 1849 1851 1852 1855 1858 1860 1862 1863 1865 1867 1868 1870 1871 1873 1874 1875 1877 1879 1880 1881 1882 1883 1885 1886 1887 1889 1889 1890 1892 1893 1893 1893 1893 1893 1893 1893 1893 1893 1892 1892 1891 1891 1891 1891 1890 1890 1890 1889 1889 1889 1888 1888 1887 1886 1886 1885 1885 1884 1883 1883 1883 1882 1882 1882 1881 1881 1881 1880 1880 1879 1878 1878 1877 1877 1876 1876 1876 1876 1877 1877 1877 1877 1877 1878 1880 1881 1883 1883 1884 1885 1886 1888 1891 1894 1897 1899 1901 1903 1904 1906 1908 1912 1917 1920 1922 1925 1927
0 0 0 0 1881 1881 1893 1899 1919 1924 1931 1935 1946 1953 1953 1954 1971 1975 1981 2000 2003 2034 2070 2091 0 0 0 0 0 0 0 0 0 0 0 2849 2985 3017 3057 3113 3135 3151 3153 3153 3153 3136 3136 3136 3146 3154 3157 3166 3173 3180 3193 3198 3199 3200 3200 3200 3205 3206 3208 3209 3211 3216 3220 3224 3226 3227 3232 3233 3234 3234 3234 3232 3230 3226 3225 3222 3204 3171 3116 3034 2947 2781 0 0 0 0 0 1340 1325 1324 1318 1313 1313 1307 1307 1305 1304 1303 1302 1302 1302 1302 1302 1303 1303 1304 1304 1304 1305 1306 1306 1307 1307 1308 1308 1308 1309 1309 1311 1311 1311 1311 1312 1313 1314 1315 1317 1318 1319 1320 1321 1322 1324 1325 1326 1327 1328 1330 1331 1332 1332 1332 1333 1333 1333 1334 1334 1337 1339 1339 1341 1342 1342 1344 1345 1346 1347 1347 1348 1349 1350 1351 1351 1351 1352 1353 1354 1355 1356 1357 1358 1359 1360 1362 1363 1364 1366 1367 1368 1370 1372 1372 1374 1376 1377 1377 1379 1379 1380 1381 1382 1383 1384 1385 1387 1387 1389 1389 1389 1390 1391 1392 1392 1394 1395 1396 1397 1397 1398 1399 1400 1400 1401 1402 1404 1405 1406 1407 1409 1410 1411 1412 1414 1415 1416 1417 1419 1420 1422 1425 1427 1430 1432 1434 1435 1437 1439 1440 1440 1440 1440 1441 1441 1441 1442 1442 1442 1443 1443 1443 1443 1444 1445 1446 1447 1449 1449 1452 1452 1453 1454 1456 1457 1458 1461 1462 1463 1464 1466 1466 1467 1468 1468 1469 1470 1471 1472 1473 1475 1476 1477 1479 1480 1481 1486 1488 1491 1491 1491 1491 1493 1495 1496 1501 1502 1502 1503 1505 1507 1508 1508 1508 1508 1508 1508 1507 1507 1507 1508 1509 1510 1511 1512 1513 1515 1516 1519 1522 1526 1530 1540 1559 0 0 0 0 2222 2222 2222 2215 2213 2213 2212 2212 2210 2208 2206 2206 2206 2206 2204 2203 2203 2202 2202 2201 2201 2201 2201 2201 2201 2200 2200 2200 2200 2200 2200 2200 2200 2200 2200 2200 2200 2200 2200 2200 2200 2200 2200 2200 2201 2201 2202 2203 2205 2206 2208 2209 2211 2211 2212 2214 2218 2221 2221 2221 2221 2208 2175 2141 2115 2092 2067 2052 2044 2038 2034 2031 2028 2027 2026 2025 2025 2025 2025 2026 2026 2026 2026 2026 2026 2026 2026 2025 2024 2021 2019 2017 2014 2008 2003 1998 1994 1988 1982 1978 1974 1970 1966 1962 1960 1959 1955 1954 1953 1951 1951 1950 1950 1948 1948 1947 1946 1945 1945 1945 1944 1944 1944 1943 1943 1943 1943 1943 1943 1943 1943 1942 1942 1941 1941 1940 1940 1939 1939 1938 1938 1937 1936 1935 1934 1934 1933 1932 1932 1931 1931 1930 1930 1929 1929 1929 1929 1929 1929 1930 1930 1930 1930 1930 1930 1930 1930 1929 1928 1927 1926 1924 1923 1921 1918 1916 1913 1909 1904 1900 1892 1885 1879 1873 1867 1863 1858 1855 1853 1851 1849 1847 1846 1846 1846 1846 1848 1850 1851 1855 1857 1859 1862 1863 1865 1867 1869 1870 1872 1873 1874 1875 1877 1879 1880 1881 1882 1884 1885 1887 1888 1889 1889 1890 1892 1893 1894 1894 1894 1893 1893 1893 1893 1892 1892 1892 1891 1890 1890 1890 1890 1889 1889 1888 1888 1888 1888 1887 1886 1886 1885 1885 1884 1884 1883 1883 1882 1882 1882 1881 1881 1881 1881 1880 1879 1878 1878 1877 1877 1876 1876 1875 1875 1875 1875 1876 1876 1876 1877 1878 1879 1881 1882 1882 1882 1883 1885 1888 1891 1894 1897 1898 1901 1902 1903 1905 1908 1912 1916 1919 1922 1925 1927
0 0 0 0 0 1899 1899 1902 1919 1924 1931 1935 1945 1953 1953 1954 1971 1975 1981 1985 2001 2005 2026 2040 2045 2046 2057 2057 2059 2060 0 0 0 0 0 0 2576 2619 2775 2979 3053 3077 3089 3123 3123 3123 3123 3123 3128 3145 3149 3166 3175 3182 3193 3198 3199 3200 3200 3200 3205 3206 3210 3211 3217 3219 3224 3225 3226 3227 3232 3233 3234 3237 3237 3237 3236 3226 3221 3211 3188 3136 3083 2995 2937 2641 0 0 0 0 1339 1330 1318 1316 1314 1313 1313 1310 1307 1305 1303 1302 1302 1302 1302 1302 1302 1303 1303 1304 1304 1304 1305 1306 1306 1307 1307 1308 1308 1309 1309 1310 1311 1311 1311 1311 1312 1313 1314 1315 1317 1318 1318 1320 1321 1322 1323 1325 1326 1326 1328 1329 1330 1331 1331 1332 1332 1332 1333 1334 1334 1336 1338 1339 1340 1341 1342 1344 1345 1346 1347 1347 1348 1349 1350 1351 1351 1351 1352 1353 1354 1355 1356 1357 1358 1359 1360 1362 1363 1364 1365 1367 1367 1369 1371 1372 1374 1375 1376 1377 1378 1378 1380 1380 1382 1383 1384 1385 1386 1387 1388 1389 1389 1390 1392 1392 1392 1394 1395 1396 1397 1397 1398 1399 1400 1400 1402 1402 1404 1405 1406 1407 1409 1410 1411 1412 1413 1415 1416 1417 1418 1420 1422 1424 1427 1430 1431 1434 1435 1437 1439 1439 1439 1440 1440 1440 1440 1441 1441 1441 1441 1442 1442 1442 1443 1444 1445 1446 1447 1448 1449 1451 1452 1453 1454 1455 1456 1458 1460 1462 1463 1464 1465 1465 1467 1468 1468 1469 1470 1471 1472 1473 1475 1476 1478 1480 1483 1484 1486 1490 1491 1492 1492 1493 1497 1500 1500 1501 1502 1505 1507 1508 1509 1509 1509 1509 1509 1509 1508 1508 1508 1508 1508 1510 1510 1511 1512 1514 1516 1517 1519 1523 1527 1535 1540 1559 0 0 0 0 2223 2223 2222 2215 2213 2212 2212 2211 2209 2207 2206 2206 2205 2204 2203 2202 2202 2202 2201 2201 2201 2201 2200 2200 2200 2200 2200 2200 2200 2200 2200 2200 2200 2200 2200 2200 2200 2200 2200 2201 2201 2201 2201 2201 2201 2203 2203 2204 2206 2207 2209 2211 2211 2213 2214 2215 2219 2222 2222 2222 2222 2209 2175 2148 2116 2093 2066 2051 2044 2038 2035 2031 2027 2026 2026 2025 2025 2025 2025 2025 2025 2026 2026 2026 2025 2025 2025 2024 2023 2021 2019 2017 2014 2009 2004 1998 1994 1989 1982 1979 1977 1973 1968 1964 1962 1959 1957 1955 1953 1952 1952 1951 1950 1949 1948 1947 1946 1945 1945 1945 1944 1944 1944 1944 1943 1943 1943 1943 1943 1943 1943 1942 1942 1942 1941 1940 1940 1939 1939 1938 1938 1937 1936 1935 1934 1934 1933 1932 1932 1931 1930 1930 1930 1929 1929 1929 1929 1929 1929 1929 1930 1930 1930 1930 1930 1930 1930 1929 1928 1927 1925 1924 1923 1921 1918 1916 1913 1909 1904 1900 1892 1885 1879 1873 1867 1863 1858 1855 1853 1850 1848 1847 1846 1846 1846 1846 1848 1850 1851 1855 1857 1859 1862 1864 1865 1867 1869 1871 1872 1873 1874 1876 1877 1879 1880 1881 1882 1884 1886 1887 1888 1889 1890 1891 1892 1893 1894 1894 1894 1893 1893 1892 1892 1891 1891 1890 1890 1890 1890 1889 1889 1888 1888 1888 1888 1887 1887 1887 1886 1886 1885 1884 1884 1884 1883 1883 1882 1882 1882 1881 1881 1881 1880 1879 1879 1878 1877 1876 1876 1875 1875 1875 1874 1874 1875 1875 1875 1875 1876 1877 1879 1880 1880 1881 1882 1883 1885 1887 1890 1894 1896 1898 1899 1901 1903 1905 1908 1911 1915 1919 1922 1924 1927
0 0 0 0 0 0 0 0 0 1924 1931 1935 1945 1953 1962 1975 1976 1977 1981 1983 1987 1995 1997 2002 2003 2005 2012 2031 2047 2047 2056 2097 0 0 0 0 0 0 0 2557 2577 2835 2881 2964 3044 3047 3085 3110 3123 3144 3147 3163 3175 3182 3193 3198 3200 3200 3200 3200 3205 3207 3210 3215 3222 3225 3226 3227 3227 3227 3232 3233 3238 3239 3239 3239 3236 3226 3220 3193 3166 3122 3076 2995 2937 2618 0 0 0 0 1326 1320 1318 1316 1314 1313 1313 1310 1306 1304 1302 1302 1302 1302 1302 1302 1302 1303 1303 1303 1304 1304 1305 1306 1306 1307 1307 1308 1309 1309 1309 1310 1311 1311 1312 1312 1312 1313 1314 1315 1316 1317 1318 1320 1321 1322 1323 1324 1325 1326 1327 1328 1330 1330 1331 1331 1331 1331 1332 1334 1334 1336 1338 1339 1340 1341 1342 1344 1345 1346 1347 1347 1348 1349 1350 1350 1351 1351 1352 1353 1354 1355 1356 1357 1358 1359 1360 1361 1363 1364 1365 1367 1367 1369 1369 1371 1373 1374 1376 1377 1378 1378 1379 1380 1382 1383 1384 1385 1386 1387 1387 1389 1389 1391 1392 1393 1393 1394 1395 1396 1397 1397 1398 1399 1400 1400 1402 1402 1404 1405 1406 1408 1409 1410 1411 1412 1413 1414 1416 1417 1418 1420 1421 1423 1427 1429 1431 1433 1434 1436 1439 1439 1439 1439 1438 1438 1438 1439 1439 1439 1440 1442 1442 1442 1443 1444 1446 1446 1447 1449 1449 1451 1452 1452 1454 1455 1456 1458 1459 1461 1463 1464 1464 1465 1467 1468 1468 1469 1470 1471 1472 1473 1475 1477 1478 1482 1485 1487 1487 1490 1493 1493 1494 1496 1497 1500 1501 1503 1505 1507 1509 1509 1510 1510 1509 1509 1509 1509 1509 1508 1508 1508 1509 1510 1510 1511 1513 1514 1516 1517 1520 1523 1527 1538 1544 1568 0 0 0 2224 2224 2224 2222 2215 2213 2213 2209 2208 2208 2207 2206 2206 2204 2204 2203 2201 2201 2201 2200 2200 2200 2200 2200 2200 2200 2200 2199 2199 2199 2199 2199 2199 2199 2199 2199 2200 2200 2200 2200 2201 2201 2201 2201 2202 2203 2204 2204 2204 2206 2208 2210 2212 2213 2216 2216 2217 2220 2223 2223 2223 2222 2209 2175 2149 2117 2094 2066 2052 2045 2038 2035 2031 2027 2025 2024 2024 2024 2023 2023 2023 2024 2024 2024 2024 2024 2024 2024 2024 2022 2020 2018 2016 2013 2009 2005 1999 1994 1990 1985 1982 1978 1975 1972 1967 1963 1960 1957 1956 1956 1955 1953 1952 1951 1950 1948 1947 1946 1945 1945 1945 1944 1944 1944 1944 1943 1943 1943 1943 1943 1943 1943 1943 1942 1942 1941 1941 1940 1939 1939 1938 1937 1937 1936 1935 1934 1933 1932 1932 1932 1931 1930 1930 1930 1929 1929 1929 1929 1929 1929 1929 1929 1930 1930 1930 1930 1930 1929 1928 1927 1927 1925 1924 1923 1921 1918 1916 1914 1909 1904 1900 1892 1884 1879 1873 1867 1863 1858 1855 1852 1850 1848 1846 1846 1846 1846 1846 1848 1850 1851 1855 1858 1859 1862 1864 1866 1867 1869 1871 1872 1873 1874 1876 1877 1879 1880 1881 1882 1884 1886 1887 1889 1890 1890 1891 1892 1893 1893 1893 1893 1892 1892 1892 1892 1891 1891 1890 1890 1889 1889 1889 1888 1887 1887 1887 1887 1886 1886 1886 1886 1885 1885 1884 1884 1884 1883 1883 1882 1882 1881 1881 1881 1880 1880 1878 1878 1877 1876 1875 1875 1874 1873 1873 1873 1874 1874 1874 1874 1875 1876 1877 1879 1879 1879 1880 1882 1883 1885 1887 1890 1893 1895 1896 1898 1900 1902 1905 1908 1911 1914 1918 1922 1924 1927
0 0 0 0 0 0 0 0 0 0 0 0 1946 1960 1984 1984 1984 1984 1984 1984 1985 1995 1997 2002 2003 2005 2005 2024 2046 2046 2047 2070 2093 2096 0 0 0 0 0 0 0 0 0 0 2663 2760 2907 3021 3081 3143 3146 3162 3175 3182 3190 3191 3196 3196 3200 3201 3205 3206 3210 3219 3226 3227 3227 3228 3228 3228 3234 3239 3244 3244 3244 3239 3236 3226 3206 3188 3166 3115 3067 3010 2978 2618 0 0 0 0 1323 1318 1316 1316 1315 1315 1312 1308 1304 1302 1302 1302 1302 1302 1302 1302 1302 1303 1303 1303 1304 1304 1305 1306 1306 1307 1307 1308 1309 1309 1309 1310 1311 1312 1312 1313 1313 1313 1314 1315 1316 1317 1318 1320 1321 1322 1323 1324 1325 1326 1327 1328 1329 1330 1331 1331 1331 1331 1332 1333 1334 1336 1338 1338 1340 1341 1342 1344 1345 1345 1347 1347 1348 1348 1349 1350 1351 1351 1352 1353 1354 1355 1356 1357 1358 1359 1360 1361 1363 1364 1365 1366 1367 1368 1369 1371 1373 1374 1376 1377 1377 1378 1379 1380 1382 1383 1384 1385 1385 1386 1387 1388 1389 1390 1392 1393 1393 1394 1395 1396 1397 1397 1398 1399 1400 1400 1402 1403 1404 1406 1406 1408 1409 1410 1411 1412 1413 1415 1416 1417 1418 1420 1421 1423 1426 1429 1431 1433 1433 1435 1436 1438 1438 1438 1438 1438 1438 1438 1438 1439 1440 1440 1441 1441 1443 1444 1445 1446 1447 1449 1449 1450 1451 1452 1453 1455 1456 1458 1459 1461 1462 1463 1464 1465 1466 1468 1468 1470 1470 1471 1472 1474 1476 1478 1479 1482 1485 1488 1488 1494 1495 1496 1497 1498 1499 1503 1505 1508 1508 1509 1510 1511 1511 1511 1510 1510 1509 1509 1509 1509 1509 1509 1509 1510 1511 1512 1513 1515 1516 1518 1521 1525 1530 1538 1544 1573 0 0 0 2224 2224 2224 2222 2218 2215 2213 2208 2207 2207 2207 2206 2205 2203 2202 2201 2201 2200 2200 2200 2200 2200 2200 2200 2199 2199 2199 2199 2199 2198 2199 2199 2199 2199 2199 2199 2199 2200 2200 2200 2201 2201 2202 2202 2203 2203 2205 2206 2207 2207 2209 2212 2214 2215 2218 2219 2220 2220 2223 2223 2223 2222 2209 2181 2152 2122 2096 2066 2052 2045 2037 2034 2031 2026 2024 2024 2023 2021 2021 2021 2022 2022 2022 2022 2023 2023 2023 2023 2022 2021 2019 2017 2014 2012 2009 2005 2001 1996 1992 1986 1982 1978 1975 1973 1970 1966 1965 1962 1960 1958 1956 1954 1952 1951 1950 1948 1947 1946 1945 1945 1945 1944 1944 1944 1944 1944 1944 1944 1944 1944 1943 1943 1943 1943 1942 1941 1941 1940 1940 1939 1938 1937 1937 1936 1935 1934 1933 1932 1932 1932 1931 1930 1930 1930 1929 1929 1929 1929 1929 1929 1929 1929 1929 1929 1929 1929 1929 1929 1928 1927 1926 1925 1924 1923 1920 1918 1917 1913 1909 1904 1900 1892 1884 1879 1873 1867 1862 1857 1854 1852 1850 1848 1846 1845 1845 1845 1846 1848 1849 1852 1855 1858 1860 1862 1864 1866 1867 1869 1871 1872 1873 1875 1876 1877 1879 1880 1882 1882 1884 1886 1887 1889 1890 1890 1891 1892 1893 1893 1893 1892 1892 1891 1891 1891 1891 1890 1889 1889 1888 1888 1888 1888 1887 1886 1886 1886 1886 1885 1885 1885 1885 1885 1884 1884 1884 1883 1883 1882 1882 1881 1881 1881 1880 1879 1878 1877 1876 1875 1874 1873 1873 1872 1872 1872 1872 1873 1873 1873 1874 1875 1877 1879 1879 1879 1880 1881 1883 1885 1887 1889 1892 1894 1895 1897 1899 1902 1905 1908 1910 1913 1916 1920 1922 1926
0 0 0 0 0 0 0 0 0 0 0 0 0 0 2008 2000 1992 1987 1985 1985 1985 1995 1997 2002 2003 2005 2005 2019 2039 2042 2047 2063 2082 2084 2090 0 0 0 0 0 0 0 0 0 0 0 0 2706 2867 2871 2997 3101 3111 3126 3163 3182 3187 3195 3200 3200 3205 3205 3209 3219 3226 3228 3229 3229 3229 3236 3239 3243 3244 3244 3244 3239 3228 3223 3206 3188 3166 3115 3067 3010 2978 2618 0 0 0 0 1323 1318 1317 1317 1316 1316 1312 1308 1303 1302 1302 1302 1302 1302 1302 1302 1302 1303 1303 1303 1304 1304 1305 1306 1307 1307 1307 1308 1309 1309 1310 1310 1311 1312 1312 1313 1313 1314 1315 1315 1315 1317 1317 1319 1321 1322 1322 1324 1325 1326 1327 1328 1328 1330 1330 1330 1330 1331 1332 1333 1334 1336 1337 1338 1339 1341 1342 1343 1345 1345 1347 1347 1348 1348 1349 1350 1351 1351 1352 1353 1354 1355 1356 1357 1358 1359 1360 1361 1362 1364 1365 1366 1366 1367 1368 1370 1372 1374 1376 1377 1377 1378 1379 1380 1382 1382 1384 1384 1385 1385 1386 1388 1389 1390 1392 1393 1393 1394 1395 1396 1397 1397 1398 1399 1400 1401 1402 1403 1404 1406 1406 1408 1409 1410 1411 1412 1413 1414 1416 1417 1418 1420 1421 1423 1426 1429 1430 1430 1432 1432 1434 1436 1437 1437 1437 1437 1438 1438 1438 1439 1440 1440 1441 1441 1442 1442 1445 1446 1447 1449 1449 1450 1450 1452 1453 1454 1456 1458 1459 1460 1462 1463 1464 1465 1466 1468 1468 1470 1471 1471 1472 1474 1476 1478 1480 1483 1486 1488 1491 1496 1498 1499 1500 1502 1504 1506 1509 1510 1511 1511 1511 1512 1512 1512 1511 1511 1511 1510 1510 1509 1509 1509 1509 1510 1511 1512 1513 1515 1516 1518 1521 1525 1530 1538 1544 1575 0 0 0 2223 2223 2223 2222 2218 2215 2212 2208 2206 2206 2205 2204 2203 2202 2202 2200 2199 2199 2198 2198 2198 2198 2198 2198 2198 2197 2197 2197 2197 2197 2197 2198 2199 2199 2199 2199 2199 2200 2200 2200 2201 2201 2202 2203 2204 2205 2207 2208 2209 2211 2211 2213 2215 2218 2220 2220 2221 2222 2226 2226 2226 2224 2209 2181 2156 2125 2096 2066 2052 2045 2037 2034 2029 2024 2023 2022 2021 2020 2020 2020 2020 2020 2020 2020 2020 2020 2020 2020 2020 2020 2018 2015 2014 2011 2009 2005 2001 1996 1992 1988 1984 1979 1976 1973 1970 1968 1966 1964 1961 1958 1956 1955 1953 1952 1950 1948 1947 1946 1945 1945 1945 1944 1944 1944 1944 1944 1944 1944 1944 1944 1944 1943 1943 1943 1942 1942 1941 1941 1940 1939 1938 1938 1937 1936 1935 1934 1934 1932 1932 1932 1931 1930 1930 1929 1929 1929 1929 1929 1929 1929 1929 1929 1929 1929 1929 1929 1929 1928 1928 1927 1926 1925 1923 1922 1920 1918 1917 1913 1909 1905 1900 1892 1885 1879 1873 1867 1862 1857 1854 1852 1850 1848 1845 1845 1845 1845 1846 1848 1849 1852 1855 1858 1860 1862 1864 1866 1867 1869 1871 1872 1874 1875 1877 1878 1879 1880 1881 1882 1884 1886 1887 1889 1890 1890 1891 1892 1892 1892 1892 1892 1891 1891 1891 1890 1890 1890 1889 1888 1888 1888 1887 1886 1886 1886 1885 1885 1885 1885 1885 1885 1884 1884 1884 1884 1883 1883 1883 1882 1882 1881 1881 1880 1879 1878 1877 1876 1875 1874 1873 1872 1871 1871 1871 1871 1872 1872 1873 1873 1874 1875 1877 1879 1879 1879 1880 1881 1883 1885 1887 1889 1891 1893 1895 1897 1899 1901 1904 1907 1909 1911 1914 1917 1919 1920
0 0 0 0 0 0 0 0 0 0 0 0 0 0 0 0 0 0 2001 1996 1996 2001 2006 2008 2008 2014 2014 2018 2038 2039 2047 2052 2081 2084 2090 2092 2125 2157 0 0 0 0 0 0 0 0 0 0 2598 2601 2649 2804 2856 2913 2994 3083 3161 3182 3196 3198 3201 3204 3206 3219 3226 3230 3233 3233 3237 3245 3245 3245 3244 3244 3238 3236 3228 3223 3206 3188 3174 3115 3076 3029 3022 2988 2546 0 0 0 1323 1320 1319 1317 1317 1316 1312 1308 1303 1302 1302 1302 1302 1302 1302 1302 1303 1303 1303 1303 1304 1304 1305 1305 1307 1307 1308 1309 1309 1310 1310 1310 1311 1312 1312 1313 1313 1314 1315 1315 1315 1317 1317 1319 1321 1321 1322 1323 1324 1326 1326 1327 1328 1329 1329 1330 1330 1331 1332 1333 1335 1336 1337 1338 1339 1341 1342 1343 1345 1345 1347 1347 1348 1348 1349 1350 1351 1352 1353 1353 1354 1355 1356 1357 1358 1359 1360 1361 1362 1363 1364 1366 1366 1366 1367 1369 1371 1374 1375 1376 1377 1377 1379 1380 1382 1382 1383 1383 1384 1385 1386 1387 1388 1390 1392 1393 1393 1393 1394 1396 1397 1397 1399 1399 1400 1401 1402 1403 1404 1406 1406 1408 1409 1410 1411 1412 1413 1414 1416 1417 1418 1419 1421 1423 1425 1427 1429 1429 1431 1431 1432 1434 1436 1437 1437 1438 1438 1438 1438 1439 1440 1440 1441 1441 1442 1442 1445 1446 1447 1448 1449 1450 1450 1452 1453 1454 1456 1457 1459 1460 1462 1463 1464 1465 1466 1468 1469 1470 1471 1471 1473 1474 1476 1479 1480 1483 1487 1489 1493 1496 1499 1501 1503 1505 1507 1510 1511 1511 1512 1513 1513 1513 1513 1513 1513 1513 1512 1511 1510 1510 1510 1510 1510 1511 1512 1512 1513 1515 1516 1518 1521 1525 1531 1538 1542 1548 0 0 0 2223 2223 2223 2221 2218 2215 2212 2208 2206 2205 2205 2204 2203 2202 2200 2200 2199 2197 2197 2197 2197 2197 2196 2196 2196 2196 2195 2195 2195 2195 2196 2197 2197 2198 2198 2198 2198 2199 2199 2200 2201 2202 2203 2204 2205 2207 2208 2208 2211 2212 2214 2216 2219 2221 2223 2223 2224 2226 2232 2232 2232 2226 2209 2182 2160 2129 2096 2066 2052 2043 2036 2032 2027 2024 2023 2022 2021 2019 2018 2018 2018 2018 2018 2018 2018 2018 2018 2018 2018 2018 2017 2014 2013 2010 2007 2004 2001 1996 1992 1989 1984 1981 1977 1974 1971 1969 1966 1964 1961 1959 1957 1955 1953 1952 1950 1948 1946 1946 1945 1945 1944 1944 1944 1944 1944 1944 1944 1944 1944 1944 1944 1944 1944 1943 1943 1942 1942 1941 1940 1940 1939 1938 1937 1936 1936 1935 1934 1933 1932 1932 1931 1931 1930 1930 1929 1929 1929 1929 1929 1929 1929 1929 1929 1929 1929 1929 1929 1928 1928 1927 1926 1925 1923 1922 1920 1917 1917 1913 1909 1905 1900 1892 1886 1879 1873 1867 1861 1857 1854 1852 1850 1847 1845 1845 1845 1845 1846 1848 1850 1852 1855 1858 1860 1862 1864 1866 1868 1869 1871 1873 1874 1876 1877 1879 1879 1880 1881 1883 1884 1886 1887 1889 1890 1890 1891 1892 1892 1892 1892 1892 1890 1890 1889 1889 1889 1888 1888 1887 1887 1886 1886 1885 1885 1885 1884 1884 1884 1884 1884 1884 1884 1884 1883 1883 1883 1883 1883 1883 1882 1881 1881 1880 1878 1877 1876 1875 1874 1873 1871 1871 1870 1870 1870 1870 1871 1871 1872 1872 1873 1874 1877 1879 1879 1879 1880 1881 1883 1885 1887 1888 1890 1893 1895 1897 1899 1900 1903 1905 1908 1911 1912 1915 1915 1915
0 0 0 0 2306 2323 2325 0 0 0 0 0 0 0 0 0 0 0 0 0 0 0 2028 2028 2015 2008 2008 2008 2008 2015 2033 2052 2081 2084 2085 2090 2097 2116 2126 2129 2133 2157 2184 2208 2218 0 0 0 0 0 0 2502 2543 2574 2635 2810 2950 3046 3085 3153 3162 3180 3196 3213 3220 3228 3230 3233 3237 3245 3245 3245 3240 3237 3237 3235 3228 3223 3214 3198 3175 3141 3081 3052 3022 2988 2845 0 0 0 0 1320 1320 1319 1317 1313 1310 1307 1303 1303 1303 1303 1302 1302 1302 1302 1303 1303 1303 1303 1304 1304 1305 1305 1306 1307 1308 1309 1309 1310 1310 1310 1311 1312 1312 1313 1313 1314 1315 1315 1315 1317 1317 1319 1321 1321 1322 1324 1325 1325 1326 1328 1328 1329 1329 1330 1330 1331 1332 1333 1335 1336 1337 1338 1339 1340 1342 1343 1344 1345 1346 1347 1348 1348 1349 1350 1351 1352 1353 1353 1354 1355 1356 1357 1358 1359 1360 1361 1362 1363 1364 1366 1366 1366 1366 1368 1370 1372 1374 1375 1376 1377 1378 1380 1382 1382 1383 1383 1384 1385 1386 1387 1388 1390 1391 1392 1393 1393 1394 1396 1397 1397 1399 1399 1400 1402 1402 1403 1405 1406 1406 1407 1408 1410 1411 1412 1413 1414 1415 1417 1418 1419 1421 1423 1425 1427 1428 1429 1430 1431 1431 1433 1435 1436 1437 1438 1438 1438 1439 1439 1440 1440 1441 1441 1442 1442 1444 1445 1447 1448 1449 1450 1450 1452 1453 1454 1456 1457 1459 1460 1462 1463 1464 1465 1466 1468 1469 1470 1471 1472 1473 1475 1477 1479 1481 1483 1487 1491 1494 1497 1499 1502 1504 1507 1511 1511 1512 1512 1513 1513 1513 1513 1513 1513 1513 1513 1513 1511 1510 1510 1510 1510 1510 1511 1512 1513 1514 1515 1516 1518 1521 1525 1532 1538 1542 1557 0 0 0 2212 2217 2217 2217 2213 2213 2211 2208 2206 2205 2204 2203 2201 2201 2200 2199 2197 2197 2196 2196 2196 2196 2195 2195 2195 2194 2194 2194 2194 2194 2195 2196 2196 2197 2197 2198 2198 2199 2199 2200 2201 2202 2203 2204 2206 2208 2210 2211 2212 2214 2216 2218 2221 2224 2226 2226 2228 2232 2238 2238 2238 2226 2215 2193 2161 2130 2096 2066 2053 2041 2034 2030 2025 2023 2022 2020 2020 2019 2017 2016 2016 2016 2017 2017 2017 2017 2017 2017 2017 2016 2014 2013 2011 2009 2006 2004 2000 1996 1992 1989 1985 1982 1978 1975 1972 1969 1967 1965 1962 1959 1957 1955 1953 1952 1950 1947 1946 1946 1945 1944 1944 1944 1944 1944 1944 1944 1944 1944 1944 1944 1944 1944 1944 1943 1943 1942 1942 1941 1941 1940 1939 1939 1937 1937 1937 1935 1935 1934 1933 1933 1932 1931 1930 1930 1929 1929 1929 1928 1928 1929 1929 1929 1929 1929 1929 1929 1929 1928 1928 1927 1925 1925 1923 1921 1919 1917 1916 1913 1909 1905 1900 1893 1886 1878 1872 1867 1861 1856 1853 1851 1848 1847 1845 1844 1844 1844 1846 1848 1850 1852 1855 1857 1860 1863 1864 1866 1868 1870 1871 1873 1875 1876 1877 1879 1879 1880 1881 1883 1884 1885 1887 1888 1889 1890 1891 1891 1891 1891 1891 1891 1890 1890 1889 1889 1888 1888 1887 1886 1885 1884 1884 1884 1884 1883 1883 1883 1883 1884 1884 1884 1883 1883 1883 1883 1883 1883 1883 1883 1882 1881 1880 1879 1878 1877 1876 1874 1873 1872 1870 1870 1870 1870 1870 1870 1870 1870 1871 1871 1872 1873 1876 1878 1879 1879 1880 1881 1883 1885 1886 1888 1890 1893 1895 1896 1898 1900 1901 1903 1906 1908 1910 1912 1912 1912
2215 2215 2287 2310 2337 2357 2364 2384 2384 2384 2382 2373 0 0 0 0 0 0 0 0 0 0 0 2033 2033 2020 2008 2008 2008 2015 2033 2052 2080 2080 2080 2081 2081 2081 2087 2101 2123 2141 2161 2164 2181 2196 0 0 0 0 0 0 0 0 0 0 0 2516 2654 2884 2997 3043 3112 3137 3180 3213 3230 3233 3237 3245 3245 3245 3237 3234 3234 3234 3233 3230 3222 3201 3175 3152 3115 3075 3059 2988 2871 0 0 0 0 0 1331 1323 1317 1313 1310 1307 1305 1304 1304 1303 1302 1302 1302 1302 1303 1303 1303 1304 1304 1304 1305 1306 1306 1307 1308 1309 1309 1310 1310 1310 1311 1312 1312 1314 1315 1315 1315 1315 1317 1318 1319 1320 1321 1322 1322 1324 1325 1326 1326 1328 1328 1329 1329 1329 1330 1331 1332 1333 1335 1336 1338 1338 1339 1340 1342 1343 1344 1345 1346 1347 1347 1348 1349 1350 1351 1352 1353 1354 1354 1356 1357 1358 1358 1359 1360 1361 1362 1363 1364 1365 1366 1366 1366 1368 1370 1372 1373 1375 1375 1377 1378 1380 1381 1382 1383 1383 1384 1385 1386 1387 1388 1390 1391 1392 1393 1393 1394 1395 1396 1397 1399 1399 1400 1402 1403 1403 1405 1406 1406 1407 1409 1410 1410 1412 1413 1414 1415 1417 1418 1419 1420 1422 1423 1426 1427 1429 1429 1430 1430 1432 1435 1436 1437 1438 1438 1438 1439 1439 1439 1440 1441 1441 1442 1442 1444 1445 1446 1448 1449 1450 1450 1452 1453 1454 1456 1457 1458 1460 1462 1463 1464 1465 1467 1468 1469 1470 1471 1473 1474 1475 1477 1480 1482 1484 1488 1491 1495 1498 1499 1502 1505 1508 1511 1513 1513 1514 1515 1515 1516 1516 1516 1515 1515 1515 1513 1513 1512 1511 1510 1510 1510 1511 1512 1513 1514 1515 1516 1518 1521 1525 1532 1539 1542 1562 0 0 0 2208 2214 2214 2214 2213 2212 2211 2209 2206 2205 2204 2202 2201 2199 2199 2197 2196 2196 2196 2195 2195 2195 2195 2193 2193 2193 2192 2192 2193 2193 2194 2194 2195 2196 2197 2197 2197 2198 2199 2200 2201 2202 2203 2205 2206 2208 2210 2212 2213 2214 2216 2220 2224 2226 2228 2228 2230 2236 2242 2242 2242 2237 2224 2195 2163 2132 2096 2070 2053 2040 2032 2027 2024 2022 2021 2019 2018 2017 2017 2016 2015 2015 2015 2015 2015 2015 2015 2015 2015 2014 2013 2011 2009 2007 2005 2002 1999 1995 1992 1989 1985 1982 1978 1976 1973 1971 1968 1965 1963 1960 1957 1955 1953 1951 1950 1947 1946 1945 1945 1944 1944 1944 1944 1944 1944 1944 1944 1944 1944 1944 1944 1944 1944 1944 1943 1943 1943 1941 1941 1940 1939 1939 1938 1938 1937 1936 1935 1934 1933 1933 1932 1931 1930 1930 1929 1929 1929 1929 1929 1929 1929 1929 1929 1929 1929 1929 1928 1928 1928 1926 1925 1924 1923 1921 1919 1917 1916 1912 1909 1905 1900 1893 1886 1878 1872 1865 1858 1855 1852 1849 1847 1846 1843 1843 1843 1843 1846 1847 1849 1852 1854 1857 1860 1863 1864 1866 1868 1870 1871 1873 1875 1876 1877 1879 1879 1880 1881 1883 1884 1885 1887 1888 1889 1890 1891 1891 1891 1891 1891 1890 1890 1889 1888 1887 1887 1886 1885 1884 1884 1883 1883 1883 1883 1882 1883 1883 1883 1883 1883 1883 1883 1883 1883 1883 1883 1883 1883 1882 1882 1881 1880 1879 1877 1876 1874 1873 1872 1871 1869 1869 1869 1869 1869 1869 1869 1869 1870 1870 1870 1872 1876 1878 1878 1878 1879 1881 1883 1884 1886 1888 1890 1892 1895 1896 1898 1900 1901 1902 1903 1906 1909 1910 1910 1910
2224 2224 2305 2332 2356 2360 2376 2395 2395 2401 2395 2395 2394 2376 0 0 0 0 0 0 0 0 0 0 0 2029 2011 2011 2011 2015 2033 2061 2081 2081 2081 2064 2064 2064 2074 2092 2121 2133 2133 2145 2163 2173 2175 2177 2179 2181 2185 0 0 0 0 0 0 0 0 2505 2595 2667 2791 2910 3028 3138 3178 3213 3215 3239 3239 3239 3231 3231 3231 3234 3234 3234 3229 3201 3184 3163 3116 3075 3046 2982 2956 2758 0 0 0 0 1338 1327 1321 1313 1310 1307 1306 1305 1305 1304 1303 1303 1303 1303 1303 1303 1304 1304 1304 1305 1305 1306 1306 1307 1308 1308 1309 1310 1310 1310 1311 1312 1312 1314 1315 1315 1315 1316 1317 1319 1320 1321 1322 1322 1323 1325 1325 1326 1326 1328 1328 1329 1329 1330 1331 1332 1333 1334 1335 1336 1338 1339 1339 1340 1342 1343 1344 1344 1345 1347 1347 1348 1349 1350 1351 1352 1353 1354 1355 1356 1357 1358 1359 1359 1360 1361 1362 1363 1364 1365 1366 1366 1366 1368 1370 1372 1373 1374 1375 1376 1378 1380 1381 1382 1383 1384 1384 1385 1386 1387 1388 1390 1391 1392 1393 1393 1394 1396 1396 1397 1399 1399 1400 1402 1403 1404 1405 1406 1406 1407 1409 1410 1410 1412 1413 1414 1415 1416 1418 1418 1420 1422 1423 1425 1426 1428 1429 1429 1430 1432 1434 1435 1437 1437 1438 1438 1439 1439 1439 1440 1441 1441 1443 1443 1444 1445 1446 1448 1449 1450 1450 1452 1453 1454 1456 1457 1458 1460 1462 1463 1464 1465 1467 1468 1469 1470 1471 1473 1474 1476 1477 1480 1482 1484 1488 1491 1495 1498 1500 1502 1505 1508 1512 1514 1515 1516 1517 1517 1517 1518 1517 1517 1517 1515 1514 1514 1513 1511 1510 1510 1510 1511 1512 1513 1514 1515 1517 1519 1521 1526 1534 1541 1543 1564 0 0 0 2204 2210 2212 2212 2212 2212 2211 2209 2207 2205 2203 2202 2200 2198 2198 2196 2195 2194 2194 2194 2194 2194 2193 2193 2192 2192 2192 2192 2192 2192 2193 2193 2194 2194 2195 2196 2196 2198 2199 2200 2201 2202 2204 2205 2207 2209 2211 2213 2214 2216 2218 2222 2226 2228 2230 2230 2233 2239 2243 2243 2243 2239 2233 2196 2165 2132 2096 2078 2057 2040 2032 2027 2023 2021 2018 2017 2016 2016 2015 2014 2014 2014 2013 2013 2014 2014 2014 2014 2014 2013 2012 2009 2008 2006 2003 2001 1998 1995 1992 1989 1985 1982 1979 1976 1974 1971 1969 1965 1963 1960 1957 1955 1953 1951 1949 1947 1946 1945 1945 1944 1943 1943 1943 1943 1943 1943 1944 1944 1944 1944 1945 1945 1944 1944 1943 1943 1943 1942 1941 1940 1940 1939 1938 1938 1937 1936 1935 1935 1934 1933 1933 1931 1931 1930 1929 1929 1929 1928 1928 1929 1929 1929 1929 1929 1929 1929 1928 1928 1927 1926 1925 1924 1923 1921 1919 1917 1915 1912 1909 1905 1900 1893 1886 1878 1871 1863 1857 1853 1851 1848 1846 1845 1843 1842 1842 1842 1843 1846 1848 1852 1854 1857 1860 1863 1864 1867 1868 1870 1871 1873 1875 1876 1877 1879 1879 1880 1881 1883 1884 1885 1886 1887 1888 1889 1889 1890 1890 1890 1890 1889 1889 1888 1887 1885 1885 1884 1884 1882 1882 1882 1882 1882 1882 1882 1882 1882 1882 1882 1882 1882 1882 1882 1882 1882 1883 1883 1883 1882 1881 1880 1879 1878 1877 1875 1872 1871 1870 1869 1867 1867 1867 1867 1867 1867 1867 1868 1868 1869 1869 1870 1873 1874 1876 1877 1878 1880 1882 1884 1886 1887 1890 1892 1894 1895 1898 1900 1901 1901 1902 1903 1904 1907 1907 1907
2254 2254 2325 2350 2371 2374 2386 2406 2408 2408 2413 2416 2416 2416 2400 2379 2363 2296 0 0 0 0 0 0 0 0 0 0 0 2039 2041 2063 2084 2084 2084 2064 2032 2032 2032 2068 2091 2103 2112 2123 2141 2145 2145 2149 2151 2152 2154 2163 0 0 0 0 0 0 0 0 0 0 0 2512 2528 2823 3029 3125 3129 3166 3190 3215 3220 3226 3226 3231 3231 3231 3229 3209 3184 3164 3133 3093 3046 3021 2982 2862 2754 0 0 0 0 1327 1323 1313 1311 1307 1306 1305 1305 1304 1304 1303 1303 1303 1303 1303 1304 1304 1304 1305 1305 1305 1306 1307 1308 1308 1309 1310 1310 1310 1311 1312 1313 1314 1315 1315 1316 1317 1318 1319 1320 1321 1322 1323 1324 1325 1326 1326 1326 1328 1328 1329 1330 1330 1331 1333 1333 1334 1335 1336 1338 1339 1340 1341 1342 1343 1344 1344 1345 1347 1347 1348 1349 1350 1351 1352 1353 1354 1355 1356 1357 1358 1359 1360 1360 1361 1362 1363 1364 1365 1366 1366 1366 1367 1370 1372 1373 1374 1375 1376 1378 1380 1381 1382 1383 1384 1385 1385 1387 1388 1389 1390 1392 1392 1392 1393 1394 1396 1396 1398 1399 1399 1401 1402 1403 1404 1405 1406 1407 1407 1409 1410 1410 1412 1413 1414 1415 1416 1418 1418 1420 1421 1423 1425 1426 1427 1427 1429 1430 1432 1433 1435 1437 1437 1437 1438 1438 1439 1439 1440 1441 1441 1443 1443 1444 1445 1446 1448 1449 1450 1451 1452 1453 1454 1456 1457 1458 1459 1461 1463 1464 1465 1466 1467 1469 1470 1471 1473 1474 1476 1477 1480 1482 1485 1488 1491 1496 1499 1500 1502 1505 1508 1512 1514 1516 1517 1517 1518 1518 1519 1519 1518 1517 1515 1514 1514 1513 1511 1511 1511 1511 1511 1512 1513 1514 1516 1517 1520 1523 1526 1535 1542 1555 1564 0 0 0 2204 2209 2211 2211 2211 2211 2210 2209 2207 2205 2203 2200 2198 2197 2197 2195 2194 2193 2193 2192 2192 2192 2192 2191 2191 2191 2191 2191 2191 2192 2193 2193 2194 2194 2195 2195 2196 2198 2199 2200 2201 2203 2205 2207 2210 2211 2214 2216 2217 2219 2223 2226 2229 2232 2232 2234 2240 2243 2248 2248 2248 2241 2233 2196 2165 2133 2107 2083 2057 2038 2032 2027 2023 2020 2018 2015 2015 2013 2012 2012 2012 2012 2012 2012 2012 2012 2012 2012 2012 2011 2010 2008 2006 2004 2003 2001 1998 1995 1992 1989 1985 1982 1979 1976 1974 1971 1969 1965 1962 1960 1957 1955 1953 1951 1949 1947 1946 1944 1943 1943 1943 1943 1943 1943 1943 1943 1944 1944 1944 1944 1945 1945 1944 1944 1943 1943 1943 1942 1941 1941 1940 1939 1938 1938 1937 1937 1936 1935 1934 1934 1933 1932 1931 1930 1929 1929 1929 1929 1929 1929 1929 1929 1929 1929 1929 1929 1928 1928 1927 1926 1925 1924 1922 1921 1919 1917 1915 1912 1909 1905 1900 1893 1885 1877 1868 1862 1856 1853 1850 1848 1846 1845 1842 1842 1842 1842 1842 1844 1848 1851 1853 1856 1860 1863 1865 1867 1869 1870 1872 1873 1875 1876 1877 1878 1879 1880 1881 1883 1883 1885 1886 1886 1887 1887 1888 1889 1889 1889 1889 1888 1888 1887 1886 1885 1884 1883 1882 1882 1881 1881 1881 1881 1881 1881 1881 1881 1881 1881 1881 1881 1881 1882 1882 1882 1882 1882 1882 1881 1880 1879 1879 1877 1876 1874 1871 1869 1868 1867 1865 1865 1865 1865 1865 1865 1866 1866 1868 1868 1868 1868 1870 1872 1873 1875 1876 1879 1881 1884 1886 1887 1888 1891 1893 1895 1897 1899 1899 1899 1900 1900 1900 1902 1903 1904
2286 2286 2341 2376 2385 2386 2403 2410 2411 2415 2419 2426 2434 2434 2434 2384 2368 2352 2352 0 0 0 0 0 0 0 0 0 0 0 0 0 0 2087 2087 2064 2032 2032 2032 2068 2081 2085 2089 2092 2111 2119 2128 2134 2134 2134 2129 2129 2129 2137 0 0 0 0 0 0 0 0 0 0 0 0 2569 2571 2663 2970 2985 3038 3141 3193 3213 3225 3229 3229 3229 3209 3184 3164 3133 3110 3059 3021 2982 2937 2757 0 0 0 0 0 1324 1313 1311 1309 1306 1305 1304 1304 1304 1303 1303 1303 1303 1303 1303 1304 1304 1305 1305 1306 1306 1307 1308 1308 1309 1310 1310 1311 1312 1313 1313 1314 1315 1316 1317 1317 1318 1319 1320 1321 1322 1323 1324 1325 1326 1326 1327 1328 1329 1330 1330 1331 1332 1333 1333 1334 1335 1336 1338 1339 1341 1341 1342 1343 1344 1344 1345 1346 1347 1348 1349 1350 1351 1352 1353 1354 1355 1357 1357 1358 1359 1360 1360 1362 1363 1364 1365 1365 1365 1366 1366 1368 1370 1372 1373 1374 1375 1377 1378 1380 1381 1382 1383 1384 1385 1386 1387 1388 1389 1390 1392 1392 1392 1393 1395 1396 1396 1398 1399 1400 1401 1402 1403 1404 1405 1406 1407 1408 1409 1410 1410 1412 1413 1414 1415 1416 1417 1418 1420 1421 1422 1425 1426 1427 1427 1428 1429 1432 1433 1435 1436 1436 1436 1437 1437 1438 1439 1440 1441 1441 1443 1443 1445 1446 1447 1448 1448 1450 1451 1452 1453 1454 1456 1457 1458 1459 1461 1462 1464 1465 1466 1467 1469 1470 1471 1472 1474 1476 1477 1480 1482 1485 1488 1491 1497 1500 1500 1502 1505 1508 1512 1514 1516 1517 1517 1518 1518 1519 1519 1518 1517 1515 1514 1514 1513 1511 1511 1511 1511 1511 1512 1513 1514 1516 1518 1520 1523 1527 1539 1549 1562 0 0 0 0 2208 2209 2211 2211 2211 2211 2210 2209 2207 2205 2202 2200 2198 2196 2196 2195 2194 2193 2192 2191 2191 2191 2191 2191 2191 2191 2191 2191 2191 2192 2192 2193 2194 2194 2195 2195 2196 2198 2200 2201 2203 2205 2208 2210 2212 2215 2217 2220 2222 2224 2228 2232 2234 2236 2237 2242 2249 2250 2252 2252 2252 2247 2236 2205 2169 2134 2113 2087 2057 2038 2032 2029 2023 2020 2018 2015 2013 2012 2010 2010 2010 2010 2010 2010 2010 2010 2010 2010 2010 2010 2008 2007 2005 2003 2002 2000 1997 1995 1991 1988 1985 1982 1979 1976 1974 1971 1969 1965 1962 1959 1956 1954 1953 1950 1948 1946 1945 1944 1943 1943 1943 1943 1943 1943 1943 1943 1944 1944 1944 1944 1945 1945 1944 1944 1944 1944 1943 1942 1942 1941 1940 1939 1939 1939 1938 1937 1937 1936 1935 1934 1933 1932 1931 1931 1929 1929 1929 1929 1929 1929 1929 1929 1929 1929 1929 1928 1928 1928 1927 1926 1925 1924 1922 1920 1919 1917 1915 1912 1909 1905 1899 1891 1883 1877 1868 1860 1855 1851 1848 1847 1845 1844 1842 1841 1841 1841 1841 1844 1847 1850 1853 1855 1859 1863 1866 1868 1869 1870 1872 1873 1875 1875 1877 1878 1879 1880 1881 1882 1883 1884 1885 1885 1886 1886 1887 1888 1888 1888 1887 1886 1886 1885 1884 1884 1883 1882 1881 1881 1881 1881 1880 1880 1880 1880 1880 1880 1880 1880 1880 1880 1880 1880 1881 1881 1880 1880 1879 1879 1879 1878 1877 1875 1874 1871 1869 1868 1866 1865 1864 1864 1863 1863 1863 1863 1863 1866 1866 1867 1867 1867 1869 1872 1873 1874 1875 1877 1880 1882 1884 1885 1887 1890 1892 1895 1896 1897 1897 1897 1898 1899 1900 1901 1902 1902
2307 2307 2360 2390 2394 2396 2408 2418 2420 2421 2434 2436 2437 2437 2437 2422 2406 2396 2396 2396 2400 2400 2400 0 0 0 0 0 0 0 0 0 0 0 0 0 0 0 0 2068 2081 2081 2082 2082 2090 2109 2123 2126 2126 2126 2112 2086 2086 2086 2097 2110 2111 2114 2133 0 0 0 0 0 0 0 0 0 0 0 0 0 2690 2967 3066 3129 3167 3208 3208 3208 3182 3164 3133 3110 3077 3010 2991 2955 2757 2676 0 0 0 0 0 1324 1314 1311 1305 1305 1304 1304 1304 1304 1303 1303 1303 1304 1304 1304 1304 1305 1305 1306 1307 1307 1308 1308 1309 1310 1310 1311 1312 1313 1313 1315 1315 1316 1317 1318 1318 1319 1320 1321 1322 1323 1324 1325 1326 1326 1327 1328 1329 1330 1330 1331 1332 1333 1333 1334 1335 1337 1338 1340 1341 1341 1342 1343 1344 1344 1345 1346 1347 1348 1349 1350 1351 1352 1353 1354 1355 1357 1357 1358 1359 1360 1360 1362 1363 1365 1365 1365 1366 1366 1367 1369 1371 1372 1373 1374 1375 1377 1378 1379 1381 1383 1383 1384 1385 1386 1388 1388 1389 1390 1392 1392 1392 1394 1396 1396 1397 1398 1399 1400 1401 1402 1403 1405 1405 1406 1407 1408 1409 1410 1411 1412 1413 1414 1415 1416 1417 1418 1420 1421 1422 1425 1426 1427 1427 1428 1430 1432 1433 1435 1436 1436 1436 1436 1437 1438 1439 1440 1440 1441 1442 1443 1445 1446 1447 1448 1448 1449 1451 1452 1453 1455 1456 1457 1458 1459 1461 1462 1464 1465 1465 1467 1468 1469 1470 1472 1474 1475 1476 1478 1481 1484 1488 1491 1498 1500 1500 1502 1505 1508 1512 1514 1517 1517 1518 1518 1519 1519 1519 1519 1517 1515 1514 1514 1513 1510 1510 1510 1511 1511 1512 1513 1514 1516 1518 1520 1523 1527 1533 1539 1551 0 0 0 0 2208 2210 2211 2211 2211 2211 2209 2208 2205 2204 2202 2199 2197 2196 2195 2195 2194 2192 2191 2191 2191 2191 2191 2191 2191 2191 2191 2191 2191 2192 2192 2193 2194 2194 2195 2196 2196 2198 2201 2204 2206 2207 2209 2212 2214 2217 2220 2223 2225 2230 2235 2238 2242 2246 2252 2254 2256 2257 2257 2257 2255 2251 2239 2215 2174 2135 2113 2087 2057 2038 2033 2029 2023 2020 2018 2015 2012 2010 2009 2008 2008 2008 2008 2008 2008 2008 2008 2008 2008 2008 2007 2006 2004 2003 2001 2000 1997 1994 1991 1988 1985 1982 1980 1976 1974 1971 1969 1965 1961 1958 1956 1953 1952 1950 1948 1946 1945 1943 1943 1943 1942 1942 1942 1943 1943 1943 1944 1944 1944 1944 1945 1945 1944 1944 1944 1944 1943 1942 1942 1941 1941 1939 1939 1939 1938 1938 1937 1936 1935 1935 1933 1932 1931 1931 1929 1929 1929 1929 1929 1929 1929 1929 1929 1929 1929 1928 1928 1927 1927 1926 1925 1924 1922 1920 1919 1917 1914 1911 1909 1905 1899 1891 1883 1875 1867 1859 1854 1850 1847 1845 1844 1842 1841 1841 1841 1841 1841 1844 1847 1850 1852 1854 1858 1863 1866 1868 1869 1870 1872 1873 1874 1875 1876 1877 1878 1879 1880 1881 1882 1883 1884 1884 1884 1885 1885 1886 1886 1886 1885 1885 1885 1883 1883 1882 1882 1881 1880 1880 1879 1879 1879 1879 1879 1879 1879 1879 1879 1879 1880 1879 1879 1880 1880 1879 1879 1878 1877 1877 1876 1876 1875 1874 1872 1870 1868 1867 1865 1863 1862 1862 1862 1861 1861 1862 1862 1864 1864 1865 1865 1866 1867 1870 1871 1872 1875 1876 1878 1880 1882 1883 1886 1889 1891 1893 1893 1895 1895 1896 1896 1898 1899 1901 1901 1902
2334 2334 2372 2392 2398 2403 2408 2420 2426 2436 2436 2438 2440 2445 2452 2454 2456 2456 2454 2444 2442 2441 2439 2439 2436 2423 0 0 0 0 0 0 0 0 0 0 0 0 0 0 0 2082 2082 2082 2090 2107 2113 2113 2113 2108 2097 2073 2073 2073 2084 2089 2094 2100 2110 2113 2127 0 0 0 0 0 0 0 0 0 0 0 0 0 0 2719 2890 2966 3081 3087 3113 3113 3113 3110 3077 3010 2976 2937 2847 2723 2632 0 0 0 0 0 1318 1313 1308 1305 1303 1303 1303 1303 1303 1303 1303 1304 1304 1304 1304 1305 1305 1306 1307 1307 1308 1308 1309 1310 1311 1312 1312 1313 1314 1315 1316 1317 1317 1318 1318 1320 1320 1321 1322 1323 1324 1325 1326 1327 1327 1328 1329 1330 1331 1332 1332 1333 1335 1335 1336 1337 1338 1340 1341 1341 1342 1343 1344 1344 1345 1346 1346 1348 1349 1349 1351 1351 1352 1353 1355 1356 1357 1357 1358 1360 1360 1362 1363 1365 1365 1365 1366 1367 1367 1369 1371 1372 1373 1374 1375 1377 1378 1379 1381 1382 1383 1384 1385 1386 1388 1388 1389 1390 1392 1392 1393 1394 1396 1397 1397 1398 1399 1401 1401 1402 1403 1405 1405 1406 1407 1408 1409 1410 1411 1412 1413 1414 1415 1416 1417 1418 1420 1421 1423 1425 1426 1427 1427 1428 1430 1432 1433 1435 1435 1436 1436 1436 1437 1438 1438 1439 1440 1440 1442 1443 1445 1446 1447 1448 1448 1449 1451 1453 1453 1455 1456 1457 1458 1459 1460 1462 1463 1465 1465 1467 1468 1469 1470 1472 1473 1475 1476 1478 1481 1484 1488 1492 1498 1500 1500 1502 1505 1508 1512 1514 1516 1517 1518 1518 1519 1519 1519 1519 1517 1515 1514 1513 1511 1510 1510 1510 1511 1511 1512 1513 1514 1516 1518 1519 1522 1527 1533 1539 1551 0 0 0 0 2210 2211 2210 2210 2208 2208 2207 2206 2204 2204 2202 2199 2197 2195 2195 2194 2193 2192 2191 2191 2191 2190 2191 2191 2191 2191 2191 2191 2192 2192 2192 2193 2194 2194 2196 2197 2199 2201 2204 2205 2207 2208 2211 2213 2215 2218 2222 2227 2233 2240 2245 2248 2251 2256 2259 2263 2266 2266 2266 2265 2261 2252 2242 2218 2178 2139 2114 2087 2057 2039 2034 2029 2023 2019 2016 2013 2011 2010 2008 2008 2006 2006 2006 2007 2007 2007 2007 2006 2006 2006 2005 2004 2004 2002 2000 1998 1996 1993 1991 1988 1985 1982 1980 1976 1974 1971 1968 1964 1961 1957 1955 1953 1952 1949 1948 1946 1944 1943 1942 1942 1942 1942 1942 1943 1943 1943 1944 1945 1945 1945 1945 1945 1945 1945 1945 1944 1944 1943 1942 1942 1941 1940 1939 1939 1938 1938 1937 1937 1936 1935 1934 1933 1932 1931 1930 1929 1929 1929 1929 1929 1929 1929 1929 1929 1928 1928 1928 1927 1926 1926 1925 1923 1921 1919 1918 1916 1914 1911 1909 1905 1898 1890 1883 1874 1865 1859 1854 1849 1846 1844 1843 1842 1841 1841 1841 1841 1841 1844 1847 1849 1851 1854 1858 1863 1866 1868 1869 1870 1872 1873 1874 1875 1876 1876 1878 1879 1879 1881 1881 1882 1883 1883 1883 1883 1883 1884 1884 1884 1884 1884 1883 1882 1882 1881 1881 1880 1879 1879 1879 1878 1878 1878 1878 1878 1878 1878 1879 1879 1879 1879 1879 1879 1878 1878 1878 1876 1875 1873 1873 1873 1872 1871 1869 1868 1867 1866 1864 1861 1861 1861 1861 1861 1860 1860 1860 1861 1862 1863 1863 1864 1866 1867 1868 1870 1874 1876 1877 1878 1881 1883 1885 1888 1889 1890 1891 1893 1893 1894 1895 1896 1899 1900 1900 1901
2355 2355 2374 2397 2403 2405 2410 2423 2428 2437 2445 2445 2446 2451 2462 2478 2482 2484 2484 2482 2476 2475 2474 2474 2475 2474 2474 2464 2461 2459 0 0 0 0 0 0 0 0 0 0 0 0 0 0 2090 2107 2113 2113 2113 2108 2092 2071 2071 2071 2077 2087 2087 2087 2079 2079 2079 2086 2103 2122 0 0 0 0 0 0 0 0 0 0 0 0 0 0 2608 2621 2862 2973 3007 3010 3010 3010 2976 2932 2781 2723 2706 0 0 0 0 0 0 1318 1317 1307 1303 1303 1303 1303 1303 1303 1303 1303 1303 1303 1304 1304 1305 1305 1306 1307 1308 1308 1310 1310 1311 1312 1312 1313 1314 1315 1316 1317 1318 1318 1319 1320 1321 1322 1323 1324 1325 1325 1327 1327 1328 1329 1330 1331 1331 1332 1333 1334 1335 1336 1336 1338 1338 1340 1340 1341 1342 1343 1343 1344 1344 1345 1346 1348 1349 1349 1350 1351 1352 1353 1355 1356 1357 1357 1358 1359 1361 1362 1363 1365 1365 1365 1366 1367 1368 1369 1371 1372 1373 1374 1375 1377 1378 1379 1381 1382 1383 1384 1385 1386 1387 1388 1389 1390 1392 1392 1393 1394 1396 1397 1398 1398 1399 1401 1401 1402 1403 1405 1406 1407 1407 1409 1409 1410 1411 1412 1413 1414 1415 1416 1417 1418 1420 1421 1423 1424 1426 1427 1427 1428 1430 1432 1433 1435 1435 1435 1435 1436 1437 1437 1438 1438 1438 1440 1442 1443 1445 1447 1447 1448 1449 1449 1451 1453 1454 1455 1456 1457 1458 1459 1460 1462 1463 1465 1465 1466 1467 1469 1470 1471 1473 1475 1476 1478 1481 1484 1488 1492 1498 1499 1500 1502 1506 1508 1512 1514 1516 1517 1517 1518 1519 1519 1519 1519 1517 1515 1514 1513 1511 1510 1510 1510 1511 1511 1512 1514 1514 1516 1517 1518 1520 1525 1533 1539 1553 0 0 0 0 2209 2209 2207 2207 2205 2205 2204 2204 2204 2203 2201 2199 2197 2195 2194 2193 2193 2192 2191 2191 2191 2190 2191 2191 2191 2191 2191 2192 2193 2193 2194 2194 2195 2196 2198 2200 2202 2205 2206 2208 2210 2212 2214 2218 2220 2223 2227 2232 2240 2247 2252 2255 2258 2259 2263 2267 2272 2274 2274 2274 2269 2260 2245 2221 2180 2143 2117 2089 2063 2044 2037 2029 2020 2017 2013 2012 2010 2007 2007 2006 2005 2005 2005 2005 2005 2005 2005 2005 2005 2004 2004 2003 2002 2000 1999 1997 1995 1993 1990 1987 1984 1982 1980 1976 1974 1971 1967 1963 1960 1956 1955 1953 1951 1949 1947 1946 1944 1942 1942 1942 1942 1942 1942 1943 1943 1943 1944 1945 1945 1945 1945 1945 1945 1945 1945 1945 1944 1944 1943 1942 1941 1941 1940 1939 1939 1939 1938 1937 1936 1935 1934 1933 1932 1931 1930 1930 1929 1929 1929 1929 1929 1929 1929 1929 1928 1928 1927 1927 1926 1925 1924 1922 1921 1919 1918 1915 1913 1911 1907 1903 1897 1890 1883 1873 1865 1858 1854 1849 1846 1844 1842 1841 1840 1840 1840 1841 1842 1844 1846 1849 1851 1854 1858 1863 1866 1868 1869 1870 1872 1873 1874 1875 1876 1876 1877 1878 1879 1880 1880 1881 1882 1882 1883 1883 1883 1883 1883 1883 1882 1882 1881 1881 1880 1880 1880 1879 1879 1878 1878 1878 1878 1878 1878 1878 1878 1878 1877 1877 1877 1877 1877 1877 1877 1876 1876 1874 1872 1872 1871 1870 1869 1868 1866 1866 1864 1863 1861 1860 1860 1860 1860 1860 1859 1859 1859 1859 1860 1860 1861 1861 1863 1864 1866 1869 1872 1875 1876 1877 1880 1882 1884 1886 1887 1888 1890 1890 1891 1893 1894 1895 1896 1899 1900 1901
2373 2373 2389 2404 2405 2407 2411 2425 2436 2448 2453 2456 2460 2465 2479 2491 2502 2507 2512 2512 2512 2506 2506 2501 2500 2500 2492 2492 2492 2492 2492 2488 2487 0 0 0 0 0 0 0 0 0 0 0 0 0 0 2113 2113 2108 2092 2067 2067 2067 2072 2078 2078 2078 2071 2054 2054 2054 2062 2079 2085 2085 2085 2085 2085 2085 0 0 0 0 0 0 0 0 0 0 0 0 0 2771 2920 2932 2932 2932 2781 2723 2706 0 0 0 0 0 0 0 1326 1307 1301 1301 1301 1302 1303 1303 1303 1303 1303 1303 1304 1304 1305 1306 1306 1307 1308 1308 1309 1310 1311 1312 1313 1313 1314 1316 1317 1317 1318 1318 1319 1321 1322 1323 1323 1324 1325 1325 1327 1327 1328 1329 1330 1331 1332 1333 1333 1334 1335 1336 1337 1338 1339 1339 1340 1341 1342 1342 1343 1344 1344 1344 1345 1347 1348 1349 1350 1351 1352 1353 1354 1356 1357 1357 1358 1359 1361 1362 1363 1364 1365 1365 1366 1367 1368 1369 1371 1372 1373 1374 1375 1376 1377 1379 1381 1382 1383 1384 1385 1386 1387 1388 1389 1390 1391 1392 1394 1395 1396 1397 1398 1399 1399 1401 1402 1402 1403 1405 1406 1407 1407 1409 1409 1410 1411 1412 1413 1414 1415 1416 1417 1418 1420 1422 1423 1424 1425 1427 1427 1428 1430 1432 1433 1434 1435 1435 1435 1436 1437 1437 1437 1438 1438 1440 1441 1443 1445 1447 1448 1449 1449 1450 1451 1453 1454 1456 1456 1458 1459 1459 1461 1462 1463 1465 1465 1466 1467 1469 1470 1471 1473 1475 1477 1478 1481 1484 1488 1492 1497 1499 1500 1502 1506 1508 1512 1514 1516 1516 1517 1518 1519 1519 1519 1519 1517 1515 1515 1513 1511 1510 1510 1510 1511 1511 1512 1514 1515 1516 1517 1518 1518 1523 1533 1534 1553 0 0 0 0 2211 2211 2207 2205 2202 2202 2202 2202 2202 2202 2200 2198 2196 2195 2193 2193 2193 2192 2191 2191 2191 2191 2191 2191 2191 2191 2192 2192 2194 2195 2195 2196 2196 2198 2200 2202 2206 2207 2209 2210 2213 2216 2221 2225 2227 2229 2233 2239 2245 2252 2256 2260 2263 2263 2266 2270 2275 2278 2278 2278 2274 2267 2250 2221 2187 2143 2117 2090 2067 2051 2037 2027 2017 2014 2013 2010 2008 2006 2005 2005 2004 2004 2004 2004 2004 2004 2004 2004 2004 2003 2002 2002 2001 2000 1998 1996 1994 1992 1989 1987 1984 1982 1979 1976 1972 1970 1966 1963 1959 1956 1954 1952 1950 1947 1946 1944 1942 1942 1941 1941 1942 1942 1942 1943 1943 1944 1944 1945 1945 1945 1946 1946 1946 1946 1946 1945 1944 1944 1943 1943 1942 1942 1941 1941 1939 1939 1938 1937 1936 1936 1935 1933 1932 1931 1930 1930 1929 1929 1929 1929 1929 1929 1928 1928 1928 1927 1927 1927 1926 1924 1924 1922 1921 1919 1917 1914 1912 1910 1906 1902 1896 1890 1882 1873 1864 1858 1854 1849 1846 1844 1842 1841 1840 1840 1840 1841 1842 1844 1847 1849 1851 1854 1859 1863 1865 1868 1869 1870 1872 1873 1874 1875 1875 1876 1877 1877 1879 1879 1880 1880 1881 1881 1881 1881 1881 1882 1882 1881 1881 1881 1880 1880 1879 1879 1879 1879 1878 1877 1877 1876 1876 1876 1876 1876 1876 1876 1876 1876 1876 1876 1876 1875 1875 1874 1873 1871 1870 1869 1869 1868 1866 1865 1864 1863 1862 1861 1859 1858 1858 1858 1858 1857 1857 1857 1857 1858 1859 1859 1860 1860 1860 1861 1862 1866 1870 1872 1874 1876 1878 1880 1883 1884 1886 1886 1887 1889 1890 1890 1892 1893 1894 1895 1897 1898
2385 2385 2403 2405 2409 2412 2418 2430 2439 2450 2454 2458 2464 2472 2481 2494 2502 2507 2512 2530 2530 2530 2525 2511 2508 2508 2508 2509 2517 2521 2523 2523 2521 2514 2501 2500 2490 2489 0 0 0 0 0 0 0 0 0 0 0 0 0 0 2067 2067 2072 2078 2078 2078 2071 2054 2047 2047 2047 2066 2080 2082 2082 2082 2062 2061 2061 2052 2051 0 0 0 0 0 0 0 0 0 0 0 0 0 2737 2737 2737 2708 0 0 0 0 0 0 0 0 1333 1307 1300 1300 1300 1301 1303 1303 1303 1303 1303 1303 1304 1304 1305 1305 1306 1307 1308 1308 1310 1310 1311 1312 1313 1314 1315 1316 1317 1317 1318 1319 1320 1321 1322 1323 1324 1325 1325 1326 1327 1328 1329 1329 1330 1331 1332 1333 1334 1334 1335 1336 1337 1338 1339 1339 1339 1340 1342 1342 1342 1342 1343 1344 1345 1346 1348 1349 1350 1351 1351 1353 1354 1355 1356 1357 1358 1359 1361 1362 1363 1364 1364 1365 1366 1367 1368 1369 1371 1371 1373 1373 1374 1376 1377 1378 1380 1381 1383 1384 1385 1386 1387 1388 1389 1390 1391 1392 1394 1395 1396 1397 1398 1399 1400 1401 1402 1403 1403 1404 1406 1406 1408 1408 1409 1410 1411 1412 1414 1415 1415 1416 1417 1419 1420 1422 1423 1424 1425 1426 1427 1428 1430 1431 1432 1433 1433 1433 1434 1436 1436 1437 1437 1437 1438 1439 1441 1443 1445 1447 1448 1449 1449 1450 1451 1453 1454 1456 1457 1458 1459 1460 1461 1463 1464 1465 1465 1466 1467 1469 1470 1472 1473 1475 1477 1478 1481 1484 1487 1492 1496 1498 1500 1502 1506 1508 1511 1513 1515 1515 1517 1518 1519 1519 1519 1518 1517 1516 1515 1513 1511 1510 1510 1510 1511 1511 1512 1513 1514 1516 1517 1517 1518 1523 1532 1547 1552 0 0 0 2211 2211 2211 2207 2205 2202 2201 2200 2200 2200 2199 2197 2197 2196 2195 2193 2193 2193 2192 2191 2191 2191 2191 2191 2192 2192 2193 2193 2193 2195 2197 2197 2199 2199 2201 2203 2204 2206 2209 2211 2214 2217 2222 2226 2230 2232 2235 2239 2243 2248 2253 2258 2263 2265 2266 2266 2270 2275 2280 2280 2280 2278 2272 2256 2225 2192 2152 2120 2092 2069 2055 2040 2027 2017 2014 2012 2010 2007 2006 2004 2004 2003 2003 2003 2003 2002 2002 2002 2002 2002 2002 2001 2000 2000 1998 1997 1995 1993 1990 1988 1986 1984 1981 1979 1976 1972 1969 1966 1962 1959 1956 1953 1951 1949 1947 1945 1944 1942 1941 1941 1941 1941 1942 1942 1943 1944 1944 1945 1945 1946 1946 1946 1946 1946 1946 1946 1946 1945 1945 1944 1943 1943 1942 1941 1941 1940 1940 1939 1938 1937 1936 1935 1934 1933 1931 1931 1930 1929 1929 1929 1929 1929 1929 1928 1928 1927 1927 1927 1927 1926 1924 1923 1922 1921 1918 1917 1914 1912 1909 1906 1901 1895 1889 1882 1873 1864 1857 1853 1849 1846 1844 1842 1841 1840 1840 1840 1841 1842 1844 1847 1849 1851 1854 1859 1863 1865 1867 1869 1870 1871 1873 1873 1875 1875 1875 1876 1877 1877 1878 1879 1880 1880 1880 1880 1880 1880 1880 1880 1880 1880 1880 1879 1879 1878 1878 1877 1877 1877 1877 1876 1875 1875 1875 1875 1875 1875 1875 1875 1874 1874 1874 1873 1873 1872 1872 1869 1868 1868 1867 1867 1866 1865 1863 1862 1861 1859 1859 1857 1856 1856 1856 1856 1856 1856 1856 1856 1857 1857 1858 1858 1858 1859 1859 1860 1864 1868 1872 1872 1874 1877 1879 1881 1883 1884 1885 1885 1886 1887 1888 1889 1890 1891 1891 1891 1891
