0 0 0 0 0 0 0 0 0 0 0 0 0 0 0 0 0 0 0 0 0 0 0 0 0 0 0 0 0 0 0 0 0 0 0 0 0 0 0 0 0 0 0 0 0 2132 2132 2132 2132 2132 2136 2166 2173 2179 2179 2176 2176 2176 2175 2173 2172 2170 0 0 0 0 0 0 0 0 0 0 0 0 0 0 0 0 0 0 0 0 0 0 0 0 0 0 0 0 0 0 0 0 0 0 0 0 0 0 0 0 0 0 0 0 0 0 0 0 0 0 0 0 0 0 0 0 0 0 0 0 0 0 0 0 0 0 0 0 0 0 0 0 0 0 0 0 0 0 0 0 0 1815 1815 1823 0 0 0 0 1800 1794 1785 1782 1781 1778 1776 1773 1771 1768 1762 1758 1755 1752 1750 1746 1739 1737 1736 1736 1732 1729 1726 1724 1722 1719 1717 1714 1711 1708 1706 1703 1701 1699 1696 1694 1691 1689 1687 1684 1680 1677 1675 1671 1670 1667 1666 1663 1661 1657 1654 1653 1651 1649 1647 1645 1643 1642 1640 1637 1635 1633 1629 1625 1622 1619 1615 1615 1612 1606 1603 1597 1591 1584 1578 1576 1576 1575 1575 1576 1576 1576 1576 1574 1571 1570 1567 1566 1566 1566 1564 1562 1560 1559 1556 1554 1553 1550 1549 1547 1545 1543 1541 1539 1537 1537 1535 1532 1532 1532 1531 1531 1528 1524 1518 1516 1516 1514 1509 1509 1508 1507 1507 1503 1499 1491 1487 1486 1486 1485 1485 1484 1484 1484 1484 1486 1487 1488 1488 1491 1496 1498 1508 1511 1518 1529 1532 0 0 0 0 0 2537 2754 2867 2888 2914 2919 3162 3217 3217 3217 3122 3001 2730 2649 2599 2512 2379 2313 2277 2259 2249 2239 2231 2225 2220 2211 2197 2188 2180 2173 2163 2152 2146 2138 2124 2111 2095 2082 2071 2064 2057 2049 2043 2035 2029 2026 2023 2019 2016 2013 2010 2008 2005 2002 1999 1996 1994 1992 1991 1990 1988 1986 1985 1983 1983 1982 1981 1981 1981 1981 1982 1984 1988 1988 1990 1992 1999 1999 2000 2001 1999 1999 1999 1999 1998 1998 1997 1995 1994 1992 1990 1989 1987 1986 1985 1983 1981 1980 1977 1975 1973 1971 1969 1968 1966 1963 1961 1958 1954 1952 1949 1949 1947 1945 1941 1939 1936 1934 1932 1930 1925 1922 1919 1917 1914 1911 1910 1909 1906 1905 1904 1904 1903 1903 1903 1904 1905 1908 1909 1910 1910 1910 1910 1910 1910 1912 1912 1913 1913 1914 1915 1916 1917 1917 1917 1917 1917 1917 1917 1917 1917 1917 1917 1917 1917 1917 1917 1917 1916 1916 1916 1915 1915 1914 1913 1913 1913 1913 1913 1913 1913 1913 1915 1916 1916 1917 1918 1919 1920 1921 1921 1922 1922 1923 1923 1923 1923 1922 1922 1921 1921 1920 1920 1920 1919 1918 1918 1915 1913 1913 1911 1911 1911 1911 1911 1910 1909 1908 1908 1908 1908 1909 1909 1909 1911 1914 1917 1921 1923 1927 1929 1929 1930 1932 1934 1940 1943 1943 1944 1945 1948 1961 1971 1979 1988 1996 2001 2006 2025 2027 2039 2045 2053 2056 2060 2063 2065 2066 2067 2070 2078 2079 2083 2084 2088 2088 2088 2092 2098 2121 2121 2121 2120 2108 0 0 0 0 0 0 0 0 0 0 0 0 0 0 0 0 0 0 0 0 0 0 0 0 0 0 0 0 0 0 0 0 0 0 0 0 0 0 0 0 0 0 0 0 0 0 0 0 0 0 0 0 0 0 0 0 0 0 0 0 0 0
0 0 0 0 0 0 0 0 0 0 0 0 0 0 0 0 0 0 0 0 0 0 0 0 0 0 0 0 0 0 0 0 0 0 0 0 0 0 0 0 0 0 0 0 0 2125 2125 2125 2125 2125 2133 2158 2173 2173 2173 2171 2168 2167 2164 2156 2153 2148 0 0 0 0 0 0 0 0 0 0 0 0 0 0 0 0 0 0 0 0 0 0 0 0 0 0 0 0 0 0 0 0 0 0 0 0 0 0 0 0 0 0 0 0 0 0 0 0 0 0 0 0 0 0 0 0 0 0 0 0 0 0 0 0 0 0 0 0 0 0 0 0 0 0 0 0 0 0 0 0 0 0 0 0 0 0 0 0 0 1827 1810 1802 1795 1790 1781 1776 1772 1770 1767 1763 1759 1757 1752 1748 1744 1740 1738 1738 1734 1730 1728 1726 1723 1720 1718 1714 1711 1708 1706 1703 1701 1699 1696 1693 1691 1689 1687 1685 1681 1680 1677 1674 1671 1668 1666 1664 1661 1659 1656 1653 1652 1649 1647 1645 1644 1642 1640 1638 1636 1633 1630 1626 1623 1621 1618 1615 1612 1610 1605 1597 1592 1585 1579 1576 1576 1576 1576 1576 1576 1576 1576 1574 1571 1571 1570 1569 1567 1566 1565 1563 1561 1559 1557 1555 1554 1551 1549 1547 1545 1543 1542 1540 1539 1538 1536 1532 1532 1532 1531 1531 1529 1526 1519 1517 1517 1514 1509 1508 1508 1507 1507 1503 1499 1491 1487 1486 1486 1485 1485 1485 1485 1485 1485 1487 1489 1489 1490 1493 1497 1500 1510 1511 1519 1533 1535 0 0 0 0 0 2537 2670 2867 2882 2899 2961 3263 3263 3263 3241 3122 3001 2730 2649 2599 2468 2357 2303 2277 2259 2247 2238 2229 2224 2216 2205 2196 2188 2180 2174 2168 2162 2153 2144 2133 2116 2101 2088 2078 2073 2065 2052 2046 2040 2034 2028 2025 2022 2021 2017 2012 2009 2006 2003 2000 1997 1994 1992 1991 1989 1987 1986 1982 1981 1981 1979 1978 1978 1978 1978 1978 1979 1980 1983 1984 1986 1989 1995 1995 1995 1996 1996 1996 1996 1996 1996 1995 1994 1993 1991 1989 1988 1987 1985 1984 1981 1980 1978 1976 1975 1972 1970 1968 1965 1964 1962 1960 1957 1954 1951 1949 1949 1947 1945 1941 1939 1936 1934 1932 1930 1926 1923 1920 1918 1915 1912 1910 1909 1906 1904 1902 1900 1899 1899 1899 1899 1900 1902 1904 1906 1907 1907 1908 1908 1909 1910 1911 1911 1911 1911 1913 1914 1915 1915 1916 1916 1916 1917 1917 1917 1917 1917 1917 1917 1918 1918 1918 1917 1916 1916 1916 1916 1915 1915 1915 1915 1915 1915 1916 1916 1916 1916 1916 1917 1917 1918 1919 1920 1921 1922 1922 1923 1923 1923 1924 1924 1924 1924 1924 1924 1923 1923 1923 1922 1922 1922 1921 1920 1918 1917 1917 1916 1916 1916 1915 1915 1915 1912 1911 1911 1911 1912 1913 1914 1915 1918 1920 1921 1923 1927 1929 1930 1930 1932 1934 1938 1940 1942 1942 1942 1946 1950 1955 1968 1978 1988 1991 2001 2014 2016 2031 2034 2037 2046 2055 2057 2058 2058 2058 2064 2070 2072 2075 2075 2075 2075 2075 2080 2092 2121 2121 2121 2120 2089 0 0 0 0 0 0 0 0 0 0 0 0 0 0 0 0 0 0 0 0 0 0 0 0 0 0 0 0 0 0 0 0 0 0 0 0 0 0 0 0 0 0 0 0 0 0 0 0 0 0 0 0 0 0 0 0 0 0 0 0 0 0
0 0 0 0 0 0 0 0 0 0 0 0 0 0 0 0 0 0 0 0 0 0 0 0 0 0 0 0 0 0 0 0 0 0 0 0 0 0 0 0 0 0 0 0 2107 2117 2117 2117 2117 2117 2126 2146 2164 2164 2164 2162 2161 2141 2136 2108 0 0 1995 1986 0 0 0 0 0 0 0 0 0 0 0 0 0 0 0 0 0 0 0 0 0 0 0 0 0 0 0 0 0 0 0 0 0 0 0 0 0 0 0 0 0 0 0 0 0 0 0 0 0 0 0 0 0 0 0 0 0 0 0 0 0 0 0 0 0 0 0 0 0 0 0 0 0 0 0 0 0 0 0 0 0 0 0 0 0 0 0 0 0 1838 1825 1810 1797 1782 1780 1773 1769 1763 1759 1758 1755 1748 1746 1741 1740 1738 1735 1732 1729 1726 1723 1720 1718 1715 1712 1708 1706 1703 1701 1699 1696 1694 1691 1689 1687 1685 1682 1680 1678 1674 1673 1670 1667 1664 1662 1659 1657 1655 1652 1650 1648 1646 1644 1642 1640 1638 1636 1633 1630 1627 1624 1622 1618 1615 1612 1611 1607 1603 1592 1587 1582 1579 1577 1577 1577 1577 1578 1578 1578 1574 1571 1571 1571 1570 1567 1567 1565 1563 1561 1560 1558 1556 1554 1552 1550 1547 1546 1544 1542 1541 1540 1539 1536 1533 1533 1532 1532 1532 1530 1526 1522 1521 1519 1514 1509 1508 1508 1507 1505 1505 1499 1491 1487 1486 1486 1486 1485 1485 1485 1485 1485 1487 1489 1491 1493 1497 1498 1502 1510 1511 1519 1535 1538 0 0 0 0 0 2480 2663 2882 2899 2910 2982 3367 3504 3504 3504 3284 3001 2741 2649 2602 2459 2350 2302 2272 2254 2247 2238 2229 2222 2216 2205 2196 2188 2180 2175 2169 2162 2155 2146 2133 2124 2110 2100 2088 2081 2078 2071 2060 2050 2045 2037 2030 2028 2023 2019 2015 2012 2008 2005 2002 1998 1994 1992 1990 1988 1986 1984 1982 1980 1978 1977 1976 1974 1974 1974 1974 1974 1975 1977 1980 1982 1983 1984 1987 1989 1991 1992 1992 1993 1993 1993 1993 1993 1991 1990 1988 1988 1986 1984 1983 1981 1979 1977 1975 1973 1971 1969 1966 1964 1962 1960 1958 1955 1953 1951 1948 1947 1946 1943 1941 1938 1935 1935 1933 1930 1926 1923 1922 1919 1915 1914 1911 1909 1906 1904 1902 1900 1898 1897 1897 1897 1898 1899 1899 1900 1901 1903 1904 1904 1907 1908 1908 1908 1908 1910 1911 1912 1913 1914 1914 1915 1915 1915 1916 1916 1916 1917 1917 1917 1918 1918 1918 1917 1917 1917 1917 1916 1916 1916 1916 1916 1917 1918 1918 1918 1919 1919 1919 1920 1920 1920 1921 1922 1923 1923 1924 1924 1924 1924 1924 1925 1925 1925 1925 1925 1925 1925 1924 1924 1924 1923 1923 1923 1923 1922 1922 1922 1921 1920 1920 1919 1919 1916 1915 1915 1915 1915 1916 1917 1919 1920 1922 1923 1923 1928 1929 1930 1932 1933 1934 1938 1940 1941 1942 1942 1945 1947 1951 1956 1960 1971 1988 1990 1991 2004 2017 2025 2029 2036 2041 2044 2047 2050 2055 2063 2065 2065 2066 2066 2066 2066 2067 2069 2073 2103 2120 2120 2120 2085 0 0 0 0 0 0 0 0 0 0 0 0 0 0 0 0 0 0 0 0 0 0 0 0 0 0 0 0 0 0 0 0 0 0 0 0 0 0 0 0 0 0 0 0 0 0 0 0 0 0 0 0 0 0 0 0 0 0 0 0 0 0
0 0 0 0 0 0 0 0 0 0 0 0 0 0 0 0 0 0 0 0 0 0 0 0 0 0 0 0 0 0 0 0 0 0 0 0 0 0 0 0 0 0 0 0 2107 2107 2107 2108 2110 2113 2125 2133 2149 2161 2161 2161 2123 2095 2094 2067 0 0 1963 1963 1983 0 0 0 0 0 0 0 0 0 0 0 0 0 0 0 0 0 0 0 0 0 0 0 0 0 0 0 0 0 0 0 0 0 0 0 0 0 0 0 0 0 0 0 0 0 0 0 0 0 0 0 0 0 0 0 0 0 0 0 0 0 0 0 0 0 0 0 0 0 0 0 0 0 0 0 0 0 0 0 0 0 0 0 0 0 0 0 0 1906 1874 1846 1818 1792 1784 1780 1772 1764 1760 1758 1756 1753 1749 1743 1740 1738 1735 1732 1729 1726 1723 1720 1718 1715 1712 1708 1706 1703 1701 1699 1696 1694 1691 1689 1687 1685 1683 1681 1679 1676 1673 1671 1667 1665 1662 1659 1658 1655 1653 1650 1648 1646 1644 1642 1640 1638 1636 1633 1630 1628 1626 1623 1619 1616 1614 1612 1608 1603 1594 1589 1582 1581 1581 1579 1580 1580 1579 1579 1578 1574 1571 1571 1571 1570 1569 1566 1565 1563 1561 1560 1558 1556 1555 1552 1550 1548 1546 1544 1543 1543 1541 1540 1536 1534 1534 1532 1532 1532 1530 1526 1525 1523 1519 1514 1509 1508 1508 1507 1505 1505 1499 1492 1490 1489 1488 1487 1486 1485 1485 1485 1485 1487 1489 1492 1494 1498 1502 1502 1510 1515 1519 1536 1545 0 0 0 0 0 2468 2670 2914 2915 2945 3110 3425 3605 3605 3605 3494 3131 2770 2649 2599 2458 2338 2298 2272 2254 2247 2238 2229 2221 2215 2205 2196 2188 2181 2175 2169 2164 2155 2146 2135 2124 2119 2111 2105 2090 2083 2076 2069 2060 2054 2048 2044 2035 2029 2025 2020 2015 2010 2007 2004 2000 1994 1993 1990 1988 1986 1984 1982 1979 1978 1977 1976 1974 1973 1971 1970 1970 1970 1972 1976 1977 1977 1978 1978 1982 1984 1988 1989 1989 1990 1990 1990 1990 1990 1989 1987 1986 1984 1984 1982 1980 1978 1976 1973 1971 1969 1967 1965 1963 1961 1958 1957 1955 1952 1950 1948 1946 1944 1943 1941 1938 1935 1934 1933 1930 1926 1924 1922 1919 1917 1914 1911 1909 1907 1904 1902 1900 1898 1896 1895 1895 1895 1895 1896 1896 1896 1898 1900 1903 1905 1906 1906 1907 1908 1908 1910 1911 1911 1912 1913 1913 1914 1914 1914 1915 1915 1916 1917 1917 1917 1918 1917 1917 1917 1917 1917 1917 1917 1916 1916 1917 1917 1918 1919 1919 1920 1920 1921 1921 1921 1922 1922 1923 1923 1924 1925 1925 1925 1926 1926 1926 1926 1926 1926 1926 1926 1926 1925 1925 1925 1925 1925 1925 1926 1926 1926 1925 1924 1924 1924 1923 1922 1920 1920 1920 1921 1921 1921 1921 1921 1923 1924 1927 1929 1930 1931 1931 1932 1934 1936 1938 1940 1940 1941 1942 1944 1946 1947 1953 1957 1966 1979 1983 1984 1992 2004 2014 2020 2025 2028 2034 2037 2039 2045 2051 2052 2052 2053 2053 2054 2054 2056 2064 2072 2087 2091 2091 2091 2057 0 0 0 0 0 0 0 0 0 0 0 0 0 0 0 0 0 0 0 0 0 0 0 0 0 0 0 0 0 0 0 0 0 0 0 0 0 0 0 0 0 0 0 0 0 0 0 0 0 0 0 0 0 0 0 0 0 0 0 0 0 0
0 0 0 0 0 0 0 0 0 0 0 0 0 0 0 0 0 0 0 0 0 0 0 0 0 0 0 0 0 0 0 0 0 0 0 0 0 0 0 0 0 0 1958 2089 2094 2095 2096 2096 2098 2103 2110 2123 2125 2125 2125 2108 2094 2064 2029 2021 1953 1953 0 0 0 0 0 0 0 0 0 0 0 0 0 2352 2387 2411 2411 2411 2402 2397 2397 2402 2402 2397 0 0 0 0 0 0 0 0 0 0 0 0 0 0 0 0 0 0 0 0 0 0 0 0 0 0 0 0 0 0 0 0 0 0 0 0 0 0 0 0 0 0 0 0 0 0 0 0 0 0 0 0 2345 2362 2405 2516 2644 2666 2666 2666 2649 2596 2545 2511 2432 0 0 0 0 0 0 0 0 0 0 0 1767 1767 1762 1758 1750 1744 1739 1737 1735 1732 1729 1725 1723 1720 1718 1715 1712 1708 1706 1703 1702 1700 1698 1695 1692 1689 1688 1686 1683 1681 1679 1676 1674 1671 1668 1665 1662 1660 1658 1655 1653 1650 1648 1646 1644 1642 1640 1638 1636 1633 1631 1629 1626 1623 1619 1617 1614 1612 1608 1604 1596 1589 1587 1587 1585 1582 1581 1580 1580 1579 1578 1575 1572 1571 1571 1570 1569 1566 1565 1563 1561 1560 1558 1557 1555 1552 1550 1548 1547 1545 1544 1543 1542 1540 1537 1537 1535 1535 1535 1533 1530 1528 1525 1523 1520 1515 1511 1509 1508 1508 1505 1505 1498 1492 1491 1489 1488 1488 1487 1486 1486 1486 1486 1487 1489 1492 1494 1499 1500 1504 1514 1521 1524 1538 0 0 0 0 0 2333 2468 2755 2963 3183 3427 3498 3498 3609 3609 3609 3499 3170 2770 2642 2599 2450 2337 2294 2271 2254 2247 2241 2231 2222 2214 2207 2197 2189 2182 2175 2169 2164 2156 2146 2137 2127 2120 2116 2111 2107 2091 2081 2073 2067 2062 2056 2051 2043 2031 2027 2022 2017 2011 2010 2007 2004 2000 1995 1990 1988 1986 1984 1982 1979 1978 1977 1976 1974 1973 1970 1968 1967 1967 1967 1970 1971 1971 1972 1972 1973 1976 1980 1982 1988 1988 1989 1989 1989 1989 1988 1986 1984 1982 1981 1981 1979 1977 1974 1972 1970 1968 1966 1964 1962 1960 1957 1955 1954 1952 1950 1948 1946 1944 1943 1940 1938 1935 1934 1933 1930 1927 1925 1923 1920 1918 1915 1912 1909 1907 1904 1902 1900 1898 1896 1895 1893 1892 1892 1892 1892 1893 1893 1894 1896 1899 1901 1902 1905 1906 1907 1908 1909 1910 1911 1911 1911 1912 1913 1913 1913 1914 1914 1916 1916 1916 1917 1917 1917 1917 1917 1917 1917 1917 1917 1917 1917 1918 1919 1919 1919 1920 1920 1921 1921 1922 1922 1923 1923 1924 1924 1925 1925 1926 1926 1926 1926 1926 1926 1926 1927 1927 1927 1927 1927 1927 1927 1927 1928 1928 1930 1930 1930 1929 1928 1928 1926 1925 1924 1924 1924 1924 1925 1925 1925 1926 1926 1928 1929 1930 1932 1932 1933 1934 1935 1936 1938 1940 1940 1941 1942 1943 1945 1947 1951 1956 1960 1960 1962 1974 1981 1989 1992 1998 2010 2013 2020 2025 2026 2036 2044 2044 2044 2046 2046 2046 2051 2056 2062 2069 2082 2084 2084 0 0 0 0 0 0 0 0 0 0 0 0 0 0 0 0 0 0 0 0 0 0 0 0 0 0 0 0 0 0 0 0 0 0 0 0 0 0 0 0 0 0 0 0 0 0 0 0 0 0 0 0 0 0 0 0 0 0 0 0 0 0 0 0
0 0 0 0 0 0 0 0 0 0 0 0 0 0 0 0 0 0 0 0 0 0 0 0 0 0 0 0 0 0 0 0 0 0 0 0 0 0 0 0 0 0 2019 2082 2082 2082 2082 2082 2090 2094 2097 2097 2106 2106 2095 2080 2061 2032 2003 2003 1953 1953 0 0 0 0 0 0 0 2252 2233 2224 0 0 0 2375 2404 2413 2413 2413 2413 2415 2428 2436 2436 2436 2436 0 0 0 0 0 0 0 0 0 0 0 0 0 0 0 0 0 0 0 0 0 0 0 0 0 0 0 0 0 0 0 0 0 0 0 0 0 0 0 0 0 0 0 0 0 0 0 0 0 0 0 2565 2572 2594 2729 2729 2729 2712 2711 2698 2691 2687 2685 2684 2623 0 0 0 0 0 0 0 0 0 0 0 1793 1775 1761 1751 1746 1739 1737 1732 1730 1727 1723 1721 1720 1717 1715 1712 1707 1705 1703 1702 1700 1698 1695 1693 1690 1688 1686 1683 1681 1679 1676 1674 1671 1668 1665 1662 1660 1658 1656 1653 1650 1648 1646 1644 1642 1640 1638 1636 1633 1631 1629 1626 1623 1620 1618 1614 1611 1608 1606 1602 1595 1591 1591 1590 1589 1584 1582 1582 1580 1578 1575 1572 1571 1571 1570 1569 1566 1565 1563 1561 1560 1559 1557 1555 1553 1550 1549 1547 1545 1544 1544 1542 1541 1540 1540 1539 1537 1537 1533 1530 1530 1526 1524 1522 1517 1513 1513 1512 1508 1505 1505 1498 1492 1492 1490 1489 1489 1488 1487 1487 1487 1488 1488 1490 1492 1495 1499 1500 1506 1514 1527 1530 1541 0 0 0 0 0 2354 2617 3089 3556 3556 3556 3556 3556 3685 3685 3685 3535 3283 2770 2612 2572 2448 2337 2294 2271 2260 2249 2242 2233 2222 2214 2208 2201 2191 2182 2175 2170 2164 2157 2147 2140 2133 2125 2116 2113 2107 2098 2089 2077 2071 2067 2063 2058 2050 2038 2029 2025 2021 2015 2011 2008 2007 2003 1998 1995 1991 1987 1985 1982 1979 1978 1977 1977 1974 1971 1970 1968 1966 1965 1965 1965 1965 1965 1965 1965 1965 1965 1966 1973 1977 1982 1986 1987 1987 1987 1987 1986 1984 1981 1978 1978 1977 1975 1973 1972 1970 1967 1966 1964 1961 1958 1956 1955 1953 1950 1949 1947 1945 1944 1942 1940 1938 1935 1934 1933 1930 1928 1925 1923 1920 1918 1915 1913 1910 1907 1905 1903 1901 1899 1896 1895 1893 1891 1890 1890 1889 1889 1890 1891 1891 1893 1895 1897 1900 1904 1904 1905 1906 1907 1908 1908 1909 1910 1911 1912 1913 1913 1914 1915 1916 1916 1916 1916 1916 1916 1917 1917 1917 1917 1917 1918 1918 1918 1919 1919 1920 1920 1920 1921 1921 1922 1923 1923 1923 1924 1925 1925 1925 1926 1926 1926 1926 1927 1927 1927 1927 1928 1928 1928 1928 1929 1929 1929 1929 1930 1932 1933 1933 1933 1932 1929 1928 1928 1927 1927 1927 1927 1927 1928 1928 1928 1928 1929 1931 1932 1932 1933 1934 1935 1935 1936 1938 1939 1939 1941 1941 1943 1945 1947 1948 1952 1956 1957 1958 1959 1971 1980 1982 1986 1994 1999 2004 2011 2017 2025 2034 2037 2037 2037 2038 2046 2051 2056 2061 2063 2063 2063 2062 0 0 0 0 0 0 0 0 0 0 0 0 0 0 0 0 0 0 0 0 0 0 0 0 0 0 0 0 0 0 0 0 0 0 0 0 0 0 0 0 0 0 0 0 0 0 0 0 0 0 0 0 0 0 0 0 0 0 0 0 0 0 0 0
0 0 0 0 0 0 0 0 0 0 0 0 0 0 0 0 0 0 0 0 0 0 0 0 0 0 0 0 0 0 0 0 0 0 0 0 0 0 0 0 0 0 2070 2070 2070 2074 2074 2074 2085 2092 2092 2092 2072 2070 2070 2068 2057 2022 2003 1970 1970 2003 0 0 0 0 2284 2284 2271 2264 2253 2224 2224 0 0 2386 2413 2415 2415 2415 2415 2422 2449 2460 2479 2479 2479 2476 2471 2466 0 0 0 0 0 0 0 0 0 0 0 0 0 0 0 0 0 0 0 0 0 0 0 0 0 0 0 0 0 0 0 0 0 0 0 0 0 0 0 0 0 0 0 0 0 0 0 2617 2649 2700 2729 2729 2729 2731 2731 2731 2736 2738 2736 2736 2725 2679 2660 2655 2623 0 0 0 0 0 0 0 0 0 0 0 1760 1749 1739 1737 1732 1730 1727 1722 1719 1717 1716 1715 1711 1707 1705 1703 1702 1701 1699 1696 1693 1692 1689 1686 1683 1681 1679 1676 1674 1671 1668 1665 1663 1660 1657 1655 1653 1650 1648 1646 1644 1642 1640 1638 1636 1633 1631 1629 1626 1623 1621 1618 1615 1612 1609 1606 1603 1601 1596 1593 1593 1592 1585 1584 1583 1580 1578 1575 1574 1574 1571 1569 1568 1566 1565 1563 1561 1560 1559 1556 1555 1553 1550 1549 1547 1546 1545 1544 1542 1541 1541 1541 1540 1540 1538 1535 1532 1530 1528 1526 1525 1522 1518 1515 1512 1508 1505 1505 1496 1495 1492 1490 1490 1489 1489 1488 1488 1488 1488 1489 1491 1492 1495 1498 1500 1508 1517 1532 1540 1541 0 0 0 0 0 2543 2946 3734 3734 3734 3650 3650 3650 3771 3771 3771 3720 3283 2703 2580 2553 2414 2321 2279 2270 2260 2255 2242 2233 2222 2214 2208 2201 2191 2182 2175 2170 2164 2157 2147 2140 2136 2129 2123 2117 2112 2101 2089 2083 2075 2074 2067 2060 2054 2046 2041 2036 2028 2023 2016 2011 2008 2005 2002 1998 1992 1990 1988 1987 1983 1981 1979 1977 1974 1972 1969 1967 1965 1964 1963 1962 1961 1960 1958 1957 1957 1957 1958 1963 1968 1973 1979 1983 1983 1983 1983 1982 1982 1978 1977 1974 1973 1973 1973 1971 1969 1967 1965 1963 1960 1957 1955 1953 1951 1949 1948 1946 1944 1943 1942 1940 1938 1935 1934 1933 1930 1928 1925 1923 1921 1919 1915 1913 1910 1908 1905 1903 1901 1900 1898 1896 1893 1891 1889 1889 1888 1887 1887 1887 1887 1888 1891 1893 1894 1897 1900 1900 1900 1903 1905 1905 1906 1908 1909 1911 1912 1913 1914 1914 1914 1914 1915 1915 1916 1916 1916 1917 1917 1917 1917 1918 1918 1918 1919 1919 1919 1920 1920 1921 1921 1922 1922 1923 1923 1924 1925 1925 1925 1926 1926 1927 1927 1927 1927 1928 1928 1928 1929 1929 1930 1930 1930 1931 1931 1933 1935 1935 1935 1935 1933 1931 1931 1930 1930 1930 1930 1929 1929 1929 1929 1929 1929 1931 1932 1933 1934 1935 1935 1936 1936 1937 1938 1938 1939 1940 1941 1943 1944 1946 1948 1950 1952 1953 1954 1955 1958 1968 1970 1972 1977 1981 1992 2000 2016 2024 2028 2028 2028 2029 2030 2044 2047 2053 2056 2060 2060 2060 2052 0 0 0 0 0 0 0 0 0 0 0 0 0 0 0 0 0 0 0 0 0 0 0 0 0 0 0 0 0 0 0 0 0 0 0 0 0 0 0 0 0 0 0 0 0 0 0 0 0 0 0 0 0 0 0 0 0 0 0 0 0 0 0 0
0 0 0 0 0 0 0 0 0 0 0 0 0 0 0 0 0 0 0 0 0 0 0 0 0 0 0 0 0 0 0 0 0 0 0 0 0 0 0 0 0 0 2069 2069 2069 2069 2069 2074 2085 2085 2085 2066 2041 2041 2041 2041 2041 2003 1981 1970 1970 2003 0 0 0 2297 2297 2297 2271 2270 2254 2224 2224 0 0 2386 2417 2417 2417 2417 2417 2437 2460 2461 2488 2499 2517 2517 2517 2497 2486 2485 0 0 0 0 0 0 0 0 0 0 0 0 0 0 0 0 0 0 0 0 0 0 0 0 0 0 0 0 0 0 0 0 0 0 0 0 0 0 0 0 0 0 0 2557 2615 2617 2649 2700 2729 2729 2729 2731 2731 2731 2736 2738 2736 2736 2725 2679 2660 2655 2623 2545 2514 0 0 0 0 0 0 0 0 0 0 0 1760 1739 1732 1730 1727 1722 1719 1716 1715 1715 1711 1707 1705 1703 1702 1701 1699 1696 1694 1692 1690 1686 1684 1681 1679 1676 1674 1671 1669 1666 1663 1660 1657 1655 1652 1650 1648 1646 1644 1642 1640 1637 1636 1633 1631 1629 1626 1624 1621 1618 1615 1612 1609 1606 1604 1601 1598 1594 1594 1592 1588 1586 1585 1584 1582 1578 1575 1574 1572 1569 1568 1566 1565 1563 1561 1559 1559 1556 1555 1553 1551 1550 1548 1547 1545 1544 1542 1542 1542 1542 1542 1542 1540 1538 1536 1534 1532 1529 1526 1523 1518 1517 1512 1507 1505 1504 1495 1495 1492 1491 1491 1490 1489 1488 1488 1488 1489 1489 1492 1493 1495 1498 1500 1508 1517 1535 1541 1551 0 0 0 0 0 3122 3573 3753 3755 3755 3755 3755 3755 3771 3771 3771 3758 3286 2697 2564 2526 2365 2308 2279 2265 2260 2255 2242 2233 2221 2211 2208 2201 2191 2180 2175 2169 2164 2157 2147 2141 2136 2130 2123 2117 2112 2105 2095 2089 2080 2075 2071 2064 2055 2048 2044 2043 2038 2033 2026 2020 2015 2010 2006 2001 1997 1994 1991 1988 1986 1981 1979 1978 1975 1973 1970 1968 1965 1964 1962 1960 1958 1957 1957 1957 1955 1955 1955 1956 1960 1966 1972 1976 1978 1980 1980 1980 1977 1974 1973 1972 1971 1971 1971 1970 1968 1966 1964 1961 1960 1957 1954 1953 1951 1949 1947 1945 1944 1943 1942 1940 1937 1935 1934 1932 1930 1928 1925 1923 1921 1919 1916 1913 1910 1908 1906 1904 1903 1901 1900 1898 1895 1891 1889 1888 1887 1886 1885 1885 1885 1885 1887 1889 1891 1892 1892 1894 1896 1899 1900 1902 1905 1906 1908 1910 1911 1912 1912 1913 1913 1913 1914 1914 1914 1915 1916 1917 1917 1917 1917 1918 1918 1918 1919 1919 1919 1920 1921 1921 1921 1922 1922 1923 1923 1923 1925 1925 1925 1926 1926 1927 1927 1927 1927 1928 1928 1928 1929 1929 1930 1931 1931 1932 1932 1934 1935 1936 1936 1936 1936 1934 1933 1931 1931 1931 1931 1932 1932 1931 1931 1931 1931 1931 1934 1935 1936 1936 1936 1936 1937 1937 1938 1938 1939 1940 1941 1943 1944 1946 1948 1949 1952 1953 1954 1954 1955 1958 1965 1965 1969 1973 1985 1998 2002 2011 2018 2020 2020 2021 2030 2041 2046 2047 2055 2056 2055 2055 2033 0 0 0 0 0 0 0 0 0 0 0 0 0 0 0 0 0 0 0 0 0 0 0 0 0 0 0 0 0 0 0 0 0 0 0 0 0 0 0 0 0 0 0 0 0 0 0 0 0 0 0 0 0 0 0 0 0 0 0 0 0 0 0 0
0 0 0 0 0 0 0 0 0 0 0 0 0 0 0 0 0 0 0 0 0 0 0 0 0 0 0 0 0 0 0 0 0 0 0 0 0 0 0 0 0 0 2069 2069 2069 2069 2069 2071 2074 2074 2074 2050 2019 2019 2009 1995 1989 1989 0 0 0 0 2196 2247 2274 2297 2297 2297 2270 2270 2261 2210 2210 0 0 2386 2417 2417 2418 2418 2418 2449 2461 2463 2488 2499 2517 2528 2528 2528 2510 2509 2503 2493 2493 0 0 0 0 0 0 0 0 0 0 0 0 0 0 0 0 0 0 0 0 0 0 0 0 0 0 0 0 0 0 0 0 0 0 0 0 0 0 0 2566 2611 2645 2648 2649 2700 2700 2700 2706 2706 2708 2729 2736 2738 2736 2736 2725 2679 2660 2655 2623 2545 2534 2515 2508 0 0 0 0 0 0 0 0 0 0 1764 1745 1736 1731 1722 1719 1716 1715 1715 1712 1708 1705 1702 1702 1701 1699 1695 1694 1692 1690 1686 1684 1681 1679 1676 1673 1672 1669 1666 1663 1660 1657 1655 1652 1650 1648 1646 1643 1641 1639 1637 1635 1633 1631 1629 1626 1624 1622 1618 1616 1614 1612 1609 1605 1602 1599 1596 1595 1592 1590 1588 1587 1585 1582 1579 1577 1575 1572 1569 1568 1566 1565 1563 1561 1559 1558 1556 1555 1553 1551 1550 1548 1547 1545 1544 1542 1542 1542 1542 1542 1542 1541 1541 1540 1534 1532 1529 1526 1523 1518 1517 1511 1505 1502 1501 1495 1495 1492 1491 1491 1491 1489 1488 1488 1488 1489 1491 1493 1493 1496 1500 1500 1507 1517 1535 1541 1551 0 0 0 0 2860 3264 3577 3753 3755 3755 3755 3755 3755 3771 3771 3771 3758 3286 2619 2511 2479 2327 2308 2279 2263 2258 2255 2242 2233 2217 2211 2207 2199 2184 2177 2172 2168 2162 2155 2147 2141 2136 2130 2124 2117 2112 2106 2102 2098 2093 2083 2074 2068 2062 2056 2051 2046 2040 2036 2031 2027 2022 2019 2015 2008 2004 1999 1996 1993 1991 1986 1983 1979 1975 1973 1970 1968 1967 1964 1962 1960 1958 1957 1957 1956 1955 1954 1954 1954 1954 1956 1963 1968 1971 1974 1976 1976 1976 1974 1973 1971 1970 1969 1967 1966 1965 1965 1962 1960 1958 1956 1954 1952 1950 1948 1946 1944 1943 1942 1940 1938 1936 1935 1933 1932 1930 1927 1925 1923 1921 1919 1916 1914 1911 1908 1906 1905 1904 1902 1901 1898 1895 1892 1889 1887 1887 1886 1885 1884 1884 1884 1884 1887 1888 1889 1889 1890 1891 1893 1896 1900 1902 1905 1905 1906 1908 1909 1910 1910 1910 1910 1911 1912 1912 1913 1913 1916 1916 1917 1917 1918 1918 1918 1919 1919 1919 1920 1920 1921 1921 1921 1922 1923 1923 1923 1924 1925 1925 1926 1926 1926 1927 1927 1927 1928 1928 1928 1929 1929 1930 1931 1931 1932 1933 1934 1935 1936 1936 1936 1936 1936 1935 1934 1933 1933 1933 1934 1934 1934 1934 1935 1935 1935 1936 1937 1937 1937 1938 1938 1938 1938 1938 1939 1939 1940 1941 1943 1944 1946 1948 1948 1950 1951 1952 1953 1954 1955 1961 1962 1962 1969 1984 1997 2001 2001 2004 2013 2014 2020 2028 2032 2038 2039 2043 2054 2054 2054 2030 0 0 0 0 0 0 0 0 0 0 0 0 0 0 0 0 0 0 0 0 0 0 0 0 0 0 0 0 0 0 0 0 0 0 0 0 0 0 0 0 0 0 0 0 0 0 0 0 0 0 0 0 0 0 0 0 0 0 0 0 0 0 0 0
0 0 0 0 0 0 0 0 0 0 0 0 0 0 0 0 0 0 0 0 0 0 0 0 0 0 0 0 0 0 0 0 0 0 0 0 0 0 0 0 0 0 2069 2069 2069 2069 2069 2071 2071 2071 2069 2037 2001 1999 1993 1989 1993 0 0 0 0 0 2233 2255 2276 2286 2286 2286 2268 2266 2254 2184 2184 0 0 0 2416 2428 2431 2437 2441 2455 2463 2466 2492 2504 2517 2532 2542 2542 2542 2528 2528 2528 2531 2531 2531 2506 0 0 0 0 0 0 0 0 0 0 0 0 0 0 0 0 0 0 0 0 0 0 0 0 0 0 0 0 0 0 0 0 0 0 2555 2569 2587 2614 2642 2645 2648 2650 2658 2658 2658 2656 2655 2655 2655 2655 2655 2655 2638 2596 2591 2579 2578 2575 2568 2558 2528 2508 0 0 0 0 0 0 0 0 0 0 0 1753 1745 1736 1723 1719 1718 1715 1713 1709 1705 1702 1699 1699 1698 1696 1694 1693 1690 1687 1685 1681 1679 1677 1673 1672 1669 1666 1663 1660 1657 1655 1652 1649 1648 1646 1643 1641 1639 1637 1635 1633 1631 1629 1626 1624 1622 1619 1616 1614 1612 1609 1606 1602 1600 1597 1595 1592 1591 1589 1588 1585 1584 1580 1577 1575 1573 1569 1568 1566 1565 1563 1561 1559 1558 1556 1555 1553 1551 1550 1548 1547 1545 1544 1542 1542 1542 1542 1542 1542 1541 1541 1540 1534 1532 1529 1526 1523 1518 1517 1509 1505 1501 1498 1495 1495 1492 1492 1491 1491 1490 1489 1489 1489 1490 1491 1493 1493 1496 1499 1500 1508 1516 1532 1540 1551 0 0 0 0 2860 3264 3577 3734 3734 3734 3650 3650 3650 3762 3762 3762 3720 3199 2559 0 0 0 2308 2284 2263 2250 2250 2237 2223 2215 2210 2204 2195 2183 2173 2169 2166 2161 2153 2147 2141 2136 2129 2124 2117 2112 2107 2104 2098 2093 2086 2077 2069 2065 2059 2056 2053 2047 2043 2036 2031 2026 2022 2020 2015 2010 2007 2002 1999 1998 1995 1990 1984 1978 1974 1971 1969 1968 1964 1962 1960 1958 1957 1957 1956 1955 1954 1952 1952 1952 1952 1952 1956 1961 1964 1968 1970 1970 1970 1970 1968 1968 1967 1966 1963 1963 1962 1961 1960 1956 1954 1952 1950 1949 1947 1946 1944 1942 1941 1939 1937 1936 1935 1933 1931 1929 1927 1925 1923 1921 1919 1916 1915 1913 1910 1907 1905 1904 1902 1901 1898 1895 1892 1889 1887 1887 1886 1884 1884 1883 1883 1883 1885 1886 1887 1888 1888 1889 1890 1891 1895 1898 1902 1902 1904 1904 1905 1906 1908 1909 1909 1909 1909 1910 1912 1913 1914 1916 1916 1917 1917 1917 1918 1918 1919 1919 1920 1920 1921 1921 1921 1922 1922 1923 1923 1924 1924 1924 1925 1925 1926 1927 1927 1927 1928 1928 1928 1928 1929 1930 1931 1931 1932 1933 1934 1935 1936 1936 1936 1936 1936 1936 1936 1935 1935 1935 1935 1935 1935 1935 1935 1935 1936 1936 1937 1937 1937 1938 1938 1939 1939 1939 1939 1940 1940 1941 1942 1944 1946 1948 1948 1949 1950 1950 1951 1953 1955 1961 1961 1962 1962 1978 1996 1997 1999 2000 2004 2010 2017 2021 2021 2028 2035 2035 2052 2052 2052 2025 0 0 0 0 0 0 0 0 0 0 0 0 0 0 0 0 0 0 0 0 0 0 0 0 0 0 0 0 0 0 0 0 0 0 0 0 0 0 0 0 0 0 0 0 0 0 0 0 0 0 0 0 0 0 0 0 0 0 0 0 0 0 0 0
0 0 0 0 0 0 0 0 0 0 0 0 0 0 0 0 0 0 0 0 0 0 0 0 0 0 0 0 0 0 0 0 0 0 0 0 0 0 0 0 0 0 2081 2081 2077 2071 2071 2071 2071 2071 2049 2001 2000 1999 1990 1990 0 0 0 0 2250 2251 2255 2276 2286 2286 2276 2267 2264 2254 2241 2162 0 0 0 0 2413 2428 2445 2461 2466 2473 2475 2480 2492 2504 2517 2541 2551 2560 2560 2560 2560 2557 2557 2557 2557 2557 2547 0 0 0 0 0 0 0 0 0 0 0 0 0 0 0 0 0 0 0 0 0 0 0 0 0 0 0 0 0 0 0 2486 2492 2563 2614 2624 2627 2642 2645 2648 2650 2658 2658 2658 2656 2628 2623 2611 2595 2588 2580 2567 2562 2562 2562 2561 2558 2558 2534 2530 2528 0 0 0 0 0 0 0 0 0 0 0 0 1794 1789 1765 1743 1728 1725 1723 1718 1708 1702 1699 1699 1698 1696 1694 1693 1690 1688 1685 1682 1680 1677 1674 1672 1669 1665 1663 1660 1657 1654 1651 1649 1648 1646 1643 1641 1639 1636 1634 1632 1630 1628 1626 1624 1622 1619 1616 1614 1612 1609 1606 1603 1600 1598 1595 1592 1591 1589 1588 1586 1585 1581 1578 1575 1573 1571 1569 1567 1565 1563 1561 1559 1558 1556 1554 1553 1551 1550 1548 1546 1544 1543 1542 1542 1542 1542 1541 1541 1541 1540 1540 1534 1529 1526 1523 1518 1515 1510 1509 1504 1501 1498 1495 1495 1492 1492 1492 1491 1490 1489 1489 1489 1490 1491 1493 1493 1499 1500 1501 1508 1516 1522 1527 1539 0 0 0 0 2860 3264 3573 3573 3573 3499 3380 3380 3380 3502 3576 3576 3576 3194 0 0 0 2327 2320 2295 2263 2245 2244 2234 2222 2214 2209 2203 2190 2178 2172 2168 2164 2160 2153 2147 2140 2135 2129 2124 2117 2112 2108 2104 2098 2093 2086 2079 2074 2068 2064 2058 2054 2049 2044 2040 2036 2032 2025 2023 2021 2018 2014 2009 2004 2003 1996 1991 1985 1980 1977 1974 1972 1969 1968 1965 1962 1961 1961 1958 1956 1955 1954 1952 1951 1950 1950 1950 1950 1950 1955 1959 1963 1965 1966 1966 1966 1965 1965 1964 1962 1960 1959 1959 1958 1955 1953 1951 1950 1948 1946 1944 1943 1942 1940 1938 1937 1936 1934 1933 1931 1928 1927 1925 1923 1921 1919 1916 1915 1913 1911 1908 1905 1904 1902 1901 1898 1896 1893 1890 1887 1887 1885 1884 1884 1883 1883 1883 1883 1883 1883 1883 1883 1885 1886 1888 1889 1892 1896 1898 1900 1902 1902 1904 1905 1905 1906 1908 1909 1909 1910 1912 1913 1915 1915 1915 1916 1916 1917 1918 1918 1919 1920 1920 1921 1921 1921 1921 1922 1922 1922 1923 1924 1924 1925 1925 1925 1926 1926 1926 1927 1927 1927 1928 1929 1930 1931 1931 1932 1933 1934 1935 1936 1936 1936 1936 1936 1936 1936 1936 1936 1935 1935 1935 1935 1935 1936 1936 1936 1937 1937 1937 1938 1938 1938 1939 1939 1939 1939 1940 1940 1942 1943 1944 1946 1947 1948 1948 1949 1950 1951 1953 1955 1959 1961 1962 1962 1972 1993 1993 1994 1998 2001 2009 2016 2020 2020 2023 2023 2035 2051 2051 2051 2009 0 0 0 0 0 0 0 0 0 0 0 0 0 0 0 0 0 0 0 0 0 0 0 0 0 0 0 0 0 0 0 0 0 0 0 0 0 0 0 0 0 0 0 0 0 0 0 0 0 0 0 0 0 0 0 0 0 0 0 0 0 0 0 0
0 0 0 0 0 0 0 0 0 0 0 0 0 0 0 0 0 0 0 0 0 0 0 0 0 0 0 0 0 0 0 0 0 0 0 0 0 0 0 0 0 0 2081 2081 2077 2070 2068 2062 2053 2029 1999 1987 1987 1987 1990 0 0 0 0 2269 2269 2272 2274 2280 2286 2286 2280 2261 2247 2235 0 0 0 0 0 0 2406 2436 2451 2474 2484 2486 2489 2497 2504 2506 2517 2536 2551 2573 2581 2581 2583 2583 2581 2576 2583 2569 2566 2563 0 0 0 0 0 0 0 0 0 0 0 0 0 0 0 0 0 0 0 0 0 0 0 0 0 0 0 2487 2535 2548 2552 2567 2573 2614 2624 2641 2642 2645 2648 2650 2658 2658 2658 2656 2628 2623 2611 2593 2588 2573 2567 2562 2562 2562 2561 2561 2561 2558 2534 2533 2482 0 0 0 0 0 0 0 0 0 0 0 0 0 0 0 0 0 1739 1735 1716 1703 1699 1699 1698 1697 1696 1695 1692 1688 1685 1683 1680 1677 1675 1671 1668 1665 1661 1660 1657 1654 1651 1649 1648 1646 1643 1640 1638 1636 1634 1632 1629 1628 1626 1623 1621 1619 1616 1614 1612 1609 1606 1603 1601 1598 1595 1593 1591 1590 1589 1587 1585 1581 1578 1576 1573 1572 1570 1567 1565 1563 1561 1559 1558 1556 1554 1553 1551 1550 1548 1545 1544 1542 1542 1542 1542 1542 1541 1537 1537 1537 1535 1532 1529 1526 1522 1514 1508 1506 1504 1504 1502 1498 1497 1495 1493 1492 1492 1491 1490 1490 1490 1490 1491 1492 1492 1493 1499 1501 1502 1508 1516 1522 1524 1537 0 0 0 0 2777 3141 3238 3238 3238 3234 3174 3065 2930 2930 2930 2922 2922 2552 0 0 2391 2350 2332 2302 2265 2243 2237 2231 2222 2213 2207 2201 2189 2176 2170 2167 2162 2156 2152 2147 2140 2135 2129 2124 2119 2115 2108 2104 2098 2092 2087 2082 2077 2071 2066 2059 2054 2051 2048 2044 2041 2040 2035 2030 2024 2021 2017 2013 2009 2006 2000 1993 1987 1984 1982 1979 1975 1971 1969 1967 1966 1965 1963 1959 1958 1955 1955 1952 1951 1950 1948 1946 1946 1946 1949 1952 1954 1955 1955 1957 1963 1963 1963 1961 1960 1959 1957 1957 1955 1953 1952 1950 1948 1946 1945 1943 1942 1940 1939 1937 1936 1935 1934 1932 1930 1928 1926 1924 1923 1920 1918 1917 1915 1913 1911 1908 1905 1904 1902 1901 1899 1896 1893 1891 1889 1887 1885 1883 1882 1881 1881 1881 1881 1881 1880 1880 1881 1881 1881 1882 1886 1886 1887 1889 1891 1894 1897 1900 1901 1902 1903 1904 1907 1909 1910 1911 1912 1913 1914 1914 1915 1916 1917 1917 1918 1918 1919 1920 1920 1920 1921 1921 1921 1922 1922 1923 1923 1923 1924 1924 1925 1925 1925 1925 1925 1927 1927 1928 1928 1930 1930 1931 1932 1933 1934 1935 1935 1936 1936 1936 1936 1936 1936 1936 1936 1936 1936 1936 1936 1936 1936 1936 1936 1937 1937 1938 1938 1939 1939 1939 1939 1940 1940 1940 1941 1942 1943 1944 1945 1946 1947 1948 1949 1950 1951 1954 1955 1959 1961 1962 1962 1971 1984 1991 1991 1993 2000 2007 2014 2017 2017 2018 2018 2033 2037 2037 2037 1934 0 0 0 0 0 0 0 0 0 0 0 0 0 0 0 0 0 0 0 0 0 0 0 0 0 0 0 0 0 0 0 0 0 0 0 0 0 0 0 0 0 0 0 0 0 0 0 0 0 0 0 0 0 0 0 0 0 0 0 0 0 0 0 0
0 0 0 0 0 0 0 0 0 0 0 0 0 0 0 0 0 0 0 0 0 0 0 0 0 0 0 0 0 0 0 0 0 0 0 0 0 0 0 0 0 2073 2078 2078 2073 2073 2062 2052 2051 2000 1987 1978 1978 1987 0 0 0 0 2276 2278 2283 2283 2283 2283 2284 2282 2280 2260 2235 0 0 0 0 0 0 0 2406 2441 2470 2480 2487 2502 2507 2508 2520 2524 2536 2543 2553 2577 2600 2600 2600 2591 2589 2585 2585 2578 2576 2569 2550 0 0 0 0 0 0 0 0 0 0 0 0 0 0 0 0 0 0 0 0 0 0 0 0 0 2494 2571 2595 2595 2595 2600 2601 2614 2629 2646 2653 2674 2684 2698 2708 2724 2724 2724 2675 2623 2611 2593 2588 2573 2567 2562 2562 2567 2568 2579 2580 2580 2580 2555 2502 0 0 0 0 0 0 0 0 0 0 0 0 0 0 0 0 0 0 0 1740 1722 1708 1703 1700 1698 1698 1696 1693 1690 1687 1685 1682 1680 1676 1671 1666 1662 1660 1660 1657 1654 1651 1649 1648 1646 1642 1640 1638 1636 1634 1632 1629 1626 1625 1623 1621 1619 1616 1614 1611 1608 1606 1604 1601 1599 1597 1594 1592 1590 1589 1587 1585 1582 1579 1577 1574 1572 1570 1568 1565 1563 1561 1559 1558 1556 1554 1553 1551 1549 1547 1545 1543 1542 1542 1542 1541 1541 1538 1536 1536 1535 1533 1531 1529 1526 1522 1514 1508 1506 1504 1502 1502 1499 1498 1495 1494 1493 1492 1491 1490 1490 1490 1490 1491 1491 1492 1493 1501 1502 1504 1514 1516 1521 1524 1536 0 0 0 0 2564 2938 3134 3162 3162 3162 3122 3006 2923 2792 2594 2533 2523 0 0 0 2369 2369 2332 2302 2267 2243 2232 2226 2217 2207 2204 2199 2189 2176 2170 2165 2160 2154 2150 2146 2139 2134 2129 2124 2119 2115 2108 2103 2097 2092 2087 2083 2077 2072 2067 2062 2061 2058 2057 2054 2047 2044 2041 2038 2034 2028 2021 2015 2012 2007 2003 1999 1995 1991 1988 1983 1978 1975 1974 1972 1969 1967 1963 1961 1958 1956 1955 1954 1951 1950 1948 1946 1945 1945 1945 1945 1945 1946 1948 1949 1951 1957 1958 1958 1958 1958 1957 1955 1952 1952 1951 1950 1948 1945 1944 1943 1941 1940 1938 1936 1934 1933 1932 1931 1929 1927 1926 1924 1921 1920 1918 1917 1915 1913 1911 1908 1905 1904 1902 1900 1898 1896 1893 1891 1889 1887 1885 1883 1881 1880 1879 1879 1879 1878 1878 1877 1877 1877 1877 1878 1879 1881 1881 1881 1882 1887 1893 1897 1898 1899 1900 1902 1904 1906 1908 1909 1911 1911 1912 1913 1914 1915 1916 1916 1917 1917 1918 1918 1918 1919 1919 1920 1920 1921 1921 1921 1921 1921 1923 1923 1923 1923 1923 1925 1925 1925 1926 1927 1927 1929 1930 1930 1931 1933 1933 1934 1935 1936 1936 1936 1936 1936 1936 1936 1936 1936 1936 1936 1936 1936 1936 1936 1936 1937 1937 1938 1938 1938 1939 1939 1939 1940 1940 1942 1942 1943 1943 1944 1945 1946 1946 1947 1949 1950 1953 1954 1958 1959 1962 1962 1962 1971 1981 1987 1987 1989 1997 2007 2008 2012 2013 2015 2015 2015 2015 2015 2014 1948 0 0 0 0 0 0 0 0 0 0 0 0 0 0 0 0 0 0 0 0 0 0 0 0 0 0 0 0 0 0 0 0 0 0 0 0 0 0 0 0 0 0 0 0 0 0 0 0 0 0 0 0 0 0 0 0 0 0 0 0 0 0 0 0
0 0 0 0 0 0 0 0 0 0 0 0 0 0 0 0 0 0 0 0 0 0 0 0 0 0 0 0 0 0 0 0 0 0 0 0 0 0 0 0 2039 2052 2073 2074 2074 2074 2062 2052 2045 2000 1987 1977 1977 0 0 0 0 2280 2280 2284 2284 2284 2284 2284 2285 2282 2280 2260 2233 0 0 0 0 0 0 0 2406 2445 2471 2488 2490 2511 2514 2522 2537 2539 2540 2547 2558 2580 2600 2606 2606 2606 2593 2592 2592 2582 2581 2569 2552 2517 0 0 0 0 0 0 0 0 0 0 0 0 0 0 0 0 0 0 0 0 0 0 0 0 2494 2571 2595 2595 2595 2600 2601 2614 2629 2650 2663 2707 2738 2745 2747 2747 2747 2738 2728 2698 2652 2593 2593 2573 2573 2573 2600 2623 2623 2623 2604 2602 2593 2565 2530 2501 0 0 0 0 2524 2535 2535 2621 2621 2621 2531 0 0 0 0 0 0 0 0 0 0 1725 1707 1706 1704 1700 1693 1691 1688 1685 1684 1682 1678 1671 1666 1661 1659 1659 1657 1654 1650 1649 1648 1646 1640 1639 1637 1636 1634 1631 1629 1626 1624 1623 1621 1619 1616 1614 1611 1608 1606 1604 1601 1600 1597 1595 1593 1591 1589 1586 1585 1582 1579 1577 1575 1572 1570 1568 1565 1563 1561 1559 1558 1556 1554 1553 1551 1548 1547 1545 1543 1542 1542 1541 1541 1538 1536 1536 1535 1534 1532 1529 1528 1526 1522 1514 1508 1506 1502 1502 1502 1499 1498 1496 1493 1493 1492 1491 1490 1490 1490 1490 1491 1491 1491 1492 1496 1502 1505 1516 1516 1520 1524 1536 0 0 0 0 2552 2936 3086 3116 3116 3116 3045 2976 2915 2792 2594 0 0 0 0 0 2387 2387 2332 2302 2269 2243 2232 2222 2214 2207 2203 2199 2189 2176 2169 2164 2157 2153 2149 2144 2138 2132 2128 2124 2119 2115 2108 2103 2097 2092 2087 2083 2078 2073 2067 2065 2063 2061 2059 2056 2051 2046 2042 2039 2035 2033 2029 2024 2018 2013 2009 2007 2005 1999 1994 1988 1984 1981 1979 1978 1976 1974 1970 1967 1962 1959 1956 1954 1952 1950 1948 1946 1945 1943 1942 1942 1942 1943 1945 1945 1945 1948 1951 1952 1952 1952 1952 1951 1951 1950 1950 1948 1947 1944 1942 1941 1940 1938 1936 1935 1934 1933 1932 1929 1928 1927 1925 1923 1921 1919 1917 1916 1915 1913 1911 1908 1905 1903 1901 1900 1898 1896 1893 1891 1889 1887 1885 1883 1881 1879 1878 1877 1876 1876 1875 1873 1873 1873 1873 1873 1875 1877 1877 1878 1878 1879 1883 1888 1895 1896 1896 1898 1902 1904 1904 1905 1906 1908 1910 1911 1913 1914 1915 1916 1916 1916 1916 1916 1916 1917 1917 1918 1918 1918 1919 1920 1920 1920 1921 1921 1922 1922 1923 1924 1924 1925 1925 1926 1927 1928 1929 1929 1931 1931 1932 1932 1933 1934 1934 1934 1935 1935 1935 1935 1935 1935 1935 1936 1936 1936 1936 1936 1937 1937 1937 1938 1938 1938 1939 1939 1939 1940 1941 1942 1942 1943 1944 1944 1945 1945 1946 1947 1948 1950 1953 1957 1960 1962 1962 1963 1963 1970 1981 1987 1987 1989 1994 1998 1998 2001 2008 2015 2015 2015 2015 2014 2009 1948 0 0 0 0 0 0 0 0 0 0 0 0 0 0 0 0 0 0 0 0 0 0 0 0 0 0 0 0 0 0 0 0 0 0 0 0 0 0 0 0 0 0 0 0 0 0 0 0 0 0 0 0 0 0 0 0 0 0 0 0 0 0 0 0
0 0 0 0 0 0 0 0 0 0 0 0 0 0 0 0 0 0 0 0 0 0 0 0 0 0 0 0 0 0 0 0 0 0 0 0 0 0 0 0 2040 2052 2071 2078 2078 2078 2072 2048 2045 1997 1997 1997 0 0 0 0 2272 2285 2285 2285 2285 2285 2285 2285 2286 2282 2276 2261 0 0 0 0 0 0 0 0 2423 2464 2481 2490 2498 2531 2533 2545 2554 2554 2557 2557 2557 2580 2600 2606 2606 2606 2599 2599 2599 2592 2586 2581 2552 2517 0 0 0 0 0 0 0 0 0 0 0 0 0 0 0 0 0 0 0 0 0 0 0 0 2494 2571 2595 2595 2595 2600 2601 2614 2675 2755 2757 2767 2768 2768 2767 2760 2757 2742 2736 2715 2685 2633 2595 2595 2595 2625 2666 2666 2666 2646 2621 2621 2614 2614 2628 2628 2614 2584 2584 2584 2680 2695 2713 2713 2737 2747 2737 2716 2716 2509 0 0 0 0 0 0 0 0 0 0 0 1721 1712 1708 1693 1686 1684 1683 1678 1672 1666 1661 1659 1658 1657 1654 1650 1649 1647 1643 1640 1639 1637 1636 1634 1631 1629 1625 1624 1622 1622 1619 1616 1614 1611 1608 1606 1604 1602 1600 1597 1596 1593 1591 1589 1586 1585 1582 1579 1577 1575 1572 1570 1568 1565 1563 1561 1559 1558 1556 1554 1553 1551 1548 1547 1545 1543 1542 1542 1541 1539 1538 1534 1534 1534 1534 1532 1529 1528 1526 1522 1514 1507 1504 1501 1501 1500 1499 1498 1496 1494 1493 1492 1491 1491 1491 1491 1491 1491 1491 1492 1492 1494 1502 1505 1516 1518 1518 1524 1535 0 0 0 0 2523 2828 3003 3027 3027 3027 3004 2946 2846 2696 2594 0 0 0 0 0 0 2389 2333 2305 2271 2245 2232 2220 2213 2206 2203 2197 2188 2176 2169 2162 2157 2153 2148 2141 2136 2130 2127 2124 2119 2113 2107 2101 2096 2092 2087 2083 2078 2073 2069 2067 2064 2062 2059 2056 2051 2047 2042 2039 2036 2033 2031 2029 2026 2022 2019 2015 2014 2010 2004 1998 1996 1989 1985 1982 1980 1976 1973 1970 1967 1966 1965 1962 1957 1954 1951 1946 1945 1943 1942 1942 1941 1940 1940 1940 1940 1940 1942 1944 1945 1945 1946 1946 1946 1946 1946 1946 1945 1943 1942 1941 1939 1938 1936 1934 1933 1932 1930 1929 1928 1926 1924 1923 1920 1918 1917 1916 1914 1912 1909 1907 1904 1903 1901 1899 1897 1896 1893 1890 1888 1887 1885 1883 1880 1878 1877 1876 1874 1874 1874 1871 1869 1868 1868 1868 1869 1873 1875 1875 1875 1875 1877 1881 1886 1889 1892 1893 1897 1902 1902 1903 1903 1906 1907 1909 1911 1913 1913 1913 1913 1913 1913 1913 1914 1915 1915 1916 1916 1916 1918 1918 1919 1919 1919 1920 1920 1921 1921 1922 1922 1923 1924 1925 1926 1926 1927 1928 1929 1930 1931 1931 1931 1932 1932 1932 1933 1934 1934 1935 1935 1935 1935 1935 1936 1936 1936 1937 1937 1937 1938 1938 1938 1938 1939 1939 1940 1941 1941 1942 1943 1943 1944 1944 1945 1945 1946 1947 1948 1950 1954 1958 1962 1963 1963 1963 1964 1971 1981 1985 1986 1989 1989 1991 1991 1991 2008 2015 2015 2015 2015 2014 1948 1913 0 0 0 0 0 0 0 0 0 0 0 0 0 0 0 0 0 0 0 0 0 0 0 0 0 0 0 0 0 0 0 0 0 0 0 0 0 0 0 0 0 0 0 0 0 0 0 0 0 0 0 0 0 0 0 0 0 0 0 0 0 0 0 0
0 0 0 0 0 0 0 0 0 0 0 0 0 0 0 0 0 0 0 0 0 0 0 0 0 0 0 0 0 0 0 0 0 0 0 0 0 0 0 0 2040 2052 2066 2078 2078 2078 2072 2048 2016 2000 2000 2000 0 0 0 2250 2284 2286 2292 2292 2295 2295 2295 2286 2285 2280 2276 2260 0 0 0 0 0 0 0 0 2448 2471 2484 2497 2505 2544 2555 2557 2560 2560 2560 2560 2560 2577 2592 2606 2610 2631 2631 2631 2627 2622 2622 2575 2552 2517 0 0 0 0 0 0 0 0 0 0 0 0 0 0 0 0 0 0 0 0 0 0 0 2453 2494 2494 2494 2513 2518 2518 2578 2598 2675 2755 2757 2768 2791 2806 2806 2806 2769 2767 2763 2759 2755 2747 2747 2747 2760 2778 2784 2784 2784 2752 2714 2714 2714 2770 2812 2836 2836 2836 2819 2806 2806 2806 2806 2806 2800 2789 2783 2775 2775 2753 2655 0 0 0 0 0 0 0 0 0 0 0 1759 1747 1723 1707 1699 1685 1679 1673 1667 1661 1659 1658 1657 1655 1652 1648 1646 1643 1640 1639 1637 1637 1634 1631 1627 1625 1624 1622 1622 1619 1616 1613 1611 1608 1606 1604 1602 1600 1597 1596 1593 1591 1589 1586 1584 1582 1579 1577 1575 1572 1570 1568 1565 1563 1561 1560 1558 1556 1555 1553 1551 1548 1547 1545 1543 1542 1541 1541 1538 1536 1534 1534 1533 1531 1531 1529 1527 1526 1522 1514 1507 1504 1501 1501 1500 1499 1498 1496 1494 1493 1492 1491 1491 1491 1491 1491 1491 1492 1492 1492 1494 1502 1513 1518 1521 1521 1521 1535 0 0 0 0 0 2620 2825 2935 2936 2936 2936 2929 2846 2720 2605 0 0 0 0 0 0 0 2349 2308 2276 2250 2233 2218 2211 2206 2202 2196 2187 2179 2169 2159 2156 2151 2146 2141 2134 2130 2126 2123 2118 2113 2107 2101 2095 2091 2087 2083 2078 2075 2071 2068 2065 2062 2059 2056 2052 2047 2043 2039 2037 2034 2033 2029 2028 2024 2020 2017 2014 2011 2008 2005 2000 1995 1988 1985 1983 1980 1976 1974 1972 1971 1970 1967 1965 1965 1960 1954 1946 1944 1942 1940 1939 1938 1937 1935 1935 1933 1933 1933 1934 1937 1937 1938 1939 1942 1942 1942 1942 1941 1939 1938 1937 1936 1935 1934 1932 1931 1929 1927 1926 1925 1923 1922 1920 1918 1917 1915 1914 1911 1909 1907 1904 1902 1900 1898 1896 1894 1891 1890 1888 1886 1885 1882 1880 1878 1877 1875 1874 1873 1872 1871 1869 1866 1865 1865 1865 1869 1871 1872 1872 1873 1874 1876 1881 1886 1889 1891 1893 1899 1899 1901 1902 1902 1903 1906 1908 1909 1911 1911 1911 1912 1912 1912 1913 1913 1913 1914 1915 1915 1916 1916 1916 1917 1917 1918 1918 1918 1919 1920 1921 1922 1923 1924 1924 1925 1926 1927 1928 1928 1930 1930 1931 1931 1931 1931 1932 1933 1934 1934 1934 1934 1935 1935 1935 1936 1936 1937 1937 1938 1938 1938 1938 1938 1939 1940 1941 1941 1941 1942 1943 1943 1944 1944 1944 1945 1945 1946 1947 1950 1954 1959 1962 1963 1964 1964 1966 1971 1978 1984 1987 1990 1990 1990 1991 1991 2008 2020 2020 2020 2018 2012 1948 1913 0 0 0 0 0 0 0 0 0 0 0 0 0 0 0 0 0 0 0 0 0 0 0 0 0 0 0 0 0 0 0 0 0 0 0 0 0 0 0 0 0 0 0 0 0 0 0 0 0 0 0 0 0 0 0 0 0 0 0 0 0 0 0 0
0 0 0 0 0 0 0 0 0 0 0 0 0 0 0 0 0 0 0 0 0 0 0 0 0 0 0 0 0 0 0 0 0 0 0 0 0 0 0 0 2047 2058 2066 2078 2078 2078 2072 2048 2016 2002 2002 2002 0 0 2247 2257 2284 2286 2290 2291 2295 2295 2295 2290 2276 2276 2272 2258 0 0 0 0 0 0 0 0 2453 2479 2497 2499 2505 2544 2555 2557 2560 2560 2560 2559 2558 2558 2559 2578 2605 2631 2636 2636 2636 2636 2631 2575 2529 2507 0 0 0 0 0 0 0 0 0 0 0 0 0 2516 2516 2553 2577 2553 2553 2553 2503 2493 2493 2493 2494 2494 2494 2508 2505 2505 2508 2578 2675 2755 2757 2768 2791 2818 2818 2818 2818 2818 2815 2810 2817 2817 2817 2829 2829 2829 2829 2829 2826 2822 2798 2785 2785 2785 2820 2836 2836 2836 2835 2825 2817 2811 2810 2807 2807 2798 2796 2790 2785 2763 2678 2611 2595 2531 0 0 0 0 0 0 0 0 0 0 0 0 1710 1701 1696 1685 1673 1664 1660 1658 1657 1655 1652 1648 1646 1643 1641 1639 1639 1638 1634 1631 1627 1624 1623 1622 1622 1619 1616 1613 1611 1608 1606 1604 1602 1600 1598 1596 1593 1591 1589 1586 1584 1582 1579 1577 1575 1572 1570 1568 1566 1564 1561 1560 1558 1557 1555 1553 1551 1548 1547 1545 1543 1542 1541 1540 1538 1535 1532 1532 1531 1531 1528 1527 1523 1519 1515 1512 1507 1503 1501 1500 1500 1499 1497 1495 1494 1493 1492 1492 1492 1492 1492 1492 1492 1492 1492 1492 1494 1509 1514 1518 1518 1520 1520 1535 0 0 0 0 0 2613 2801 2835 2854 2854 2854 2846 2845 2751 2615 2590 2554 2552 2546 2529 2500 2470 0 2313 2276 2257 2233 2218 2211 2205 2200 2194 2186 2179 2168 2159 2153 2147 2142 2136 2132 2130 2125 2120 2116 2112 2106 2100 2095 2091 2087 2083 2080 2076 2072 2069 2065 2062 2059 2056 2052 2050 2047 2044 2041 2037 2034 2031 2028 2025 2022 2019 2016 2013 2010 2007 2003 1999 1996 1992 1989 1986 1985 1981 1978 1975 1972 1970 1969 1968 1964 1960 1954 1948 1943 1940 1939 1938 1935 1934 1932 1932 1931 1929 1929 1929 1932 1932 1933 1934 1935 1937 1937 1937 1937 1935 1934 1934 1933 1932 1931 1928 1927 1926 1925 1924 1923 1921 1919 1917 1916 1915 1913 1911 1909 1906 1904 1901 1899 1897 1895 1893 1891 1889 1887 1885 1884 1881 1879 1878 1876 1875 1873 1873 1871 1870 1868 1865 1863 1863 1863 1863 1865 1866 1869 1869 1869 1872 1876 1879 1883 1884 1887 1888 1893 1896 1896 1897 1898 1901 1902 1904 1905 1909 1910 1911 1911 1911 1911 1911 1911 1911 1911 1912 1913 1913 1914 1914 1915 1915 1916 1917 1917 1918 1918 1921 1921 1923 1923 1923 1925 1926 1927 1928 1929 1929 1930 1930 1930 1931 1931 1932 1933 1933 1933 1934 1934 1935 1935 1935 1936 1937 1937 1938 1938 1938 1938 1938 1939 1940 1941 1941 1942 1942 1943 1943 1944 1944 1944 1945 1945 1946 1947 1950 1954 1959 1962 1963 1964 1965 1966 1972 1977 1983 1988 1988 1988 1991 1991 1991 2007 2020 2020 2020 2016 0 0 0 0 0 0 0 0 0 0 0 0 0 0 0 0 0 0 0 0 0 0 0 0 0 0 0 0 0 0 0 0 0 0 0 0 0 0 0 0 0 0 0 0 0 0 0 0 0 0 0 0 0 0 0 0 0 0 0 0 0 0 0 0 0 0 0
0 0 0 0 0 0 0 0 0 0 0 0 0 0 0 0 0 0 0 0 0 0 0 0 0 0 0 0 0 0 0 0 0 0 0 0 0 0 0 0 2048 2058 2067 2067 2067 2048 2043 2040 2016 2016 2016 0 0 0 2250 2259 2284 2286 2289 2291 2295 2295 2295 2290 2277 2275 2270 0 0 0 0 0 0 0 0 0 2466 2493 2499 2505 2511 2544 2556 2557 2557 2557 2557 2555 2555 2555 2558 2578 2597 2631 2636 2636 2636 2636 2631 2570 2526 2500 0 0 0 0 0 0 0 0 0 0 0 0 2516 2613 2618 2618 2618 2618 2623 2612 2587 2587 2546 2546 2542 2521 2513 2508 2505 2505 2508 2532 2597 2637 2706 2767 2791 2818 2818 2823 2823 2833 2847 2865 2865 2865 2849 2832 2829 2829 2829 2835 2835 2835 2826 2808 2808 2808 2820 2836 2842 2842 2842 2826 2819 2811 2810 2807 2807 2804 2803 2796 2785 2763 2733 2682 2662 2662 2662 2662 2593 0 0 0 0 0 0 0 0 0 0 0 0 0 1700 1691 1671 1664 1662 1660 1656 1648 1646 1645 1644 1641 1639 1638 1635 1631 1627 1624 1622 1622 1622 1619 1616 1612 1611 1609 1606 1604 1602 1600 1597 1596 1593 1591 1588 1586 1584 1582 1579 1577 1575 1572 1570 1568 1566 1564 1562 1560 1558 1557 1555 1553 1551 1548 1547 1545 1543 1541 1540 1538 1535 1535 1532 1531 1531 1530 1528 1524 1520 1514 1511 1509 1505 1501 1500 1500 1500 1499 1497 1495 1494 1493 1492 1492 1492 1492 1492 1492 1492 1492 1493 1494 1502 1509 1517 1518 1524 1525 1526 1535 0 0 0 0 0 2529 2621 2692 2716 2767 2778 2778 2778 2751 2705 2672 2623 2618 2601 2566 2542 2485 0 0 2279 2257 2233 2217 2208 2201 2197 2190 2185 2179 2168 2158 2149 2143 2139 2135 2132 2128 2124 2119 2114 2110 2104 2100 2095 2090 2087 2083 2080 2076 2072 2069 2065 2062 2059 2056 2052 2051 2048 2044 2041 2037 2034 2031 2029 2026 2023 2020 2017 2014 2011 2009 2005 2001 1999 1995 1993 1990 1989 1987 1981 1977 1975 1973 1972 1968 1965 1960 1957 1955 1949 1945 1941 1938 1935 1934 1932 1932 1931 1929 1928 1928 1928 1928 1930 1931 1932 1933 1934 1934 1934 1933 1930 1930 1929 1929 1926 1926 1925 1924 1923 1923 1923 1920 1918 1916 1916 1914 1912 1911 1908 1906 1903 1901 1899 1897 1895 1893 1891 1888 1886 1885 1882 1881 1879 1878 1876 1875 1872 1871 1870 1868 1867 1864 1862 1861 1861 1861 1861 1863 1864 1865 1867 1869 1870 1871 1874 1876 1880 1883 1885 1885 1887 1890 1892 1895 1897 1900 1902 1905 1909 1911 1911 1911 1911 1910 1910 1910 1910 1910 1910 1910 1911 1912 1912 1913 1913 1914 1915 1916 1916 1918 1919 1920 1920 1922 1922 1924 1926 1926 1927 1927 1928 1928 1929 1930 1930 1931 1932 1932 1932 1933 1933 1934 1935 1935 1936 1936 1937 1938 1938 1938 1938 1938 1939 1940 1941 1941 1942 1942 1943 1943 1944 1944 1944 1945 1945 1946 1947 1950 1956 1960 1962 1963 1964 1965 1967 1972 1979 1985 1989 1989 1989 1990 1990 1993 2007 2020 2020 2024 2024 0 0 0 0 0 0 0 0 0 0 0 0 0 0 0 0 0 0 0 0 0 0 0 0 0 0 0 0 0 0 0 0 0 0 0 0 0 0 0 0 0 0 0 0 0 0 0 0 0 0 0 0 0 0 0 0 0 0 0 0 0 0 0 0 0 0 0
1596 0 0 0 0 0 0 0 0 0 0 0 0 0 0 0 0 0 0 0 0 0 0 0 0 0 0 0 0 0 0 0 0 0 0 0 0 0 0 0 2048 2058 2058 2058 2048 2035 2033 2005 2005 2005 2005 0 0 0 2252 2271 2277 2277 2277 2277 2282 2290 2290 2290 2277 2275 2251 0 0 0 0 0 0 0 0 0 2466 2493 2499 2500 2511 2541 2556 2557 2557 2557 2551 2548 2548 2551 2558 2578 2597 2624 2636 2641 2641 2636 2614 2569 2523 2500 0 0 0 0 0 0 2070 2081 2089 0 0 0 2516 2624 2677 2679 2679 2679 2679 2679 2675 2668 2668 2635 2621 2591 2550 2508 2505 2505 2508 2532 2573 2581 2594 2665 2734 2771 2806 2815 2823 2833 2847 2865 2865 2865 2849 2832 2829 2829 2829 2835 2835 2835 2826 2811 2811 2811 2820 2830 2835 2835 2835 2831 2820 2798 2798 2798 2803 2803 2803 2796 2785 2761 2741 2725 2722 2717 2707 2701 2684 2635 2595 2502 0 0 0 0 0 0 0 0 0 0 0 0 1713 1707 1684 1669 1662 1657 1649 1645 1645 1644 1643 1639 1635 1631 1627 1623 1622 1621 1620 1619 1616 1612 1610 1609 1606 1603 1601 1600 1597 1594 1592 1590 1588 1586 1584 1582 1580 1577 1575 1572 1570 1568 1566 1564 1562 1560 1558 1557 1555 1553 1551 1548 1547 1544 1542 1541 1539 1537 1535 1533 1532 1529 1527 1526 1525 1524 1520 1514 1511 1509 1505 1501 1501 1500 1500 1500 1497 1495 1494 1492 1492 1492 1492 1492 1492 1492 1492 1493 1494 1500 1502 1509 1517 1521 1525 1528 1535 1543 0 0 0 0 0 0 2548 2634 2680 2708 2778 2778 2778 2751 2749 2737 2736 2692 2645 2607 2559 2492 0 0 2281 2257 2232 2216 2207 2201 2195 2189 2184 2176 2168 2156 2146 2140 2137 2133 2130 2126 2123 2118 2114 2107 2102 2098 2094 2090 2087 2083 2080 2076 2072 2069 2065 2062 2060 2056 2053 2051 2048 2044 2041 2038 2035 2032 2029 2027 2025 2021 2019 2016 2013 2010 2007 2004 2000 1997 1994 1992 1991 1987 1985 1980 1978 1976 1972 1969 1965 1962 1960 1957 1954 1950 1948 1944 1940 1934 1932 1932 1931 1929 1928 1928 1928 1928 1928 1929 1929 1929 1929 1929 1929 1929 1927 1927 1927 1927 1924 1923 1921 1920 1920 1920 1919 1917 1915 1912 1911 1910 1909 1908 1907 1905 1903 1900 1898 1896 1894 1891 1890 1888 1886 1884 1881 1880 1878 1877 1874 1874 1872 1870 1870 1867 1866 1862 1860 1859 1859 1859 1860 1861 1861 1862 1863 1865 1865 1867 1867 1870 1873 1878 1879 1880 1882 1885 1889 1891 1893 1894 1895 1899 1902 1906 1907 1908 1908 1909 1909 1909 1909 1909 1909 1909 1909 1909 1910 1911 1911 1912 1912 1913 1914 1916 1916 1918 1918 1919 1920 1921 1922 1923 1924 1925 1926 1927 1927 1928 1930 1930 1930 1931 1931 1932 1933 1934 1935 1935 1935 1936 1936 1937 1937 1938 1938 1938 1939 1940 1941 1941 1941 1942 1943 1943 1944 1944 1944 1945 1946 1947 1948 1951 1956 1960 1963 1963 1965 1966 1967 1972 1979 1985 1989 1989 1989 1989 1989 1999 2007 2016 2017 2017 2016 0 0 0 0 0 0 0 0 0 0 0 0 0 0 0 0 0 0 0 0 0 0 0 0 0 0 0 0 0 0 0 0 0 0 0 0 0 0 0 0 0 0 0 0 0 0 0 0 0 0 0 0 0 0 0 0 0 0 0 0 0 0 0 0 0 0 0
1638 1638 0 0 0 0 0 0 0 0 0 0 0 0 0 0 0 0 0 0 0 0 0 0 0 0 0 0 0 0 0 0 0 0 0 0 0 0 0 2005 2048 2048 2048 2048 2024 1980 1980 1980 1984 1987 0 0 0 2235 2267 2273 2274 2276 2277 2277 2282 2283 2283 2283 2277 2274 2246 0 0 0 0 0 0 0 0 0 2466 2493 2493 2499 2511 2538 2556 2557 2557 2557 2551 2548 2548 2551 2562 2585 2597 2624 2632 2633 2633 2633 2598 2566 2523 2500 0 0 0 0 0 2049 2070 2081 2089 2092 0 0 2512 2624 2718 2728 2728 2728 2727 2727 2726 2711 2698 2698 2669 2632 2620 2607 2578 2560 2560 2560 2573 2581 2594 2594 2615 2650 2729 2749 2778 2833 2847 2865 2865 2865 2849 2832 2823 2823 2823 2828 2828 2828 2826 2811 2811 2811 2813 2822 2835 2854 2854 2854 2821 2796 2790 2790 2790 2790 2790 2789 2785 2763 2741 2731 2725 2717 2707 2701 2684 2662 2638 2638 2630 2630 2630 2574 2567 2561 0 0 0 0 0 0 0 0 1721 1710 1700 1682 1669 1655 1646 1644 1643 1640 1635 1631 1627 1622 1618 1617 1617 1610 1610 1610 1610 1609 1606 1603 1600 1597 1596 1594 1592 1590 1587 1586 1584 1582 1580 1577 1575 1572 1571 1568 1566 1564 1562 1560 1558 1557 1555 1552 1550 1548 1546 1544 1542 1541 1539 1537 1534 1533 1531 1529 1526 1525 1524 1522 1518 1513 1510 1509 1505 1501 1501 1500 1500 1500 1497 1495 1493 1492 1492 1492 1493 1493 1493 1494 1494 1495 1496 1500 1502 1507 1517 1525 1526 1538 1539 1550 0 0 0 0 0 0 2548 2588 2662 2708 2778 2782 2788 2797 2797 2797 2780 2762 2738 2701 2603 2524 0 0 2279 2255 2231 2215 2207 2201 2195 2187 2179 2172 2162 2153 2146 2138 2134 2131 2128 2125 2122 2117 2112 2106 2100 2096 2092 2090 2087 2083 2079 2075 2072 2069 2065 2062 2060 2056 2054 2051 2048 2045 2041 2038 2035 2032 2030 2027 2025 2022 2020 2017 2014 2011 2008 2005 2000 1998 1997 1994 1991 1989 1986 1984 1981 1977 1973 1969 1966 1964 1963 1961 1957 1953 1950 1950 1947 1941 1937 1934 1932 1930 1929 1928 1928 1927 1927 1926 1926 1926 1926 1926 1926 1926 1925 1925 1925 1924 1922 1919 1917 1915 1914 1914 1913 1911 1910 1909 1909 1908 1905 1904 1903 1901 1900 1899 1897 1894 1892 1891 1890 1888 1885 1882 1881 1879 1877 1876 1874 1873 1871 1869 1868 1866 1865 1862 1860 1859 1859 1859 1859 1859 1859 1859 1861 1861 1863 1864 1865 1866 1868 1870 1874 1876 1879 1881 1884 1886 1888 1889 1891 1895 1896 1897 1903 1903 1903 1904 1905 1905 1906 1906 1907 1907 1906 1907 1907 1908 1910 1911 1912 1912 1912 1914 1914 1915 1916 1917 1917 1919 1920 1921 1922 1923 1924 1924 1925 1925 1927 1927 1929 1930 1931 1931 1932 1932 1933 1934 1934 1935 1936 1936 1936 1936 1938 1938 1939 1940 1940 1941 1941 1941 1943 1943 1944 1945 1945 1946 1946 1948 1949 1951 1956 1961 1963 1966 1967 1968 1968 1973 1979 1987 1987 1987 1987 1987 1987 2000 2007 2016 2016 2016 0 0 0 0 0 0 0 0 0 0 0 0 0 0 0 0 0 0 0 0 0 0 0 0 0 0 0 0 0 0 0 0 0 0 0 0 0 0 0 0 0 0 0 0 0 0 0 0 0 0 0 0 0 0 0 0 0 0 0 0 0 0 0 0 0 0 0 0
1645 1645 0 0 0 0 0 0 0 0 0 0 0 0 0 0 0 0 0 0 0 0 0 0 0 0 0 0 0 0 0 0 0 0 0 0 0 0 0 2004 2038 2038 2038 2038 2020 1978 1978 1978 1984 1987 0 0 0 2238 2269 2277 2277 2277 2277 2277 2279 2280 2280 2279 2277 2260 2232 0 0 0 0 0 0 0 0 0 2450 2474 2478 2491 2492 2526 2551 2558 2558 2558 2554 2554 2554 2563 2587 2592 2606 2624 2627 2627 2627 2612 2594 2566 2529 2501 0 0 0 0 0 1995 1995 2045 2089 2089 0 0 0 2624 2718 2772 2772 2772 2763 2744 2736 2729 2728 2720 2718 2705 2702 2699 2680 2666 2638 2597 2594 2594 2594 2594 2594 2594 2605 2613 2667 2726 2810 2858 2858 2858 2845 2826 2812 2812 2812 2817 2817 2817 2814 2811 2808 2808 2808 2820 2834 2846 2846 2846 2821 2795 2765 2765 2765 2779 2780 2780 2779 2763 2748 2731 2725 2717 2707 2694 2684 2662 2638 2638 2638 2656 2656 2656 2617 2592 2546 2513 0 0 0 0 0 0 0 0 0 0 0 0 0 1656 1648 1644 1643 1640 1629 1622 1618 1617 1617 1610 1609 1608 1608 1605 1603 1601 1599 1596 1595 1594 1592 1590 1587 1586 1584 1582 1580 1577 1575 1573 1571 1568 1566 1565 1562 1560 1558 1556 1555 1552 1550 1548 1546 1544 1542 1540 1539 1536 1534 1532 1530 1528 1526 1525 1523 1521 1518 1514 1510 1509 1507 1502 1501 1500 1500 1499 1497 1495 1493 1492 1492 1492 1493 1493 1494 1495 1495 1497 1499 1500 1502 1507 1515 1530 1532 1539 1539 0 0 0 0 0 0 0 2548 2588 2662 2708 2794 2856 2856 2856 2824 2824 2814 2810 2796 2727 2654 2528 0 0 2279 2252 2228 2213 2205 2200 2192 2185 2177 2170 2162 2153 2145 2137 2131 2127 2125 2123 2119 2116 2110 2104 2099 2093 2090 2089 2086 2082 2078 2074 2071 2067 2065 2062 2060 2056 2054 2050 2048 2044 2041 2038 2036 2033 2030 2027 2025 2023 2021 2018 2015 2012 2009 2007 2005 2001 1999 1995 1993 1990 1988 1986 1983 1979 1975 1973 1971 1968 1966 1965 1962 1958 1954 1951 1948 1944 1943 1939 1935 1932 1931 1930 1930 1928 1927 1926 1926 1926 1926 1926 1925 1924 1923 1922 1922 1921 1920 1916 1914 1912 1912 1910 1908 1906 1905 1904 1904 1904 1904 1901 1900 1899 1897 1896 1895 1893 1891 1889 1888 1887 1885 1882 1880 1878 1876 1875 1874 1872 1870 1868 1867 1865 1863 1861 1860 1858 1858 1858 1858 1858 1858 1858 1859 1860 1860 1861 1862 1863 1865 1866 1868 1869 1870 1875 1879 1881 1883 1885 1888 1888 1888 1889 1891 1896 1898 1899 1901 1901 1902 1903 1903 1903 1903 1904 1904 1905 1905 1906 1907 1909 1909 1910 1911 1912 1913 1914 1915 1917 1918 1919 1920 1921 1921 1922 1923 1923 1924 1925 1927 1928 1930 1931 1931 1932 1932 1932 1933 1934 1935 1935 1935 1936 1936 1937 1938 1938 1940 1940 1941 1941 1943 1943 1944 1945 1946 1947 1948 1948 1949 1951 1956 1961 1964 1968 1968 1969 1969 1975 1979 1987 1987 1990 1990 1990 1992 2001 2007 2011 2011 0 0 0 0 0 0 0 0 0 0 0 0 0 0 0 0 0 0 0 0 0 0 0 0 0 0 0 0 0 0 0 0 0 0 0 0 0 0 0 0 0 0 0 0 0 0 0 0 0 0 0 0 0 0 0 0 0 0 0 0 0 0 0 0 0 0 0 0 0
1662 1662 0 0 0 0 0 0 0 0 0 0 0 0 0 0 0 0 0 0 0 0 0 0 0 0 0 0 0 0 0 0 0 0 0 0 0 0 0 2004 2037 2037 2037 2012 2001 1957 1957 1957 1986 0 0 0 2242 2261 2272 2272 2273 2274 2274 2274 2275 2275 2275 2271 2269 2256 2218 0 0 0 0 0 0 0 0 0 2433 2457 2471 2473 2478 2510 2542 2560 2567 2568 2568 2581 2588 2592 2598 2604 2609 2625 2625 2625 2623 2604 2594 2566 2536 2513 0 0 0 0 0 1995 1995 1999 2037 2084 0 0 0 2618 2718 2772 2772 2772 2771 2761 2757 2742 2740 2736 2736 2736 2739 2740 2740 2740 2735 2717 2689 2649 2619 2605 2594 2555 2555 2555 2556 2609 2690 2724 2755 2808 2808 2808 2810 2810 2812 2816 2816 2816 2808 2803 2803 2803 2804 2814 2826 2846 2846 2846 2820 2788 2756 2756 2756 2762 2766 2766 2766 2761 2748 2731 2715 2701 2689 2678 2678 2662 2638 2638 2638 2656 2656 2656 2620 2601 2578 2570 2546 0 0 0 0 0 0 0 0 0 0 0 0 0 0 1661 1655 1649 1632 1622 1618 1617 1617 1610 1609 1608 1608 1604 1601 1601 1599 1596 1595 1594 1592 1590 1587 1586 1584 1582 1579 1577 1575 1573 1571 1569 1567 1565 1563 1560 1558 1556 1554 1552 1550 1548 1546 1544 1542 1540 1539 1536 1534 1532 1530 1528 1526 1525 1523 1521 1517 1514 1510 1509 1507 1504 1504 1502 1499 1499 1497 1495 1493 1493 1493 1493 1493 1494 1494 1495 1495 1497 1499 1500 1502 1507 1517 1532 1534 1551 1560 0 0 0 0 0 0 0 2568 2588 2662 2755 2874 2874 2874 2859 2833 2831 2829 2820 2802 2759 2661 2528 0 0 2279 2252 2228 2213 2205 2200 2190 2180 2175 2170 2161 2151 2142 2133 2127 2123 2121 2120 2117 2113 2108 2102 2096 2092 2089 2087 2085 2081 2077 2073 2070 2066 2063 2061 2059 2056 2054 2050 2048 2044 2041 2038 2036 2033 2030 2028 2026 2024 2021 2018 2015 2013 2010 2008 2006 2004 2001 1998 1995 1993 1990 1987 1983 1980 1977 1975 1973 1970 1968 1966 1966 1963 1958 1952 1949 1945 1944 1944 1940 1937 1935 1932 1931 1931 1929 1927 1926 1926 1926 1925 1925 1923 1922 1920 1918 1918 1916 1912 1911 1911 1909 1908 1906 1903 1902 1901 1900 1900 1900 1898 1897 1895 1895 1893 1892 1891 1888 1887 1887 1885 1884 1882 1880 1878 1876 1875 1873 1871 1870 1868 1867 1865 1863 1861 1859 1858 1857 1857 1857 1857 1857 1857 1858 1858 1858 1860 1860 1862 1862 1863 1864 1866 1866 1869 1871 1873 1878 1881 1883 1884 1884 1885 1885 1887 1891 1895 1897 1898 1898 1898 1898 1899 1899 1899 1899 1900 1901 1901 1903 1906 1908 1908 1909 1909 1909 1911 1913 1915 1915 1917 1917 1918 1919 1920 1921 1922 1923 1924 1926 1926 1928 1930 1930 1930 1930 1931 1932 1933 1934 1935 1935 1935 1936 1937 1938 1938 1940 1940 1941 1941 1942 1943 1944 1945 1946 1947 1948 1948 1949 1952 1956 1961 1964 1968 1969 1969 1970 1976 1979 1987 1987 1990 1991 2013 2043 2053 2053 2053 0 0 0 0 0 0 0 0 0 0 0 0 0 0 0 0 0 0 0 0 0 0 0 0 0 0 0 0 0 0 0 0 0 0 0 0 0 0 0 0 0 0 0 0 0 0 0 0 0 0 0 0 0 0 0 0 0 0 0 0 0 0 0 0 0 0 0 0 0 0
1670 1670 1633 0 0 0 0 0 0 0 0 0 0 0 0 0 0 0 0 0 0 0 0 0 0 0 0 0 0 0 0 0 0 0 0 0 0 0 0 0 1993 1993 1993 1955 1954 1954 1954 1981 0 0 0 0 2254 2264 2273 2273 2273 2273 2273 2276 2276 2276 2274 2263 2261 2246 2218 0 0 0 0 0 0 0 0 0 0 2457 2467 2473 2478 2507 2536 2557 2567 2568 2568 2581 2598 2598 2600 2606 2609 2625 2625 2625 2620 2604 2594 2585 2570 2545 2501 0 0 0 0 0 1999 1999 2037 0 0 0 0 2602 2702 2772 2774 2774 2774 2762 2760 2742 2738 2738 2738 2751 2756 2759 2764 2766 2766 2764 2762 2741 2680 2651 2605 2555 2555 2555 2556 2577 2586 2642 2685 2720 2755 2788 2791 2794 2812 2816 2816 2816 2808 2803 2797 2797 2797 2798 2807 2820 2820 2820 2811 2788 2750 2741 2740 2740 2741 2759 2759 2759 2748 2722 2679 2662 2650 2640 2635 2627 2626 2626 2627 2650 2650 2650 2620 2605 2582 2577 2568 2565 2536 0 0 0 0 0 0 0 0 0 0 0 0 0 1677 1672 1655 1640 1626 1620 1617 1610 1609 1608 1608 1604 1601 1601 1599 1596 1595 1594 1593 1591 1589 1588 1585 1582 1579 1577 1575 1573 1571 1570 1568 1565 1563 1560 1558 1556 1554 1552 1550 1548 1546 1544 1542 1540 1538 1536 1534 1532 1530 1528 1526 1525 1523 1520 1517 1514 1511 1509 1507 1505 1504 1502 1500 1499 1497 1495 1493 1493 1493 1493 1494 1494 1495 1495 1496 1497 1499 1500 1502 1507 1524 1548 1556 1561 0 0 0 0 0 0 2582 2681 2685 2707 2714 2755 2875 2884 2884 2884 2847 2840 2835 2831 2802 2760 2663 2528 0 0 2282 2252 2228 2213 2205 2200 2190 2180 2173 2170 2160 2149 2141 2133 2125 2119 2117 2116 2113 2109 2105 2101 2096 2092 2089 2086 2083 2080 2076 2072 2068 2066 2063 2060 2058 2055 2053 2050 2047 2044 2041 2038 2036 2034 2031 2029 2027 2024 2021 2018 2016 2013 2010 2009 2006 2004 2001 1998 1996 1994 1991 1987 1984 1981 1977 1975 1973 1971 1969 1968 1967 1963 1960 1956 1953 1950 1949 1949 1946 1942 1939 1938 1936 1935 1932 1928 1927 1926 1926 1925 1925 1923 1922 1919 1918 1915 1913 1912 1910 1910 1908 1907 1905 1902 1899 1899 1898 1898 1897 1896 1894 1893 1892 1891 1890 1889 1887 1886 1885 1884 1884 1882 1880 1877 1876 1875 1873 1871 1870 1868 1867 1865 1863 1861 1859 1858 1857 1857 1857 1857 1857 1857 1857 1857 1858 1858 1860 1860 1861 1862 1862 1864 1865 1865 1867 1870 1872 1876 1878 1879 1880 1882 1882 1884 1886 1891 1891 1892 1892 1893 1893 1894 1894 1894 1895 1895 1896 1898 1900 1902 1904 1906 1906 1907 1907 1909 1909 1911 1912 1913 1915 1915 1918 1918 1920 1920 1922 1922 1924 1924 1925 1927 1928 1928 1929 1930 1931 1932 1932 1932 1934 1935 1936 1937 1938 1938 1939 1940 1941 1941 1942 1943 1944 1945 1946 1947 1948 1949 1949 1952 1957 1964 1964 1969 1969 1970 1970 1979 1985 1986 1986 1989 1989 2031 2058 2058 2058 0 0 0 0 0 0 0 0 0 0 0 0 0 0 0 0 0 0 0 0 0 0 0 0 0 0 0 0 0 0 0 0 0 0 0 0 0 0 0 0 0 0 0 0 0 0 0 0 0 0 0 0 0 0 0 0 0 0 0 0 0 0 0 0 0 0 0 0 0 0 0
1673 1673 1637 1620 1587 0 0 0 0 0 0 0 0 0 0 0 0 0 0 0 0 0 0 0 0 0 0 0 0 0 0 0 0 0 0 0 0 0 0 0 0 0 0 0 0 0 0 0 0 0 0 0 2254 2264 2268 2268 2268 2268 2268 2276 2276 2276 2272 2263 2247 2240 2211 0 0 0 0 0 0 0 0 0 0 2452 2458 2466 2470 2507 2534 2551 2565 2568 2568 2581 2598 2608 2609 2609 2610 2625 2625 2625 2602 2598 2598 2594 2594 2579 2543 0 0 0 0 0 0 0 0 0 0 0 0 2563 2689 2760 2774 2774 2774 2773 2760 2742 2742 2742 2742 2753 2773 2773 2773 2775 2776 2776 2776 2776 2768 2753 2720 2641 2581 2577 2577 2577 2583 2586 2599 2636 2661 2705 2769 2786 2801 2808 2808 2808 2807 2801 2794 2794 2794 2791 2791 2796 2799 2791 2790 2778 2749 2727 2712 2712 2712 2705 2705 2705 2698 2682 2650 2642 2632 2615 2615 2615 2612 2615 2619 2621 2621 2621 2620 2605 2597 2594 2583 2578 2576 2565 2539 2517 2511 0 0 0 0 0 0 0 0 0 0 1692 1689 1679 1651 1635 1623 1615 1615 1614 1610 1604 1601 1601 1597 1596 1596 1595 1594 1591 1589 1588 1585 1582 1579 1576 1575 1573 1572 1570 1568 1566 1563 1561 1558 1556 1554 1552 1550 1548 1546 1544 1542 1540 1538 1536 1534 1532 1530 1528 1526 1525 1523 1520 1517 1514 1512 1509 1507 1506 1504 1502 1500 1499 1498 1497 1496 1495 1494 1494 1494 1494 1494 1494 1495 1496 1500 1500 1504 1514 1558 1569 1574 0 0 0 0 0 0 2525 2672 2729 2748 2764 2775 2813 2875 2884 2884 2884 2865 2844 2841 2836 2802 2760 2663 2514 0 2329 2280 2262 2242 2222 2208 2200 2189 2178 2168 2166 2158 2146 2139 2132 2124 2118 2115 2112 2109 2105 2102 2099 2095 2091 2088 2085 2082 2079 2074 2071 2067 2065 2062 2060 2057 2054 2052 2048 2045 2043 2040 2038 2036 2034 2031 2029 2027 2024 2021 2019 2016 2014 2011 2009 2007 2005 2002 2000 1997 1994 1991 1988 1985 1982 1980 1976 1974 1972 1971 1969 1968 1965 1962 1959 1956 1954 1951 1950 1950 1948 1944 1942 1940 1938 1935 1932 1931 1929 1929 1927 1925 1923 1922 1919 1918 1915 1912 1910 1909 1908 1906 1904 1902 1901 1899 1898 1898 1897 1896 1896 1894 1892 1891 1890 1889 1886 1885 1884 1884 1882 1882 1881 1879 1877 1876 1875 1873 1871 1870 1869 1867 1865 1864 1861 1859 1858 1857 1857 1857 1857 1857 1857 1857 1857 1858 1858 1858 1859 1860 1860 1862 1862 1864 1864 1865 1867 1869 1870 1872 1874 1875 1877 1880 1882 1884 1886 1889 1889 1889 1889 1889 1889 1890 1891 1892 1893 1894 1895 1896 1898 1899 1902 1903 1903 1903 1904 1904 1907 1908 1909 1911 1912 1914 1915 1917 1918 1920 1921 1922 1924 1925 1925 1926 1927 1927 1928 1929 1930 1931 1931 1933 1934 1936 1936 1937 1938 1939 1940 1941 1941 1943 1943 1943 1945 1946 1948 1949 1949 1951 1953 1959 1964 1964 1969 1969 1970 1973 1980 1980 1980 1980 1980 1986 2051 2072 2072 0 0 0 0 0 0 0 0 0 0 0 0 0 0 0 0 0 0 0 0 0 0 0 0 0 0 0 0 0 0 0 0 0 0 0 0 0 0 0 0 0 0 0 0 0 0 0 0 0 0 0 0 0 0 0 0 0 0 0 0 0 0 0 0 0 0 0 0 0 0 0 0
1722 1722 1679 1642 1592 1589 0 0 0 0 0 0 0 0 0 0 0 0 0 0 0 0 0 0 0 0 0 0 0 0 0 0 0 0 0 0 0 0 0 0 0 0 0 0 0 0 0 0 0 0 0 0 2254 2261 2261 2261 2263 2263 2263 2275 2275 2275 2258 2244 2243 2197 2170 0 0 0 0 0 0 0 0 0 0 0 2456 2461 2464 2504 2522 2539 2552 2564 2567 2580 2598 2598 2600 2605 2605 2611 2611 2611 2594 2594 2594 2594 2594 2579 2560 2523 0 0 0 0 0 0 0 0 0 0 0 0 2637 2702 2758 2773 2773 2773 2757 2747 2747 2747 2768 2774 2776 2776 2774 2776 2777 2782 2782 2782 2774 2764 2755 2717 2663 2646 2591 2586 2583 2577 2577 2577 2577 2610 2675 2760 2801 2804 2807 2807 2807 2801 2791 2791 2791 2789 2788 2792 2790 2787 2787 2774 2741 2712 2704 2702 2695 2670 2650 2650 2650 2640 2635 2626 2619 2611 2611 2610 2611 2611 2613 2617 2617 2617 2617 2604 2597 2596 2594 2594 2588 2577 2564 2553 2543 2542 2541 2521 0 0 0 0 0 0 0 0 0 0 1690 1668 1644 1635 1623 1618 1617 1612 1602 1602 1599 1596 1596 1596 1594 1591 1589 1588 1585 1582 1579 1576 1575 1574 1572 1570 1569 1567 1565 1561 1558 1556 1554 1552 1550 1548 1546 1544 1542 1540 1538 1537 1534 1533 1531 1528 1527 1525 1523 1520 1517 1514 1512 1509 1508 1507 1505 1504 1502 1501 1499 1498 1496 1495 1494 1494 1494 1494 1494 1494 1495 1496 1499 1503 1509 1535 1582 0 0 0 0 0 0 2649 2758 2819 2819 2819 2803 2803 2803 2840 2876 2884 2884 2884 2866 2851 2849 2836 2799 2759 2663 2508 2374 2314 2281 2263 2249 2231 2218 2205 2189 2175 2166 2159 2151 2142 2134 2129 2124 2118 2113 2109 2106 2104 2100 2097 2095 2090 2087 2083 2081 2078 2073 2069 2066 2064 2062 2060 2057 2054 2050 2048 2044 2042 2040 2037 2036 2034 2031 2029 2027 2024 2021 2019 2016 2014 2012 2009 2007 2005 2003 2001 1998 1995 1992 1988 1986 1983 1981 1978 1976 1974 1972 1970 1968 1966 1964 1961 1958 1957 1955 1952 1952 1950 1948 1946 1943 1940 1939 1939 1939 1939 1935 1933 1929 1924 1922 1920 1918 1915 1912 1910 1909 1907 1904 1904 1902 1901 1899 1898 1898 1897 1896 1895 1894 1892 1891 1890 1889 1886 1885 1884 1883 1882 1881 1880 1878 1877 1876 1875 1873 1872 1871 1870 1869 1867 1864 1861 1860 1859 1858 1858 1857 1857 1857 1857 1857 1857 1858 1858 1858 1859 1860 1860 1862 1862 1862 1862 1863 1864 1865 1867 1867 1870 1871 1873 1875 1878 1880 1882 1884 1886 1886 1886 1886 1886 1887 1888 1891 1891 1892 1893 1894 1896 1897 1899 1900 1900 1901 1902 1903 1904 1906 1909 1910 1910 1913 1914 1916 1916 1918 1920 1922 1922 1923 1924 1925 1925 1926 1927 1928 1929 1930 1931 1932 1934 1935 1935 1936 1938 1939 1940 1941 1942 1943 1943 1944 1945 1947 1950 1950 1951 1952 1954 1960 1963 1964 1965 1968 1970 1977 1978 1978 1978 1978 1978 1997 2054 0 0 0 0 0 0 0 0 0 0 0 0 0 0 0 0 0 0 0 0 0 0 0 0 0 0 0 0 0 0 0 0 0 0 0 0 0 0 0 0 0 0 0 0 0 0 0 0 0 0 0 0 0 0 0 0 0 0 0 0 0 0 0 0 0 0 0 0 0 0 0 0 0 0
1742 1742 1707 1660 1650 1635 0 0 0 0 0 0 0 0 0 0 0 0 0 0 0 0 0 0 0 0 0 0 0 0 0 0 0 0 0 0 0 0 0 0 0 0 0 0 0 0 0 0 0 0 0 0 0 2242 2242 2242 2242 2242 2246 2275 2275 2275 2244 2217 2194 2177 0 0 0 0 0 0 0 0 0 0 0 0 0 0 0 0 0 0 2524 2542 2544 2568 2588 2588 2594 2602 2599 2599 2599 2576 2576 2576 2591 2591 2591 2579 2560 2523 0 0 0 0 0 0 0 0 0 0 0 0 0 2581 2691 2741 2756 2756 2756 2756 2756 2762 2780 2781 2781 2781 2777 2777 2777 2789 2789 2789 2777 2772 2761 2734 2705 2687 2684 2637 2613 2583 2577 2538 2538 2538 2595 2677 2740 2787 2788 2798 2798 2798 2791 2784 2784 2784 2784 2784 2784 2783 2782 2769 2724 2697 2674 2667 2644 2623 2609 2609 2609 2611 2611 2611 2604 2600 2600 2600 2604 2605 2606 2607 2614 2614 2614 2604 2597 2596 2596 2596 2596 2594 2584 2570 2559 2557 2553 2547 2536 2527 0 0 0 0 0 0 0 0 0 0 0 0 1649 1625 1621 1619 1616 1608 1599 1598 1596 1596 1594 1591 1589 1586 1585 1582 1579 1576 1575 1574 1572 1571 1570 1568 1565 1562 1559 1556 1554 1552 1551 1548 1546 1544 1542 1540 1538 1537 1535 1534 1531 1530 1527 1525 1523 1520 1517 1514 1512 1510 1509 1508 1507 1504 1503 1501 1499 1499 1498 1496 1494 1494 1494 1494 1494 1494 1494 1494 1495 1504 1514 1536 0 0 0 0 0 0 2552 2697 2850 2851 2851 2851 2826 2826 2826 2841 2875 2875 2875 2868 2868 2866 2850 2831 2766 2737 2635 2449 2358 2313 2281 2265 2249 2231 2218 2205 2190 2175 2165 2157 2151 2141 2132 2127 2124 2118 2113 2108 2105 2103 2100 2096 2093 2088 2085 2082 2079 2077 2073 2069 2066 2064 2061 2059 2056 2053 2050 2047 2044 2042 2040 2037 2034 2032 2030 2028 2026 2024 2021 2019 2016 2014 2012 2009 2007 2006 2003 2001 1999 1995 1992 1990 1987 1984 1982 1980 1978 1975 1973 1971 1969 1967 1966 1963 1960 1959 1957 1956 1954 1952 1948 1946 1945 1943 1941 1941 1940 1939 1938 1937 1934 1929 1925 1923 1919 1915 1913 1912 1910 1907 1904 1904 1902 1901 1899 1899 1898 1897 1896 1895 1895 1892 1891 1890 1889 1886 1885 1884 1883 1882 1881 1880 1878 1877 1877 1875 1874 1873 1872 1870 1869 1867 1866 1863 1862 1860 1859 1858 1858 1858 1858 1858 1858 1858 1858 1858 1858 1859 1860 1860 1862 1862 1862 1862 1863 1864 1865 1866 1867 1869 1870 1872 1873 1874 1876 1878 1880 1881 1882 1883 1884 1884 1886 1886 1887 1887 1890 1891 1892 1894 1895 1897 1898 1899 1900 1900 1902 1903 1904 1906 1908 1909 1911 1912 1914 1914 1916 1918 1919 1920 1922 1923 1924 1925 1925 1927 1928 1929 1929 1931 1931 1933 1934 1935 1936 1938 1939 1939 1941 1943 1943 1943 1944 1945 1948 1951 1951 1951 1952 1954 1961 1963 1964 1965 1968 1973 1989 1989 1989 1975 1975 1975 1980 1980 0 0 0 0 0 0 0 0 0 0 0 0 0 0 0 0 0 0 0 0 0 0 0 0 0 0 0 0 0 0 0 0 0 0 0 0 0 0 0 0 0 0 0 0 0 0 0 0 0 0 0 0 0 0 0 0 0 0 0 0 0 0 0 0 0 0 0 0 0 0 0 0 0 0
1753 1753 1720 1685 1667 1654 1651 0 0 0 0 0 0 0 0 0 0 0 0 0 0 0 0 0 0 0 0 0 0 0 0 0 0 0 0 0 0 0 0 0 0 0 0 0 0 0 0 0 0 0 0 0 0 0 0 0 0 0 0 0 0 2205 2205 2181 0 0 0 0 0 0 0 0 0 0 0 0 0 0 0 0 0 0 0 0 0 0 0 0 2541 2570 2577 2579 2579 2579 2578 2569 2569 2569 2581 2581 2581 2572 2560 2523 0 0 0 0 0 0 0 0 0 0 0 0 0 0 2564 2641 2710 2738 2741 2742 2746 2762 2780 2781 2781 2781 2780 2780 2780 2789 2789 2789 2784 2776 2763 2759 2759 2749 2746 2723 2705 2637 2577 2538 2526 2526 2526 2555 2594 2719 2751 2753 2761 2764 2778 2778 2784 2784 2784 2784 2772 2767 2761 2761 2724 2697 2674 2667 2644 2623 2609 2609 2609 2608 2608 2608 2602 2597 2595 2595 2594 2594 2595 2598 2603 2604 2604 2604 2597 2596 2596 2596 2596 2594 2584 2570 2565 2557 2557 2555 2554 2553 2537 2537 0 0 0 0 0 0 0 0 0 0 0 0 1667 1643 1628 1618 1607 1600 1596 1596 1594 1588 1588 1585 1584 1582 1581 1578 1575 1574 1572 1571 1570 1568 1565 1562 1559 1557 1554 1553 1551 1548 1547 1544 1542 1540 1539 1537 1535 1534 1532 1530 1528 1525 1523 1520 1517 1515 1513 1511 1509 1509 1507 1505 1503 1502 1500 1499 1498 1497 1495 1495 1495 1495 1495 1494 1493 1493 1493 1506 1518 0 0 0 0 0 0 0 2570 2760 2856 2856 2856 2851 2845 2845 2845 2851 2869 2869 2869 2869 2873 2866 2866 2816 2736 2674 2496 2412 2338 2303 2280 2265 2249 2231 2218 2205 2189 2173 2163 2156 2148 2141 2132 2125 2123 2118 2113 2108 2105 2102 2098 2095 2090 2087 2084 2081 2077 2074 2071 2068 2066 2062 2059 2057 2054 2051 2048 2046 2043 2040 2038 2036 2034 2031 2029 2027 2025 2023 2021 2018 2017 2014 2012 2009 2007 2006 2003 2001 1999 1995 1992 1990 1988 1986 1983 1981 1979 1977 1974 1972 1970 1968 1966 1965 1963 1960 1959 1956 1954 1953 1950 1947 1946 1946 1945 1942 1942 1940 1940 1940 1938 1934 1932 1929 1926 1923 1919 1915 1911 1907 1906 1905 1905 1905 1902 1900 1900 1899 1897 1896 1895 1894 1893 1891 1889 1887 1885 1884 1883 1882 1881 1880 1878 1877 1877 1876 1875 1874 1873 1872 1871 1869 1867 1865 1862 1861 1860 1860 1859 1859 1859 1859 1859 1859 1860 1860 1860 1860 1860 1861 1862 1862 1862 1862 1863 1864 1865 1866 1867 1869 1870 1872 1873 1874 1876 1877 1878 1880 1881 1882 1883 1884 1884 1885 1886 1887 1889 1891 1892 1893 1893 1896 1898 1898 1898 1900 1900 1900 1901 1903 1905 1908 1909 1909 1910 1911 1914 1915 1917 1919 1920 1922 1923 1924 1925 1926 1927 1928 1928 1930 1931 1931 1932 1935 1937 1938 1939 1940 1941 1943 1944 1945 1946 1946 1948 1952 1954 1956 1959 1960 1961 1963 1964 1965 1968 1974 1992 1992 1992 1975 1975 1975 1975 1975 0 0 0 0 0 0 0 0 0 0 0 0 0 0 0 0 0 0 0 0 0 0 0 0 0 0 0 0 0 0 0 0 0 0 0 0 0 0 0 0 0 0 0 0 0 0 0 0 0 0 0 0 0 0 0 0 0 0 0 0 0 0 0 0 0 0 0 0 0 0 0 0 0 0
1753 1753 1753 1735 1706 1675 1674 1651 0 0 0 0 0 0 0 0 0 0 0 0 0 0 0 0 0 0 0 0 0 0 0 0 0 0 0 0 0 0 0 0 0 0 0 0 0 0 0 0 0 0 0 0 0 0 0 0 0 0 0 0 0 0 0 0 0 0 0 0 0 0 0 0 0 0 0 0 0 0 0 0 0 0 0 0 0 0 0 0 0 0 0 0 0 2520 2524 2527 2528 2548 2549 2549 2548 2537 2519 0 0 0 2391 2360 2352 0 0 0 0 0 0 0 0 0 0 0 2576 2651 2673 2715 2742 2762 2780 2781 2781 2781 2775 2775 2775 2789 2789 2789 2777 2772 2761 2759 2759 2759 2759 2759 2756 2718 2649 2577 2526 2526 2526 2536 2553 2564 2677 2680 2688 2702 2724 2763 2777 2777 2777 2765 2765 2761 2761 2761 2724 2697 2674 2667 2644 2623 2609 2605 2604 2603 2603 2600 2593 2592 2592 2592 2592 2592 2592 2592 2592 2593 2594 2594 2594 2591 2591 2591 2591 2591 2584 2570 2565 2564 2564 2562 2562 2556 2548 2548 2547 2541 2535 0 0 0 0 0 0 0 0 0 0 0 1669 1637 1612 1602 1600 1598 1595 1588 1588 1585 1585 1584 1583 1579 1575 1574 1572 1571 1570 1568 1566 1564 1560 1557 1555 1554 1551 1549 1547 1544 1542 1540 1539 1537 1536 1534 1533 1530 1528 1526 1524 1520 1518 1515 1514 1512 1511 1509 1507 1506 1504 1502 1501 1499 1499 1498 1496 1496 1496 1496 1496 1494 1493 1493 1493 1508 1522 0 0 0 0 0 0 2540 2605 2786 2856 2856 2856 2851 2845 2845 2845 2851 2857 2857 2866 2868 2869 2866 2866 2809 2728 2673 0 0 2329 2288 2278 2263 2249 2231 2215 2205 2188 2173 2163 2155 2148 2140 2132 2125 2122 2118 2113 2108 2105 2100 2096 2092 2088 2085 2082 2079 2076 2073 2070 2067 2065 2062 2058 2056 2053 2050 2047 2045 2042 2039 2036 2035 2033 2031 2029 2026 2024 2022 2021 2018 2016 2014 2012 2009 2007 2006 2003 2000 1999 1995 1992 1990 1988 1986 1984 1982 1980 1977 1975 1973 1971 1969 1968 1966 1964 1961 1960 1957 1955 1953 1951 1950 1948 1947 1946 1945 1944 1942 1942 1942 1941 1939 1935 1934 1931 1928 1926 1923 1920 1915 1912 1912 1911 1909 1907 1906 1904 1902 1899 1898 1896 1895 1895 1894 1891 1889 1887 1886 1885 1884 1883 1881 1880 1879 1879 1877 1876 1876 1874 1873 1871 1870 1867 1866 1864 1863 1863 1863 1862 1861 1861 1861 1861 1860 1860 1861 1860 1861 1861 1861 1862 1862 1863 1863 1863 1865 1865 1866 1868 1869 1870 1872 1873 1874 1876 1877 1878 1879 1880 1881 1883 1884 1884 1885 1885 1887 1889 1891 1892 1893 1893 1896 1898 1898 1898 1898 1898 1899 1901 1903 1903 1906 1906 1908 1909 1910 1912 1914 1917 1917 1919 1920 1922 1923 1924 1925 1927 1927 1928 1929 1930 1931 1932 1935 1937 1938 1939 1940 1942 1944 1945 1946 1946 1947 1949 1953 1957 1958 1961 1965 1965 1968 1968 1968 1974 1978 2001 2001 2001 1971 1954 1954 1954 1954 0 0 0 0 0 0 0 0 0 0 0 0 0 0 0 0 0 0 0 0 0 0 0 0 0 0 0 0 0 0 0 0 0 0 0 0 0 0 0 0 0 0 0 0 0 0 0 0 0 0 0 0 0 0 0 0 0 0 0 0 0 0 0 0 0 0 0 0 0 0 0 0 0 0
1736 1753 1753 1753 1736 1688 1674 1651 1643 0 0 0 0 0 0 0 0 0 0 0 0 0 0 0 0 0 0 0 0 0 0 0 0 0 0 0 0 0 0 0 0 0 0 0 0 0 0 0 0 0 0 0 0 0 0 0 0 0 0 0 0 0 0 0 0 0 0 0 0 0 0 0 0 0 0 0 0 0 0 0 0 0 0 0 0 0 0 0 0 0 0 0 0 0 0 0 2511 2511 2486 0 0 0 0 0 0 2414 2391 2380 2364 2326 0 0 0 0 0 0 0 0 0 0 0 0 2564 2625 2673 2719 2738 2755 2773 2773 2774 2774 2774 2777 2777 2777 2777 2772 2761 2759 2759 2759 2759 2759 2756 2741 2708 2669 2609 2536 2536 2536 2553 2564 2577 2579 2587 2603 2676 2677 2700 2729 2748 2752 2755 2756 2756 2756 2724 2697 2682 2677 2666 2636 2612 2602 2599 2592 2592 2591 2588 2588 2588 2589 2590 2590 2591 2591 2591 2592 2592 2592 2589 2589 2589 2587 2587 2587 2578 2570 2570 2570 2567 2567 2567 2565 2562 2562 2559 2559 2559 2559 2544 2520 0 0 0 0 0 0 0 0 0 0 0 0 0 1609 1598 1588 1588 1585 1585 1585 1585 1579 1574 1570 1570 1569 1569 1568 1566 1564 1560 1557 1555 1554 1551 1549 1547 1544 1542 1541 1539 1538 1536 1535 1533 1531 1529 1526 1524 1521 1518 1516 1514 1513 1511 1510 1508 1506 1504 1503 1502 1501 1500 1498 1497 1497 1497 1496 1496 1495 1493 1493 1493 1508 1526 0 0 0 0 0 0 2564 2653 2789 2856 2856 2856 2848 2845 2845 2845 2847 2851 2851 2851 2863 2865 2865 2865 2801 2728 2644 0 0 2316 2279 2268 2260 2237 2223 2212 2199 2187 2173 2163 2153 2148 2140 2133 2125 2121 2118 2113 2108 2103 2100 2095 2090 2085 2082 2079 2077 2075 2071 2068 2066 2063 2060 2057 2054 2051 2049 2046 2043 2040 2038 2036 2033 2031 2029 2026 2025 2023 2022 2020 2018 2016 2014 2011 2009 2007 2004 2002 2000 1998 1995 1993 1990 1988 1986 1985 1983 1980 1977 1975 1974 1971 1970 1968 1966 1965 1963 1961 1959 1956 1955 1953 1952 1951 1950 1949 1948 1945 1945 1944 1943 1942 1940 1936 1934 1933 1931 1930 1928 1925 1923 1922 1917 1912 1910 1910 1908 1906 1903 1903 1901 1899 1898 1897 1895 1893 1892 1891 1889 1887 1886 1885 1884 1883 1882 1880 1879 1878 1876 1874 1874 1872 1870 1870 1868 1867 1865 1864 1864 1863 1863 1862 1862 1862 1862 1862 1861 1861 1861 1861 1861 1862 1863 1864 1865 1865 1866 1867 1868 1869 1870 1870 1872 1873 1874 1876 1877 1878 1879 1880 1881 1883 1884 1884 1885 1885 1887 1889 1892 1892 1893 1893 1896 1898 1898 1898 1898 1898 1899 1901 1903 1903 1905 1906 1907 1908 1909 1911 1914 1917 1917 1919 1919 1921 1922 1923 1925 1927 1927 1928 1929 1930 1931 1932 1937 1938 1938 1940 1940 1942 1944 1946 1946 1949 1950 1951 1953 1959 1963 1973 1981 1981 1984 1987 1984 1994 1998 2016 2016 2016 1971 1926 1926 1926 0 0 0 0 0 0 0 0 0 0 0 0 0 0 0 0 0 0 0 0 0 0 0 0 0 0 0 0 0 0 0 0 0 0 0 0 0 0 0 0 0 0 0 0 0 0 0 0 0 0 0 0 0 0 0 0 0 0 0 0 0 0 0 0 0 0 0 0 0 0 0 0 0 0 0
1721 1722 1737 1737 1737 1695 1695 1674 1641 0 0 0 0 0 0 0 0 0 0 0 0 0 0 0 0 0 0 0 0 0 0 0 0 0 0 0 0 0 0 0 0 0 0 0 0 0 0 0 0 0 0 0 0 0 0 0 0 0 0 0 0 0 0 0 0 0 0 0 0 0 0 0 0 0 0 0 0 0 0 0 0 0 0 0 0 0 0 0 0 0 0 0 0 0 0 0 0 0 0 0 0 0 0 0 0 2358 2358 2358 2358 2336 0 0 0 0 0 0 0 0 0 0 0 0 0 0 0 2570 2614 2640 2665 2698 2732 2763 2765 2766 2766 2765 2761 2758 2751 2748 2748 2748 2756 2756 2756 2741 2722 2721 2701 2675 2603 2564 2564 2564 2577 2579 2584 2584 2600 2603 2637 2680 2704 2726 2740 2747 2755 2755 2755 2741 2712 2691 2677 2660 2635 2612 2599 2592 2588 2588 2585 2585 2585 2585 2586 2587 2587 2586 2586 2587 2584 2584 2583 2583 2583 2580 2578 2578 2572 2570 2570 2570 2570 2570 2567 2566 2566 2566 2569 2569 2569 2569 2567 2544 2530 2515 0 0 0 0 0 0 0 0 0 0 0 0 0 1634 1622 1601 1587 1587 1585 1582 1574 1569 1568 1568 1568 1568 1566 1564 1560 1557 1555 1554 1551 1549 1547 1544 1543 1542 1539 1538 1536 1535 1534 1531 1530 1526 1525 1522 1520 1517 1515 1514 1511 1510 1508 1506 1504 1504 1502 1501 1500 1499 1499 1499 1499 1499 1499 1496 1496 1496 1496 1511 1528 0 0 0 0 0 0 2566 2665 2789 2852 2852 2852 2844 2843 2837 2837 2836 2837 2837 2840 2844 2857 2857 2857 2801 2724 2641 0 0 2296 2275 2258 2243 2231 2218 2208 2198 2183 2173 2164 2153 2146 2140 2133 2127 2120 2116 2112 2108 2103 2099 2095 2089 2083 2080 2077 2075 2072 2069 2066 2064 2062 2058 2055 2053 2050 2047 2045 2042 2038 2036 2034 2031 2031 2028 2026 2025 2023 2022 2020 2018 2016 2014 2011 2009 2006 2004 2002 2000 1997 1995 1993 1990 1988 1986 1985 1983 1981 1978 1976 1975 1972 1970 1969 1968 1966 1964 1962 1960 1959 1957 1955 1954 1953 1952 1950 1949 1949 1947 1946 1944 1942 1940 1938 1935 1934 1933 1932 1931 1928 1927 1925 1920 1915 1912 1912 1912 1912 1912 1912 1909 1904 1901 1899 1899 1898 1897 1896 1892 1890 1890 1889 1887 1886 1884 1882 1881 1880 1877 1876 1876 1874 1874 1872 1871 1870 1868 1867 1866 1865 1865 1865 1864 1864 1864 1864 1864 1863 1862 1862 1862 1862 1863 1865 1866 1867 1869 1870 1870 1871 1871 1871 1872 1873 1874 1876 1877 1878 1879 1880 1881 1883 1884 1885 1886 1886 1887 1889 1892 1894 1894 1896 1898 1898 1898 1898 1898 1898 1899 1903 1903 1904 1904 1905 1905 1905 1909 1910 1914 1916 1917 1919 1919 1921 1922 1923 1925 1927 1927 1928 1929 1930 1933 1936 1939 1940 1941 1942 1942 1945 1947 1949 1950 1952 1955 1957 1962 1967 1976 1980 1995 2000 2001 2005 2010 2013 2023 2028 2028 2028 1971 1919 0 0 0 0 0 0 0 0 0 0 0 0 0 0 0 0 0 0 0 0 0 0 0 0 0 0 0 0 0 0 0 0 0 0 0 0 0 0 0 0 0 0 0 0 0 0 0 0 0 0 0 0 0 0 0 0 0 0 0 0 0 0 0 0 0 0 0 0 0 0 0 0 0 0 0 0 0
1718 1720 1720 1725 1725 1725 1695 1683 1642 1641 0 0 0 0 0 0 0 0 0 0 0 0 0 0 0 0 0 0 0 0 0 0 0 0 0 0 0 0 0 0 0 0 0 0 0 0 0 0 0 0 0 0 0 0 0 0 0 0 0 0 0 0 0 0 0 0 0 0 0 0 0 0 0 0 0 0 0 0 0 0 0 0 0 0 0 0 0 0 0 0 0 0 0 0 0 0 0 0 0 0 0 0 0 0 0 0 2358 2358 2358 0 0 0 0 0 0 0 0 0 0 0 0 0 0 0 0 0 2427 2481 2520 2558 2596 2621 2688 2697 2700 2719 2719 2719 2713 2713 2713 2714 2732 2741 2741 2741 2722 2721 2701 2675 2652 2646 2644 2644 2587 2587 2584 2584 2584 2600 2600 2615 2656 2660 2673 2706 2755 2755 2755 2741 2712 2695 2685 2673 2652 2618 2599 2592 2587 2585 2579 2578 2578 2575 2573 2571 2571 2571 2571 2571 2574 2574 2574 2574 2574 2574 2574 2574 2571 2570 2570 2570 2570 2570 2567 2566 2566 2566 2572 2575 2575 2575 2575 2558 2552 2546 2545 0 0 0 0 0 0 0 0 0 0 0 0 0 0 0 1620 1605 1586 1582 1574 1569 1568 1566 1566 1566 1565 1564 1560 1557 1555 1551 1550 1549 1548 1547 1544 1543 1540 1539 1537 1535 1534 1532 1530 1528 1525 1523 1521 1519 1516 1514 1513 1511 1508 1506 1505 1504 1503 1503 1501 1500 1500 1500 1500 1500 1500 1496 1496 1496 1498 1511 1529 0 0 0 0 0 0 2592 2669 2790 2845 2845 2845 2843 2838 2836 2836 2836 2836 2836 2839 2839 2840 2840 2834 2799 2710 2632 0 0 2292 2268 2255 2242 2231 2217 2208 2196 2183 2177 2166 2153 2146 2140 2133 2127 2119 2114 2112 2106 2102 2098 2094 2089 2082 2077 2075 2073 2070 2068 2065 2062 2059 2057 2053 2051 2048 2046 2043 2040 2037 2035 2033 2030 2029 2027 2025 2024 2022 2021 2019 2017 2015 2013 2010 2009 2006 2004 2001 1999 1997 1995 1992 1990 1988 1986 1985 1983 1981 1979 1977 1975 1972 1970 1969 1968 1966 1964 1962 1961 1959 1957 1957 1956 1955 1953 1952 1951 1950 1949 1948 1947 1945 1943 1941 1938 1937 1937 1936 1936 1934 1931 1927 1923 1919 1919 1919 1919 1919 1919 1918 1914 1909 1906 1905 1903 1902 1901 1900 1898 1895 1893 1893 1889 1887 1887 1887 1886 1884 1883 1881 1880 1879 1877 1875 1875 1874 1874 1871 1870 1869 1869 1868 1868 1868 1867 1867 1867 1867 1867 1868 1868 1868 1868 1868 1869 1870 1870 1871 1872 1872 1872 1873 1873 1874 1875 1877 1878 1879 1879 1880 1881 1883 1885 1886 1888 1891 1892 1892 1893 1896 1899 1901 1903 1903 1903 1902 1902 1902 1902 1905 1905 1905 1905 1905 1905 1905 1909 1910 1914 1915 1917 1919 1919 1921 1922 1923 1925 1928 1929 1929 1931 1932 1934 1938 1940 1941 1944 1947 1949 1952 1954 1955 1956 1958 1964 1966 1975 1978 1979 1983 2006 2011 2015 2022 2022 2030 2032 2032 2032 2032 0 0 0 0 0 0 0 0 0 0 0 0 0 0 0 0 0 0 0 0 0 0 0 0 0 0 0 0 0 0 0 0 0 0 0 0 0 0 0 0 0 0 0 0 0 0 0 0 0 0 0 0 0 0 0 0 0 0 0 0 0 0 0 0 0 0 0 0 0 0 0 0 0 0 0 0 0 0 0
1697 1713 1713 1754 1754 1754 1715 1698 1660 1641 0 0 0 0 0 0 0 0 0 0 0 0 0 0 0 0 0 0 0 0 0 0 0 0 0 0 0 0 0 0 0 0 0 0 0 0 0 0 0 0 0 0 0 0 0 0 0 0 0 0 0 0 0 0 0 0 0 0 0 0 0 0 0 0 0 0 0 0 0 0 0 0 0 0 0 0 0 0 0 0 0 0 0 0 0 0 0 0 0 0 0 0 0 0 0 0 0 0 0 0 0 0 0 0 0 0 0 0 0 0 0 0 0 0 0 0 0 0 0 0 0 2506 2521 2544 2568 2598 2636 2636 2645 2655 2659 2667 2669 2693 2707 2720 2720 2720 2701 2675 2652 2646 2646 2646 2646 2644 2606 2605 2600 2584 2584 2591 2591 2624 2626 2640 2655 2719 2719 2719 2712 2695 2685 2673 2652 2618 2599 2591 2584 2575 2574 2570 2570 2570 2570 2568 2567 2567 2567 2568 2567 2567 2567 2567 2567 2570 2570 2570 2570 2570 2570 2569 2569 2569 2567 2566 2566 2566 2572 2575 2575 2575 2569 2568 2566 2566 2559 2547 2530 2529 0 0 0 0 0 0 0 0 0 0 0 0 0 0 1635 1596 1577 1572 1568 1566 1566 1566 1565 1562 1559 1557 1554 1549 1549 1549 1548 1548 1546 1544 1542 1540 1539 1536 1535 1533 1531 1529 1526 1524 1522 1519 1517 1516 1514 1511 1509 1507 1505 1505 1504 1503 1502 1501 1501 1501 1501 1501 1501 1498 1498 1498 1508 1515 1529 0 0 0 0 0 0 2592 2721 2794 2833 2833 2833 2833 2828 2828 2826 2826 2828 2833 2837 2837 2837 2837 2827 2801 2722 2625 0 0 2292 2268 2255 2241 2228 2216 2204 2194 2183 2179 2170 2155 2146 2140 2132 2127 2119 2114 2112 2105 2100 2097 2091 2087 2081 2077 2073 2072 2069 2066 2064 2060 2057 2054 2051 2048 2047 2044 2040 2039 2036 2034 2032 2030 2028 2027 2025 2023 2021 2020 2019 2017 2015 2012 2010 2008 2006 2004 2001 1999 1996 1995 1992 1990 1988 1986 1985 1983 1981 1979 1977 1975 1972 1970 1969 1968 1966 1964 1963 1961 1959 1958 1957 1956 1955 1955 1953 1951 1951 1951 1950 1949 1948 1947 1944 1942 1939 1939 1938 1938 1936 1934 1931 1929 1928 1928 1926 1925 1923 1923 1920 1918 1914 1912 1910 1910 1909 1907 1905 1903 1901 1900 1897 1896 1896 1895 1894 1892 1890 1890 1886 1884 1882 1880 1879 1879 1878 1878 1875 1874 1873 1873 1872 1871 1870 1870 1870 1872 1872 1872 1872 1872 1873 1873 1873 1873 1873 1873 1874 1875 1877 1877 1877 1877 1877 1877 1880 1882 1883 1884 1884 1884 1885 1886 1886 1890 1894 1895 1896 1897 1898 1900 1903 1904 1905 1905 1905 1906 1906 1906 1907 1907 1907 1907 1905 1905 1905 1909 1910 1914 1916 1917 1920 1921 1922 1923 1924 1925 1928 1929 1929 1932 1934 1938 1940 1940 1943 1947 1956 1959 1960 1960 1961 1961 1965 1973 1981 1982 1983 1985 1991 2009 2021 2033 2033 2033 2037 2037 2037 2037 2037 0 0 0 0 0 0 0 0 0 0 0 0 0 0 0 0 0 0 0 0 0 0 0 0 0 0 0 0 0 0 0 0 0 0 0 0 0 0 0 0 0 0 0 0 0 0 0 0 0 0 0 0 0 0 0 0 0 0 0 0 0 0 0 0 0 0 0 0 0 0 0 0 0 0 0 0 0 0 0
