2143 0 0 0 2224 2226 2237 2242 2242 2244 2254 2272 2296 2309 2312 2312 2312 2296 2296 2296 2302 2302 0 0 0 0 0 0 0 0 0 0 0 0 0 0 0 0 0 0 0 0 0 0 0 0 0 0 0 0 0 0 0 0 0 0 0 0 0 0 0 2118 2123 2123 0 0 0 0 0 0 0 0 0 0 0 0 0 0 0 0 0 0 0 0 0 2428 2428 2428 2429 2428 2421 2421 2414 2378 2362 2362 2361 2361 0 0 0 0 0 0 0 0 0 0 0 0 0 0 0 0 0 0 0 0 0 2594 2654 2691 2773 2807 2904 2914 2976 3047 3069 3069 3069 2981 2799 2797 0 0 0 0 0 2580 2620 2876 3046 3173 3175 3186 3197 3255 3293 3345 3353 3364 3370 3377 3380 3383 3387 3390 3390 3390 3354 3336 3336 3336 3398 3420 3422 3427 3427 3427 3412 3362 3236 3043 2864 2771 2688 2678 2672 2660 2581 2581 2581 2586 2798 2969 3031 3047 3047 3047 3012 2846 2704 2607 2517 0 0 0 0 0 0 0 0 0 0 0 0 0 0 0 0 0 1656 1656 1674 1723 1733 1737 1739 1737 1736 1736 1709 1709 1709 0 1736 1755 1782 1791 1793 1795 1799 1802 1799 1799 1799 1797 1794 1792 1765 1730 1730 1730 1731 1781 1825 1870 1904 1915 1915 1915 1914 1889 1863 1844 1829 1815 1797 1772 1772 1772 1782 0 0 0 0 2112 2143 2158 2158 2158 2150 2146 0 0 0 1861 1836 1820 1796 1781 1768 1751 1733 1717 1694 1678 1658 1643 1640 1632 1619 1603 1587 1575 1569 1564 1562 1561 1560 1559 1559 1559 1561 1562 1564 1567 1571 1575 1581 1589 1593 1596 1597 1599 1599 1598 1598 1598 1598 1597 1596 1596 1595 1594 1593 1591 1590 1588 1586 1584 1582 1581 1579 1577 1575 1573 1570 1567 1565 1562 1557 1553 1547 1542 1536 1532 1528 1522 1514 1507 1503 1499 1494 1490 1486 1482 1479 1477 1474 1473 1472 1470 1468 1467 1466 1465 1463 1463 1462 1462 1461 1460 1460 1459 1457 1457 1456 1455 1454 1453 1452 1451 1449 1448 1446 1444 1443 1441 1438 1437 1434 1431 1427 1424 1421 1418 1414 1409 1404 1400 1398 1395 1392 1388 1385 1383 1381 1379 1377 1376 1374 1373 1371 1370 1370 1369 1368 1367 1367 1366 1364 1363 1362 1361 1359 1357 1356 1354 1353 1351 1350 1349 1348 1346 1345 1345 1344 1344 1343 1343 1343 1343 1343 1343 1344 1344 1344 1344 1345 1345 1345 1346 1346 1346 1346 1346 1345 1344 1344 1343 1342 1342 1341 1339 1338 1337 1335 1334 1332 1332 1330 1329 1327 1325 1325 1323 1322 1322 1321 1321 1321 1321 1321 1322 1323 1324 1325 1328 1329 1333 1336 1341 1345 1350 1356 1360 1363 1369 1375 1379 1382 1384 1386 1388 1389 1389 1389 1389 1390 1391 1391 1391 1392 1392 1392 1392 1392 1392 1392 1392 1392 1392 1392 1392 1390 1389 1388 1388 1387 1384 1383 1381 1379 1378 1375 1374 1371 1370 1367 1366 1364 1364 1363 1363 1363 1362 1362 1362 1363 1363 1365 1366 1370 1373 1376 1380 1384 1391 1403 1421 1423 1448 1466 1474 1490 1502 1506 1507 1508 1514 1514 1514 1514 1512 1509 1508 1507 1505 1505 1505 1505 1505 1506 1507 1507 1507 1508 1517 1534 1540 1540 1540 1531 1530 1514 1491 1491 1491 1491 1492 1494 1494 1494 1494 1502 1502 1502 1500 1494 1488 1484 1484 1484 1488 1488 1488 1487 1485 1483 1480 1478 1477 1477 1476 1473 1473 1473 1472 1472 1471 1471 1469 1469 1469 1469 1469 1472 0
0 0 0 0 0 2241 2243 2243 2244 2244 2254 2272 2297 2297 2297 2294 2271 2252 2252 2252 2270 0 0 0 0 0 0 0 0 0 0 0 0 0 0 0 0 0 0 0 0 0 0 0 0 0 0 0 0 0 0 0 0 0 0 0 0 0 0 0 0 2094 2094 2094 0 0 0 0 0 0 0 0 0 0 0 0 0 0 0 0 0 0 0 0 0 0 0 0 2421 2428 2421 2422 2423 2423 2422 2422 2388 2384 0 0 0 0 0 0 0 0 0 0 0 0 0 0 0 0 0 0 0 0 0 2616 2654 2691 2773 2785 2792 2846 2873 2873 2873 2925 2836 2835 2799 2797 0 0 0 0 0 2620 2895 3030 3124 3189 3255 3289 3309 3311 3314 3345 3353 3364 3370 3377 3380 3383 3387 3390 3390 3390 3355 3336 3336 3336 3398 3420 3425 3428 3428 3428 3404 3352 3236 3054 2930 2818 2744 2709 2690 2660 2578 2578 2578 2698 2934 3036 3043 3043 3043 2984 2850 2746 2666 2620 2585 2536 0 0 0 0 0 0 0 0 0 0 0 0 0 0 0 0 0 0 0 0 1752 1758 1760 1760 1758 1758 1757 1729 0 0 1736 1755 1782 1791 1793 1795 1799 1802 1799 1799 1799 1797 1794 1781 1739 1699 1699 1699 1728 1781 1825 1851 1872 1882 1895 1895 1895 1889 1863 1843 1819 1800 1797 1784 1784 1784 1801 0 0 0 0 2123 2143 2158 2158 2158 2150 0 0 0 1869 1848 1831 1812 1793 1779 1768 1751 1733 1717 1699 1679 1659 1638 1638 1630 1619 1601 1586 1574 1569 1564 1560 1558 1558 1557 1556 1556 1556 1558 1559 1563 1567 1569 1573 1580 1587 1592 1594 1595 1595 1595 1595 1595 1595 1595 1595 1594 1593 1592 1591 1590 1588 1586 1584 1582 1581 1579 1578 1575 1573 1572 1569 1567 1565 1562 1558 1553 1548 1543 1538 1535 1531 1525 1519 1512 1506 1501 1496 1492 1487 1483 1480 1477 1474 1472 1471 1469 1468 1466 1465 1464 1462 1462 1461 1461 1460 1460 1458 1457 1457 1456 1455 1454 1453 1452 1451 1450 1449 1448 1446 1444 1443 1441 1439 1437 1435 1432 1429 1426 1423 1420 1416 1411 1406 1402 1399 1395 1392 1389 1387 1384 1381 1379 1377 1376 1374 1373 1371 1370 1370 1369 1368 1367 1366 1365 1364 1363 1361 1360 1358 1357 1355 1354 1352 1351 1350 1348 1347 1346 1345 1345 1344 1344 1344 1343 1343 1343 1343 1344 1344 1344 1345 1345 1345 1345 1346 1346 1346 1346 1346 1346 1346 1345 1344 1343 1343 1342 1341 1340 1339 1337 1336 1335 1334 1333 1330 1329 1328 1326 1325 1324 1322 1322 1321 1321 1321 1321 1321 1321 1322 1323 1324 1325 1328 1330 1333 1337 1340 1346 1353 1356 1359 1365 1372 1376 1379 1382 1383 1385 1387 1389 1389 1389 1390 1390 1391 1391 1392 1392 1392 1392 1392 1392 1392 1392 1392 1392 1392 1392 1392 1390 1390 1388 1388 1387 1384 1384 1382 1380 1378 1376 1373 1372 1370 1368 1366 1366 1365 1363 1363 1363 1363 1363 1363 1363 1364 1365 1367 1369 1373 1377 1381 1388 1397 1406 1409 1427 1449 1461 1480 1491 1499 1500 1502 1503 1506 1507 1507 1507 1505 1504 1503 1503 1503 1503 1503 1503 1506 1507 1507 1507 1508 1514 1535 1544 1544 1544 1543 1538 1514 1490 1485 1485 1485 1494 1497 1499 1507 1509 1513 1513 1513 1509 1501 1492 1488 1488 1488 1491 1491 1491 1489 1487 1485 1483 1481 1481 1480 1479 1476 1475 1475 1475 1475 1475 1472 1469 1469 1469 1472 1472 1472 0
0 0 0 0 0 2241 2245 2272 2273 2296 2297 2297 2296 2274 2262 2258 0 0 0 0 0 0 0 0 0 0 0 0 0 0 0 0 0 0 0 0 0 0 0 0 0 0 0 0 0 0 0 0 0 0 0 0 0 0 0 0 0 0 0 0 0 0 2078 2075 0 0 0 0 0 0 0 0 0 0 0 0 0 0 0 0 0 0 0 0 0 0 0 0 0 0 0 0 2423 2423 2422 2422 2388 0 0 0 0 0 0 0 0 0 0 0 0 0 0 0 0 0 0 0 0 0 0 2616 2653 2653 2653 2619 2606 2597 2597 2597 2738 2835 2835 2835 2799 2797 0 0 0 0 0 2655 2902 3047 3204 3267 3287 3305 3314 3318 3323 3345 3353 3364 3370 3377 3380 3383 3387 3390 3390 3390 3355 3310 3310 3310 3391 3420 3425 3428 3428 3428 3404 3356 3260 3155 3026 2915 2812 2763 2706 2660 2601 2601 2601 2846 3008 3060 3060 3060 3023 2954 2819 2680 2641 2620 2596 2565 2518 0 0 0 0 0 0 0 0 0 0 0 0 0 0 0 0 0 0 0 0 1795 1792 1792 1792 0 0 0 0 0 0 1755 1782 1791 1793 1795 1799 1802 1799 1799 1799 1797 1794 1781 1739 1699 1699 1699 1726 0 1821 1834 1836 1841 1847 1856 1856 1856 1838 1821 1813 1800 1797 1797 1797 1799 0 0 0 0 2102 2124 2143 2158 2158 2158 2148 0 0 0 1859 1846 1825 1802 1785 1770 1759 1745 1733 1718 1700 1680 1659 1638 1635 1628 1617 1599 1585 1574 1569 1563 1560 1557 1555 1553 1553 1553 1554 1555 1556 1560 1562 1566 1569 1572 1578 1583 1589 1591 1592 1592 1594 1594 1594 1593 1593 1593 1592 1590 1589 1588 1587 1585 1583 1581 1580 1578 1576 1574 1573 1571 1568 1566 1565 1562 1558 1554 1550 1545 1541 1536 1531 1527 1521 1515 1509 1503 1498 1494 1489 1484 1480 1477 1474 1472 1471 1469 1467 1465 1463 1462 1461 1461 1460 1460 1459 1458 1457 1457 1456 1455 1454 1453 1453 1451 1451 1450 1449 1448 1446 1444 1443 1441 1439 1438 1435 1432 1430 1428 1424 1422 1417 1411 1407 1403 1400 1397 1393 1390 1388 1386 1382 1379 1377 1376 1374 1373 1371 1370 1370 1369 1367 1366 1365 1365 1363 1362 1361 1359 1358 1357 1355 1353 1352 1351 1349 1348 1347 1346 1346 1345 1344 1344 1344 1343 1343 1343 1343 1344 1344 1345 1345 1345 1346 1346 1346 1346 1346 1346 1346 1346 1346 1346 1345 1344 1344 1343 1342 1341 1340 1338 1337 1336 1334 1333 1332 1330 1328 1327 1325 1324 1323 1323 1322 1321 1321 1321 1321 1321 1321 1322 1322 1325 1326 1328 1331 1333 1337 1341 1347 1352 1356 1361 1368 1374 1377 1380 1382 1384 1386 1387 1389 1389 1389 1390 1390 1391 1391 1392 1392 1392 1392 1393 1393 1393 1393 1393 1393 1392 1392 1391 1391 1389 1388 1388 1386 1385 1384 1382 1379 1377 1375 1374 1372 1371 1368 1367 1366 1364 1364 1363 1363 1363 1363 1363 1364 1365 1366 1367 1371 1376 1377 1380 1389 1397 1399 1411 1427 1439 1455 1472 1479 1487 1489 1493 1495 1496 1501 1501 1501 1497 1497 1497 1498 1499 1500 1501 1503 1504 1507 1507 1508 1514 1535 1552 1554 1554 1554 1543 0 0 0 0 0 0 1497 1499 1507 1509 1522 1522 1522 1511 1506 1498 1496 1495 1495 1495 1495 1495 1494 1492 1489 1488 1486 1484 1483 1482 1480 1478 1478 1477 1476 1476 1472 1470 1470 1470 1473 1473 1473 0
0 0 0 0 0 0 2245 2272 2273 2296 2296 2296 2291 2268 2243 0 0 0 0 0 0 0 0 0 0 0 0 0 0 0 0 0 0 0 0 0 0 0 0 0 0 0 0 0 0 0 0 0 0 0 0 0 0 0 0 0 0 0 0 0 0 0 0 0 0 0 0 0 0 0 0 0 0 0 0 0 0 0 0 0 0 0 0 0 0 0 0 0 0 0 0 0 0 0 0 0 0 0 0 0 0 0 0 0 0 0 0 0 0 0 0 0 0 0 0 0 0 0 0 0 2563 2506 2506 2506 2559 2569 2597 2597 2738 2835 2836 2836 2835 2806 2625 0 0 0 0 2655 2902 3047 3204 3267 3294 3311 3314 3327 3333 3333 3334 3334 3334 3339 3348 3360 3371 3374 3374 3374 3354 3291 3291 3291 3350 3410 3425 3425 3425 3418 3399 3362 3262 3176 3115 3012 2914 2793 2706 2640 2640 2640 2706 2912 3076 3076 3076 3069 3010 2922 2780 2645 2626 2620 2597 2568 2541 2519 0 0 0 0 0 0 0 0 0 0 0 0 0 0 0 0 0 0 0 0 0 0 0 0 0 0 0 0 0 0 0 0 0 0 0 1822 1822 1822 1818 1818 1818 1781 1739 1699 1699 1699 0 0 0 1809 1810 1817 1819 1837 1837 1837 1837 1821 1813 1805 1805 1805 1817 0 0 0 0 0 2102 2125 2145 2158 2158 2158 2145 0 0 0 1844 1831 1819 1798 1777 1762 1755 1744 1733 1718 1705 1681 1659 1638 1632 1626 1611 1599 1583 1573 1566 1561 1559 1556 1552 1552 1551 1551 1551 1551 1552 1555 1557 1560 1565 1569 1573 1578 1583 1586 1588 1588 1591 1592 1592 1592 1592 1591 1591 1589 1588 1587 1586 1583 1582 1580 1579 1578 1575 1574 1571 1569 1568 1565 1563 1561 1558 1554 1550 1546 1542 1538 1533 1528 1522 1516 1512 1505 1500 1496 1490 1485 1480 1477 1474 1472 1471 1468 1466 1464 1463 1461 1461 1459 1459 1458 1457 1456 1456 1455 1455 1454 1453 1452 1452 1451 1450 1449 1448 1447 1446 1444 1443 1441 1439 1438 1436 1434 1430 1428 1426 1423 1419 1414 1410 1405 1401 1397 1394 1391 1389 1386 1383 1380 1378 1376 1374 1373 1372 1370 1369 1368 1367 1366 1365 1365 1363 1362 1360 1359 1357 1356 1355 1353 1352 1351 1349 1348 1347 1346 1346 1345 1344 1344 1344 1343 1343 1344 1344 1344 1345 1345 1345 1346 1346 1347 1347 1347 1347 1347 1347 1347 1346 1346 1345 1345 1344 1343 1342 1341 1341 1340 1338 1336 1335 1334 1332 1331 1329 1327 1326 1325 1324 1323 1322 1321 1321 1321 1321 1321 1321 1321 1322 1323 1325 1326 1328 1331 1334 1338 1342 1346 1352 1357 1363 1368 1374 1377 1379 1382 1385 1387 1387 1388 1389 1390 1390 1390 1391 1392 1392 1393 1393 1393 1393 1393 1393 1393 1393 1393 1392 1392 1392 1391 1390 1389 1387 1386 1386 1383 1382 1379 1377 1376 1374 1372 1370 1369 1367 1366 1365 1364 1364 1364 1364 1364 1364 1365 1366 1367 1369 1373 1376 1377 1380 1387 1389 1398 1409 1422 1434 1447 1459 1465 1468 1475 1482 1489 1492 1496 1496 1496 1496 1496 1496 1498 1500 1501 1501 1502 1503 1505 1507 1514 1535 1552 1557 1557 1557 1543 0 0 0 0 0 0 0 1499 1507 1509 1522 1522 1522 1513 1506 1505 1505 1505 1505 1505 1502 1499 1497 1495 1493 1491 1488 1487 1486 1482 1480 1479 1479 1479 1479 1478 1475 1473 1473 1473 1478 1478 1481 0
0 0 0 0 0 0 0 0 2273 2296 2296 2296 2286 0 0 0 0 0 0 0 0 0 0 0 0 0 0 0 0 0 0 0 0 0 0 0 0 0 0 0 0 0 0 0 0 0 0 0 0 0 0 0 0 0 0 0 0 0 0 0 0 0 0 0 0 0 0 0 0 0 0 0 0 0 0 0 0 0 0 0 0 0 0 0 0 0 0 0 0 0 0 0 0 0 0 0 0 0 0 0 0 0 0 0 0 0 0 0 0 0 0 0 0 0 0 0 0 0 0 0 0 0 0 2458 2559 2569 2597 2597 2738 2897 3036 3036 3036 2937 2659 2621 0 0 0 2706 2902 3047 3204 3283 3310 3318 3324 3327 3333 3333 3334 3334 3334 3339 3348 3360 3370 3370 3370 3363 3343 3291 3291 3291 3317 3386 3400 3412 3412 3412 3398 3362 3283 3250 3191 3108 2960 2793 2706 2640 2640 2640 2725 2949 3088 3088 3088 3069 2998 2870 2717 2628 2616 2612 2597 2569 2545 2519 0 0 0 0 0 0 0 0 0 0 0 0 0 0 0 0 0 0 0 0 0 0 0 0 0 0 0 0 0 0 0 0 0 0 0 0 0 0 0 0 0 0 0 0 0 0 0 0 0 0 0 1792 1792 1819 1830 1830 1830 1837 1837 1838 0 0 0 0 0 0 0 2087 2110 2127 2145 2158 2158 2158 0 0 0 0 1837 1819 1805 1789 1775 1762 1753 1742 1733 1721 1706 1687 1662 1643 1632 1625 1611 1599 1582 1572 1566 1561 1557 1555 1552 1550 1549 1549 1549 1549 1549 1550 1553 1555 1559 1563 1568 1573 1576 1579 1580 1585 1587 1589 1589 1589 1589 1589 1589 1587 1587 1585 1584 1583 1580 1579 1578 1576 1574 1572 1570 1568 1566 1564 1562 1560 1557 1554 1550 1546 1542 1539 1535 1529 1524 1517 1512 1507 1502 1498 1493 1487 1481 1478 1476 1473 1471 1468 1466 1464 1462 1460 1459 1458 1458 1457 1456 1455 1454 1454 1453 1453 1452 1451 1451 1450 1449 1449 1448 1447 1446 1444 1443 1441 1440 1438 1436 1434 1431 1429 1427 1424 1420 1416 1412 1408 1404 1400 1396 1392 1389 1386 1383 1380 1378 1376 1375 1373 1372 1370 1369 1368 1367 1366 1365 1364 1363 1361 1360 1359 1357 1356 1354 1353 1351 1350 1349 1348 1347 1346 1346 1345 1344 1344 1344 1344 1344 1344 1344 1345 1345 1346 1346 1346 1346 1347 1347 1347 1347 1347 1347 1347 1347 1346 1346 1345 1345 1344 1343 1342 1341 1340 1339 1338 1336 1334 1333 1331 1330 1328 1327 1325 1325 1324 1322 1322 1321 1321 1321 1321 1321 1321 1321 1323 1323 1325 1326 1329 1332 1334 1339 1342 1346 1352 1358 1363 1369 1373 1376 1379 1382 1384 1387 1388 1388 1389 1390 1390 1391 1391 1392 1392 1393 1393 1393 1393 1393 1393 1393 1393 1392 1392 1392 1392 1391 1390 1389 1388 1387 1385 1383 1381 1380 1378 1375 1374 1372 1370 1369 1367 1366 1365 1364 1364 1364 1364 1365 1366 1366 1367 1368 1369 1372 1374 1375 1375 1381 1388 1397 1408 1421 1434 1443 1450 1455 1463 1469 1475 1479 1482 1485 1488 1491 1492 1494 1497 1499 1500 1501 1502 1502 1504 1505 1513 1534 1553 1559 1559 1559 1543 0 0 0 0 0 0 0 0 0 0 1522 1522 1522 1515 1509 1507 1507 1507 1507 1506 1506 1502 1500 1497 1494 1492 1490 1489 1486 1482 1480 1480 1480 1480 1480 1480 1479 1479 1479 1480 1486 1486 1487 0
0 0 0 0 0 0 0 0 0 0 0 0 0 0 0 0 0 0 0 0 0 0 0 0 0 0 0 0 0 0 0 0 0 0 0 0 0 0 0 0 0 0 0 0 0 0 0 0 0 0 0 0 0 0 0 0 0 0 0 0 0 0 0 0 0 0 0 0 0 0 0 0 0 0 0 0 0 0 0 0 0 0 0 0 0 0 0 0 0 0 0 0 0 0 0 0 0 0 0 0 0 0 0 0 0 0 0 0 0 0 0 0 0 0 0 0 0 0 0 0 0 0 0 2458 2670 2918 2930 2971 3012 3068 3100 3100 3100 2951 2711 2652 0 0 0 2706 2846 3028 3176 3283 3333 3333 3334 3335 3335 3333 3334 3334 3334 3339 3348 3360 3370 3370 3370 3363 3343 3291 3262 3262 3262 3359 3397 3401 3401 3401 3398 3363 3336 3290 3243 3108 2960 2797 2706 2670 2670 2670 2818 2987 3093 3093 3093 3069 2959 2837 2681 2621 2609 2602 2596 2581 2553 2519 0 0 0 0 0 0 0 0 0 0 0 0 0 0 0 0 0 0 0 0 0 0 0 0 0 0 0 0 0 0 0 0 0 0 0 0 0 0 0 0 0 0 0 0 0 0 0 0 0 0 0 0 0 1803 1824 1827 1837 1846 0 0 0 0 0 0 0 0 0 2117 2129 2135 2150 2167 2167 0 0 0 0 1848 1823 1809 1796 1785 1772 1761 1751 1742 1733 1726 1715 1693 1671 1647 1632 1625 1611 1596 1582 1572 1565 1560 1555 1554 1551 1550 1548 1547 1546 1546 1547 1548 1549 1550 1554 1557 1561 1567 1570 1572 1575 1580 1583 1586 1587 1587 1587 1587 1587 1587 1584 1584 1582 1581 1579 1577 1576 1574 1572 1571 1569 1567 1565 1563 1561 1558 1557 1554 1549 1546 1542 1539 1535 1530 1525 1519 1513 1509 1505 1501 1495 1490 1484 1479 1477 1474 1471 1468 1466 1464 1461 1459 1457 1457 1456 1455 1455 1454 1453 1452 1452 1451 1451 1450 1450 1449 1448 1448 1447 1446 1446 1444 1443 1441 1440 1438 1436 1434 1432 1430 1428 1425 1422 1418 1414 1410 1406 1404 1400 1395 1391 1387 1384 1381 1379 1377 1375 1374 1372 1370 1370 1368 1367 1366 1365 1364 1363 1361 1360 1359 1357 1355 1354 1353 1351 1350 1349 1348 1347 1346 1346 1345 1344 1344 1344 1344 1344 1344 1344 1345 1345 1346 1346 1347 1347 1347 1348 1348 1348 1348 1348 1347 1347 1347 1346 1346 1345 1344 1344 1343 1342 1340 1340 1338 1337 1335 1334 1332 1331 1329 1328 1327 1326 1324 1323 1322 1322 1321 1321 1320 1320 1320 1321 1321 1323 1324 1325 1327 1330 1333 1337 1340 1344 1347 1353 1359 1365 1369 1373 1377 1381 1383 1385 1386 1388 1389 1390 1390 1390 1391 1391 1392 1393 1393 1393 1393 1393 1393 1393 1393 1393 1393 1393 1392 1392 1390 1389 1388 1388 1386 1385 1383 1381 1379 1378 1375 1373 1371 1371 1369 1368 1367 1366 1365 1365 1365 1365 1366 1366 1367 1367 1368 1369 1371 1371 1373 1377 1382 1392 1402 1409 1419 1431 1439 1446 1451 1457 1460 1464 1467 1470 1475 1478 1482 1488 1492 1494 1494 1495 1500 1502 1504 1504 1513 1532 1553 1559 1559 1559 1543 0 0 0 0 0 0 0 0 0 0 0 0 1509 1509 1509 1507 1507 1507 1508 1506 1506 1506 1503 1498 1495 1495 1492 1492 1488 1482 1482 1481 1481 1481 1480 1480 1480 1480 1480 1483 1488 1488 1489 0
0 0 0 0 0 0 0 0 0 0 0 0 0 0 0 0 0 0 0 0 0 0 0 0 0 0 0 0 0 0 0 0 0 0 0 0 0 0 0 0 0 0 0 0 0 0 0 0 0 0 0 0 0 0 0 0 0 0 0 0 0 0 0 0 0 0 0 0 0 0 0 0 0 0 0 0 0 0 0 0 0 0 0 0 0 0 0 0 0 0 0 0 0 0 0 0 0 0 0 0 0 0 0 0 0 0 0 0 0 0 0 0 0 0 0 0 0 0 0 0 0 0 0 2569 2698 2918 2930 2971 3012 3068 3100 3100 3100 2957 2711 2652 0 0 0 2655 2846 2962 3136 3283 3338 3350 3350 3361 3361 3361 3366 3367 3369 3371 3377 3377 3377 3373 3370 3363 3343 3319 3262 3262 3262 3358 3397 3401 3401 3401 3398 3381 3356 3329 3251 3108 2971 2882 2869 2833 2869 2882 2926 3032 3110 3110 3110 3067 2893 2740 2665 2621 2604 2599 2596 2581 2553 0 0 0 0 0 0 0 0 0 0 0 0 0 0 0 0 0 0 0 0 0 0 0 0 0 0 0 0 0 0 0 0 0 0 0 0 0 0 0 0 0 0 0 0 0 0 0 0 0 0 0 0 0 0 0 1824 1858 1873 1886 0 0 0 0 0 0 0 0 2145 2152 2154 2159 2161 2161 2161 0 0 0 0 1828 1811 1801 1787 1777 1769 1761 1751 1741 1733 1726 1715 1695 1674 1655 1636 1625 1612 1598 1582 1571 1565 1559 1554 1552 1551 1549 1547 1545 1545 1544 1544 1544 1545 1546 1549 1553 1557 1561 1563 1566 1568 1572 1577 1582 1584 1585 1585 1585 1585 1584 1582 1581 1580 1579 1577 1575 1574 1573 1571 1569 1567 1566 1564 1562 1560 1558 1556 1552 1549 1546 1542 1539 1535 1530 1526 1521 1515 1511 1507 1503 1497 1492 1487 1482 1478 1474 1471 1468 1466 1464 1461 1458 1456 1455 1454 1454 1453 1452 1452 1451 1450 1450 1450 1449 1449 1448 1448 1447 1446 1446 1444 1444 1442 1441 1440 1438 1437 1434 1432 1431 1428 1426 1423 1419 1415 1411 1409 1405 1403 1398 1394 1390 1386 1383 1380 1378 1377 1375 1373 1372 1370 1369 1367 1366 1365 1364 1363 1361 1360 1359 1357 1355 1354 1352 1350 1349 1348 1348 1347 1346 1346 1344 1344 1344 1344 1344 1344 1344 1344 1345 1346 1347 1347 1347 1348 1348 1348 1348 1348 1348 1348 1348 1347 1347 1347 1346 1346 1345 1344 1343 1343 1342 1341 1339 1337 1336 1334 1333 1332 1330 1330 1327 1326 1325 1324 1323 1322 1321 1321 1320 1320 1320 1320 1320 1321 1322 1323 1325 1328 1331 1335 1338 1340 1342 1347 1354 1360 1366 1370 1374 1378 1381 1383 1385 1387 1388 1389 1390 1390 1391 1391 1391 1393 1393 1393 1393 1393 1394 1394 1394 1394 1393 1393 1393 1392 1391 1390 1390 1389 1388 1386 1385 1384 1381 1380 1378 1377 1375 1372 1371 1369 1367 1366 1366 1366 1366 1366 1366 1366 1367 1367 1368 1369 1369 1371 1371 1373 1377 1383 1394 1400 1404 1416 1428 1438 1442 1445 1451 1454 1459 1462 1464 1469 1473 1479 1484 1487 1491 1493 1499 1502 1502 1504 1513 1532 1554 1565 1565 1565 0 0 0 0 0 0 0 0 0 0 0 0 0 0 1507 1507 1507 1507 1507 1508 1506 1506 1508 1507 1506 1504 1504 1501 1494 1488 1483 1482 1482 1482 1482 1482 1482 1482 1482 1483 1486 1489 1489 1489 0
0 0 0 0 0 0 0 0 0 0 0 0 0 0 0 0 0 0 0 0 0 0 0 0 0 0 0 0 0 0 0 0 0 0 0 0 0 0 0 0 0 0 0 0 0 0 0 0 0 0 0 0 0 0 0 0 0 0 0 0 0 0 0 0 0 0 0 0 0 0 0 0 0 0 0 0 0 0 0 0 0 0 0 0 0 0 0 0 0 0 0 0 0 0 0 0 0 0 0 0 0 0 0 0 0 0 0 0 0 0 0 0 0 0 0 0 0 0 0 0 0 0 0 2569 2698 2918 2930 2971 3012 3068 3100 3100 3100 2957 2711 2623 2521 0 0 2629 2740 2771 3047 3260 3338 3388 3389 3391 3395 3401 3405 3405 3405 3404 3402 3392 3384 3384 3384 3384 3384 3365 3312 3312 3312 3352 3397 3401 3408 3411 3411 3411 3403 3352 3251 3111 3101 3101 3030 3030 3030 3030 3030 3079 3120 3120 3120 3067 2893 2740 2665 2621 2604 2594 2593 2581 2553 0 0 0 0 0 0 0 0 0 0 0 0 0 0 0 0 0 0 0 0 0 0 0 0 0 0 0 0 0 0 0 0 0 0 0 0 0 0 0 0 0 0 0 0 0 0 0 0 0 0 0 0 0 0 0 0 1866 1892 1913 0 0 0 0 0 2109 2132 2164 2181 2181 2181 2177 2173 2165 2164 0 0 0 1846 1819 1803 1793 1778 1770 1763 1754 1745 1738 1733 1726 1715 1695 1682 1659 1640 1626 1612 1600 1582 1571 1566 1560 1554 1552 1551 1549 1546 1544 1543 1541 1541 1541 1541 1543 1545 1548 1553 1554 1556 1559 1562 1565 1570 1577 1580 1581 1581 1582 1582 1582 1582 1580 1577 1577 1575 1574 1572 1571 1570 1568 1566 1564 1562 1561 1559 1557 1555 1552 1549 1546 1542 1538 1535 1530 1526 1521 1517 1513 1509 1506 1501 1495 1489 1485 1479 1475 1472 1469 1466 1464 1461 1458 1456 1455 1454 1453 1451 1451 1450 1449 1449 1449 1448 1448 1447 1447 1447 1446 1445 1445 1444 1443 1442 1441 1440 1438 1437 1435 1433 1431 1428 1426 1424 1421 1418 1414 1410 1407 1404 1400 1395 1392 1387 1384 1381 1379 1377 1375 1374 1372 1371 1369 1368 1366 1365 1364 1363 1361 1360 1358 1357 1355 1353 1352 1350 1349 1348 1347 1347 1345 1345 1345 1344 1344 1344 1344 1344 1344 1345 1346 1346 1347 1347 1347 1348 1348 1349 1349 1349 1348 1348 1348 1348 1348 1347 1347 1347 1345 1345 1344 1343 1342 1341 1340 1338 1337 1335 1334 1333 1331 1330 1329 1327 1326 1324 1323 1322 1321 1320 1320 1319 1319 1319 1320 1320 1321 1322 1324 1326 1328 1332 1335 1338 1341 1345 1350 1355 1360 1366 1370 1374 1379 1381 1383 1385 1387 1388 1388 1390 1390 1390 1390 1391 1392 1393 1393 1393 1394 1394 1394 1394 1394 1394 1393 1392 1392 1391 1391 1391 1390 1388 1386 1385 1383 1382 1380 1378 1376 1374 1373 1371 1369 1368 1367 1367 1367 1366 1366 1366 1367 1367 1367 1368 1368 1368 1369 1370 1372 1378 1385 1391 1397 1406 1415 1424 1430 1437 1440 1444 1449 1453 1457 1459 1464 1473 1479 1483 1490 1493 1497 1501 1501 1504 1508 1530 1554 1567 1567 1567 0 0 0 0 0 0 0 0 0 0 0 0 0 0 0 0 0 0 1498 1502 1506 1506 1506 1508 1508 1508 1508 1508 1499 1490 1490 1490 1495 1495 1495 1492 1489 1488 1488 1488 1489 1489 1489 1488 0
0 0 0 0 0 0 0 0 0 0 0 0 0 0 0 0 0 0 0 0 0 0 0 0 0 0 0 0 0 0 0 0 0 0 0 0 0 0 0 0 0 0 0 0 0 0 0 0 0 0 0 0 0 0 0 0 0 0 0 0 0 0 0 0 0 0 0 0 0 0 0 0 0 0 0 0 0 0 0 0 0 0 0 0 0 0 0 0 0 0 0 0 0 0 0 0 0 0 0 0 0 0 0 0 0 0 0 0 0 0 0 0 0 0 0 0 0 0 0 0 0 0 0 2569 2698 2778 2889 2941 2994 3034 3043 3043 3034 2937 2711 2623 2521 0 0 0 2533 2771 3045 3232 3338 3388 3389 3391 3395 3401 3414 3414 3414 3407 3407 3407 3408 3408 3413 3413 3413 3413 3361 3352 3352 3352 3401 3421 3428 3428 3428 3417 3404 3352 3254 3213 3213 3213 3213 3213 3160 3160 3160 3183 3186 3186 3186 3067 2893 2740 2665 2631 2604 2594 2580 2573 2537 0 0 0 0 0 0 2540 2540 2540 2517 0 0 0 0 0 0 0 0 0 0 0 0 0 0 0 0 0 0 0 0 0 0 0 0 0 0 0 0 0 0 0 0 0 0 0 0 0 0 0 0 0 0 0 0 0 0 0 1909 1941 0 0 0 2129 2141 2147 2161 2183 2193 2193 2193 2177 2173 2164 0 0 0 0 1828 1806 1794 1781 1772 1764 1757 1748 1739 1732 1730 1721 1711 1699 1684 1665 1647 1631 1616 1600 1582 1571 1566 1561 1554 1552 1550 1549 1546 1543 1541 1539 1539 1539 1539 1539 1541 1544 1547 1549 1551 1553 1556 1559 1561 1567 1572 1576 1578 1578 1578 1578 1578 1578 1576 1576 1574 1573 1571 1570 1568 1566 1565 1563 1561 1559 1558 1556 1553 1552 1549 1546 1542 1538 1535 1530 1526 1522 1519 1515 1511 1508 1503 1496 1491 1486 1482 1477 1474 1470 1467 1464 1461 1458 1456 1454 1453 1452 1451 1449 1449 1448 1448 1447 1447 1446 1446 1446 1446 1446 1444 1444 1443 1442 1441 1440 1439 1438 1437 1435 1433 1431 1429 1427 1425 1423 1419 1416 1413 1409 1405 1402 1398 1393 1390 1386 1383 1380 1378 1376 1375 1372 1371 1369 1368 1367 1365 1364 1363 1361 1360 1358 1357 1355 1353 1352 1350 1349 1348 1347 1346 1345 1345 1345 1344 1344 1344 1344 1344 1345 1345 1346 1346 1347 1347 1347 1348 1349 1349 1349 1349 1349 1348 1348 1348 1348 1348 1348 1347 1347 1345 1345 1344 1343 1342 1340 1339 1338 1336 1335 1333 1332 1330 1329 1328 1326 1326 1324 1322 1321 1320 1320 1319 1319 1319 1319 1319 1320 1320 1322 1324 1326 1328 1332 1336 1339 1343 1347 1351 1356 1361 1365 1370 1374 1378 1379 1381 1384 1385 1386 1388 1389 1390 1390 1391 1392 1392 1392 1393 1393 1394 1394 1394 1394 1394 1393 1393 1393 1392 1391 1391 1390 1389 1388 1387 1385 1383 1382 1380 1379 1376 1374 1372 1371 1369 1369 1367 1367 1367 1367 1367 1367 1367 1367 1367 1367 1368 1369 1369 1370 1375 1382 1387 1390 1394 1400 1410 1416 1423 1429 1436 1440 1445 1448 1453 1457 1468 1473 1481 1482 1488 1496 1500 1501 1504 1508 1529 1555 1572 1572 1572 0 0 0 0 0 0 0 0 0 0 0 0 0 0 0 0 0 0 0 0 0 0 0 0 1508 1508 1509 1508 1508 1502 1501 1500 1500 1500 1498 1497 1496 1495 1493 1493 1492 1492 1492 1488 0
0 0 0 0 0 0 0 0 0 0 0 0 0 0 0 0 0 0 0 0 0 0 0 0 0 0 0 0 0 0 0 0 0 0 0 0 0 0 0 0 0 0 0 0 0 0 0 0 0 0 0 0 0 0 0 0 0 0 0 0 0 0 0 0 0 0 0 0 0 0 0 0 0 0 0 0 0 0 0 0 0 0 0 0 0 0 0 0 0 0 0 0 0 0 0 0 0 0 0 0 0 0 0 0 0 0 0 0 0 0 0 0 0 0 0 0 0 2047 2050 2051 0 0 0 0 2513 2641 2738 2830 2883 2917 2924 2924 2924 2812 2665 2521 2520 0 0 0 2533 2771 3044 3225 3338 3388 3389 3391 3395 3401 3414 3414 3414 3407 3407 3407 3408 3408 3413 3428 3428 3428 3397 3352 3352 3352 3401 3421 3442 3442 3442 3417 3404 3352 3254 3254 3254 3341 3341 3341 3266 3266 3266 3294 3376 3376 3376 3225 3042 2852 2678 2652 2625 2591 2568 2536 0 0 0 0 0 0 2536 2556 2556 2556 2535 2509 0 0 0 0 0 0 0 0 0 0 0 0 0 0 0 0 0 0 0 0 0 0 0 0 0 0 0 0 0 0 0 0 0 0 0 0 0 0 0 0 0 0 0 0 0 0 0 0 2053 2097 2129 2152 2162 2164 2177 2189 2194 2194 2194 2173 2164 2145 0 0 0 1850 1820 1799 1790 1777 1770 1764 1757 1748 1737 1729 1725 1720 1709 1698 1684 1670 1656 1638 1619 1601 1585 1577 1567 1562 1557 1553 1550 1548 1546 1542 1540 1538 1538 1537 1537 1537 1538 1540 1542 1545 1547 1547 1550 1553 1558 1560 1565 1569 1571 1573 1575 1576 1576 1576 1575 1573 1572 1570 1569 1568 1567 1565 1563 1562 1560 1558 1556 1555 1553 1550 1548 1545 1542 1538 1534 1531 1527 1523 1519 1515 1512 1509 1505 1499 1493 1489 1485 1480 1475 1471 1467 1464 1461 1458 1455 1454 1452 1451 1450 1449 1448 1447 1446 1446 1445 1445 1445 1444 1444 1444 1444 1443 1442 1441 1440 1440 1439 1438 1437 1435 1433 1431 1429 1427 1426 1423 1422 1419 1415 1412 1407 1403 1400 1395 1392 1388 1384 1382 1380 1377 1376 1373 1371 1369 1368 1367 1365 1364 1363 1361 1360 1358 1356 1354 1353 1351 1350 1349 1348 1347 1346 1345 1345 1345 1345 1344 1344 1344 1345 1345 1345 1346 1346 1347 1347 1348 1348 1349 1349 1349 1349 1349 1349 1349 1349 1349 1348 1348 1347 1347 1346 1345 1345 1344 1342 1341 1340 1338 1337 1335 1334 1333 1331 1330 1329 1327 1326 1324 1323 1321 1320 1320 1319 1319 1319 1319 1319 1319 1319 1321 1322 1324 1327 1329 1333 1337 1341 1343 1348 1352 1356 1361 1366 1370 1374 1377 1379 1382 1383 1384 1387 1388 1389 1389 1390 1391 1392 1392 1393 1393 1394 1394 1394 1394 1394 1394 1393 1393 1393 1393 1392 1391 1390 1389 1388 1386 1385 1385 1383 1381 1378 1376 1374 1372 1371 1370 1369 1369 1367 1367 1367 1367 1367 1367 1367 1367 1367 1368 1369 1370 1373 1381 1385 1387 1389 1394 1399 1406 1412 1419 1428 1432 1436 1441 1446 1450 1465 1471 1475 1476 1481 1486 1493 1501 1506 1511 1532 1556 1572 1572 1572 0 0 0 0 0 0 0 0 0 0 0 0 0 0 0 0 0 0 0 0 0 0 0 0 0 0 1508 1508 1508 1507 1502 1501 1501 1501 1501 1505 1505 1505 1502 1500 1496 1494 1493 1489 0
0 0 0 0 0 0 0 0 0 0 0 0 0 0 0 0 0 0 0 0 0 0 0 0 0 0 0 0 0 0 0 0 0 0 0 0 0 0 0 0 0 0 0 0 0 0 0 0 0 0 0 0 0 0 0 0 0 0 0 0 0 0 0 0 0 0 0 0 0 0 0 0 0 0 0 0 0 0 0 0 0 0 0 0 0 0 0 0 0 0 0 0 0 0 0 0 0 0 0 0 0 0 0 0 0 0 0 0 0 0 0 0 0 0 0 0 2002 2037 2042 2046 2051 0 0 0 0 2515 2643 2732 2794 2850 2856 2856 2856 2764 2626 2521 2520 2429 0 0 2533 2786 3044 3216 3293 3333 3362 3364 3376 3399 3414 3414 3414 3407 3407 3407 3408 3408 3413 3428 3428 3428 3397 3337 3337 3337 3401 3421 3442 3442 3442 3417 3404 3336 3336 3336 3355 3426 3426 3426 3335 3335 3335 3343 3452 3452 3452 3429 3218 2893 2686 2652 2625 2586 2553 0 0 0 0 0 0 0 2579 2579 2579 2576 2558 2531 0 0 0 0 0 0 0 0 0 0 0 0 0 0 0 0 0 0 0 0 0 0 0 0 0 0 0 0 0 0 0 0 0 0 0 0 0 0 0 0 0 0 0 0 0 0 0 0 2129 2145 2155 2162 2175 2182 2190 2205 2205 2205 2201 2181 2146 0 0 0 0 1839 1816 1798 1787 1776 1768 1764 1754 1742 1733 1728 1724 1718 1708 1695 1687 1671 1661 1644 1624 1607 1592 1581 1571 1563 1559 1555 1550 1548 1545 1542 1539 1537 1536 1536 1535 1535 1535 1535 1537 1540 1542 1544 1545 1548 1553 1557 1560 1564 1567 1569 1570 1573 1573 1573 1573 1570 1570 1568 1567 1567 1565 1564 1562 1560 1559 1557 1555 1553 1551 1550 1547 1544 1541 1538 1534 1531 1527 1523 1520 1516 1512 1509 1506 1502 1497 1492 1487 1482 1477 1472 1468 1464 1461 1458 1455 1453 1452 1450 1449 1447 1447 1445 1445 1445 1444 1444 1444 1443 1443 1443 1442 1442 1442 1441 1440 1439 1439 1438 1437 1435 1434 1432 1430 1427 1426 1425 1423 1421 1418 1414 1410 1407 1402 1397 1393 1389 1387 1384 1382 1379 1377 1374 1372 1371 1368 1367 1366 1364 1363 1361 1359 1357 1356 1354 1352 1351 1350 1348 1348 1347 1346 1346 1345 1345 1345 1345 1345 1345 1345 1345 1346 1346 1346 1347 1348 1348 1348 1349 1349 1349 1349 1349 1349 1349 1349 1349 1349 1348 1348 1348 1346 1346 1345 1344 1343 1342 1341 1340 1338 1336 1335 1333 1332 1331 1330 1328 1327 1326 1324 1322 1321 1320 1319 1319 1318 1318 1318 1318 1319 1320 1321 1322 1324 1327 1331 1333 1337 1340 1344 1348 1352 1357 1362 1366 1371 1374 1376 1378 1379 1381 1385 1387 1389 1389 1390 1390 1391 1391 1392 1393 1394 1394 1394 1394 1394 1394 1393 1393 1393 1393 1393 1393 1392 1391 1390 1388 1386 1385 1384 1382 1380 1378 1376 1375 1373 1372 1371 1369 1368 1368 1367 1367 1367 1367 1367 1367 1367 1368 1369 1370 1372 1377 1381 1385 1388 1393 1398 1402 1406 1412 1420 1427 1430 1434 1438 1447 1457 1462 1468 1470 1479 1486 1493 1501 1510 1511 1532 1556 1572 1572 1572 0 0 0 0 0 0 0 0 0 0 0 0 0 0 0 0 0 0 0 0 0 0 0 0 0 0 0 1489 1501 1502 1502 1502 1506 1507 1508 1509 1509 1509 1506 1505 1502 1500 1499 1499 0
0 0 0 0 0 0 0 0 0 0 0 0 0 0 0 0 0 0 0 0 0 0 0 0 2277 2277 2277 2260 2260 2260 2273 2274 2274 0 0 0 0 0 0 0 0 0 0 0 0 0 0 0 0 0 0 0 0 0 0 0 0 0 0 0 0 0 0 0 0 0 0 0 0 0 0 0 0 0 0 0 0 0 0 0 0 0 0 0 0 0 0 0 0 0 0 0 0 0 0 0 0 0 0 0 0 0 0 0 0 0 0 0 0 0 0 0 0 0 0 0 1977 1994 2026 2031 2039 0 0 0 0 0 2604 2727 2794 2850 2856 2856 2856 2764 2626 2521 2520 2520 2521 2583 2711 2830 3044 3160 3201 3215 3228 3264 3287 3327 3341 3341 3342 3342 3344 3376 3385 3395 3412 3428 3428 3428 3397 3331 3331 3331 3337 3420 3442 3442 3442 3393 3309 3309 3309 3357 3467 3467 3467 3461 3391 3343 3343 3343 3459 3459 3459 3429 3218 2893 2686 2652 2625 2586 0 0 0 0 0 0 0 2582 2615 2615 2615 2611 2596 2531 0 0 0 0 0 0 0 0 0 0 0 0 0 0 0 0 0 0 0 0 0 0 0 0 0 0 0 0 0 0 0 0 0 0 0 0 0 0 0 0 0 0 0 0 0 0 0 0 2173 2173 2178 2178 2186 2205 2217 2220 2220 2220 2204 2181 2142 0 0 0 0 1831 1807 1796 1784 1774 1767 1758 1747 1736 1729 1726 1721 1714 1707 1695 1688 1677 1665 1647 1625 1612 1596 1582 1571 1563 1562 1556 1551 1548 1545 1542 1539 1536 1535 1534 1533 1533 1533 1533 1533 1535 1538 1540 1541 1543 1548 1553 1556 1560 1561 1564 1567 1567 1569 1569 1569 1569 1568 1567 1566 1564 1564 1563 1561 1559 1557 1555 1554 1552 1550 1548 1545 1543 1540 1537 1534 1531 1527 1523 1520 1516 1514 1510 1507 1503 1499 1494 1489 1484 1479 1474 1470 1466 1462 1458 1455 1453 1451 1449 1447 1446 1446 1445 1444 1443 1443 1442 1442 1442 1442 1442 1441 1441 1441 1440 1440 1439 1438 1438 1437 1435 1434 1433 1431 1429 1427 1425 1423 1421 1419 1416 1413 1410 1405 1400 1395 1392 1389 1385 1383 1381 1378 1376 1374 1371 1370 1368 1366 1365 1363 1361 1359 1357 1356 1354 1352 1351 1350 1348 1348 1347 1346 1346 1345 1345 1345 1345 1345 1345 1345 1345 1346 1346 1347 1347 1348 1348 1349 1349 1349 1349 1349 1349 1349 1350 1350 1349 1349 1349 1348 1348 1347 1347 1346 1345 1344 1343 1341 1340 1338 1338 1335 1335 1333 1332 1331 1329 1327 1326 1324 1323 1321 1320 1319 1319 1318 1318 1318 1318 1319 1320 1321 1321 1323 1326 1329 1332 1334 1337 1341 1345 1349 1352 1357 1362 1367 1370 1373 1375 1378 1379 1382 1384 1387 1388 1390 1390 1390 1391 1391 1393 1393 1394 1394 1394 1394 1394 1394 1394 1393 1393 1393 1393 1393 1392 1391 1390 1389 1388 1386 1385 1382 1381 1379 1376 1375 1373 1372 1371 1370 1368 1368 1368 1367 1367 1367 1367 1367 1368 1370 1370 1372 1374 1378 1381 1386 1391 1396 1400 1403 1409 1416 1423 1425 1427 1436 1441 1446 1456 1467 1469 1479 1486 1493 1504 1511 1511 1538 1560 1571 1571 1571 0 0 0 0 0 0 0 0 0 0 0 0 0 0 0 0 0 0 0 0 0 0 0 0 0 0 0 0 0 1489 1500 1500 1506 1507 1508 1509 1509 1509 1508 1508 1508 1514 1514 1515 0
0 0 0 0 0 0 0 0 0 0 0 0 0 0 0 0 0 0 0 0 0 0 0 2323 2323 2323 2281 2277 2275 2275 2273 2274 2274 2273 0 0 0 0 0 0 0 0 0 0 0 0 0 0 0 0 0 0 0 0 0 0 0 0 0 0 0 0 0 0 0 0 0 0 0 0 0 0 0 0 0 0 0 0 0 0 0 0 0 0 0 0 0 0 0 0 0 0 0 0 0 0 0 0 0 0 0 0 0 0 0 0 0 0 0 0 0 0 0 0 0 0 1977 1994 2000 2024 2026 0 0 0 0 0 2572 2709 2788 2839 2843 2843 2843 2764 2626 2625 2625 2625 2686 2743 2811 2909 3044 3137 3144 3151 3162 3193 3207 3212 3212 3212 3215 3215 3231 3255 3273 3283 3288 3315 3335 3335 3335 3291 3211 3148 3148 3148 3150 3150 3150 3150 3150 3261 3335 3383 3467 3467 3467 3461 3391 3343 3343 3343 3459 3459 3459 3429 3218 2893 2686 2652 2620 2574 0 0 0 0 0 0 2550 2639 2639 2642 2639 2637 2616 2531 0 0 0 0 0 0 0 0 0 0 0 0 0 0 0 0 0 0 0 0 0 0 0 0 0 0 0 0 0 0 0 0 0 0 0 0 0 0 0 0 0 0 0 0 0 2223 2223 2222 2221 2221 2211 2211 2211 2229 2232 2234 2234 2234 2216 2175 2131 0 0 0 0 1809 1800 1793 1774 1763 1756 1749 1738 1730 1726 1723 1717 1707 1700 1695 1688 1681 1668 1653 1631 1615 1598 1583 1571 1564 1563 1558 1551 1548 1545 1542 1539 1536 1534 1533 1532 1530 1530 1530 1531 1531 1533 1536 1536 1539 1542 1547 1552 1556 1558 1560 1562 1563 1565 1565 1565 1565 1564 1564 1564 1562 1561 1560 1559 1558 1555 1554 1553 1551 1549 1547 1545 1542 1539 1536 1533 1530 1527 1523 1520 1517 1514 1512 1509 1505 1500 1496 1492 1488 1482 1477 1473 1469 1465 1460 1455 1453 1451 1449 1447 1446 1444 1443 1442 1442 1441 1441 1441 1441 1441 1441 1441 1440 1440 1440 1439 1438 1438 1437 1436 1435 1434 1433 1432 1430 1428 1426 1424 1422 1420 1418 1415 1412 1408 1404 1399 1395 1391 1387 1385 1383 1379 1377 1375 1373 1371 1369 1367 1365 1363 1361 1359 1357 1356 1354 1352 1351 1350 1348 1348 1347 1346 1346 1345 1345 1345 1345 1345 1345 1345 1346 1346 1346 1347 1348 1348 1348 1349 1349 1349 1349 1350 1350 1350 1350 1350 1350 1350 1350 1349 1349 1348 1347 1347 1346 1345 1343 1341 1340 1339 1338 1336 1335 1334 1332 1331 1329 1328 1327 1325 1324 1322 1321 1320 1319 1319 1318 1318 1318 1318 1319 1319 1321 1322 1326 1327 1329 1332 1334 1337 1340 1344 1348 1353 1356 1362 1366 1369 1373 1375 1378 1380 1383 1385 1388 1389 1390 1390 1390 1391 1392 1392 1393 1393 1393 1394 1394 1394 1394 1394 1394 1394 1393 1393 1393 1392 1391 1390 1389 1387 1387 1384 1382 1379 1378 1377 1375 1374 1373 1371 1370 1369 1369 1367 1367 1367 1367 1367 1368 1370 1370 1370 1373 1377 1380 1384 1387 1393 1397 1401 1405 1412 1418 1422 1426 1430 1436 1441 1451 1454 1468 1479 1487 1501 1511 1516 1530 1542 1560 1570 1570 1570 0 0 0 0 0 0 0 0 0 0 0 0 0 0 0 0 0 0 0 0 0 0 0 0 0 0 0 0 0 0 0 0 1498 1506 1508 1509 1509 1509 1508 1508 1508 1514 1514 1515 0
0 0 0 0 0 0 0 0 0 0 0 0 0 0 0 0 0 0 0 0 2324 2328 2331 2337 2337 2331 2304 2288 2288 2288 2311 2311 2311 2290 0 0 0 0 0 0 0 0 0 0 0 0 0 0 0 0 0 0 0 0 0 0 0 0 0 0 0 0 0 0 0 0 0 0 0 0 0 0 0 0 0 0 0 0 0 0 0 0 0 0 0 0 0 0 0 0 0 0 0 0 0 0 0 0 0 0 0 0 0 0 0 0 0 0 0 0 0 0 0 0 0 0 0 1994 2000 2024 0 0 0 0 0 0 2572 2694 2774 2828 2841 2841 2841 2764 2764 2764 2775 2777 2806 2831 2863 2969 3062 3110 3110 3117 3144 3169 3169 3169 3152 3125 3089 3076 3072 3068 3063 3055 3022 3022 3022 3037 3042 3042 3042 3033 3018 2984 2931 2931 2931 2982 3072 3241 3335 3383 3467 3467 3467 3461 3391 3307 3307 3307 3459 3459 3459 3413 3156 2787 2677 2633 2601 0 0 0 0 0 0 0 2629 2648 2655 2655 2655 2650 2616 2505 0 0 0 0 0 0 0 0 0 0 0 0 0 0 0 0 0 0 0 0 0 0 0 0 0 0 0 0 0 0 0 0 0 0 0 0 0 0 0 0 0 0 0 0 2255 2255 2255 2255 2251 2245 2238 2238 2238 2246 2246 2246 2238 2234 2216 2175 0 0 0 0 1828 1805 1796 1785 1767 1755 1752 1746 1736 1728 1725 1722 1712 1705 1699 1694 1688 1681 1668 1654 1641 1623 1603 1586 1571 1565 1564 1559 1551 1548 1545 1542 1539 1536 1534 1532 1531 1529 1528 1528 1528 1528 1530 1532 1534 1535 1538 1542 1547 1550 1553 1556 1558 1559 1561 1562 1562 1562 1562 1562 1561 1560 1560 1559 1557 1556 1555 1553 1551 1550 1547 1545 1543 1540 1538 1536 1533 1529 1527 1523 1520 1517 1514 1512 1510 1506 1501 1497 1493 1490 1486 1481 1476 1471 1467 1461 1456 1453 1451 1449 1447 1445 1444 1442 1442 1442 1441 1440 1440 1439 1439 1440 1439 1439 1439 1439 1439 1438 1438 1436 1436 1435 1434 1433 1432 1430 1428 1427 1425 1424 1421 1418 1415 1413 1409 1406 1402 1398 1394 1390 1386 1383 1381 1379 1376 1374 1373 1370 1368 1366 1363 1361 1359 1358 1356 1354 1353 1351 1350 1349 1348 1347 1346 1346 1345 1345 1345 1345 1345 1345 1346 1346 1346 1347 1347 1348 1348 1348 1349 1349 1349 1349 1350 1350 1350 1350 1350 1350 1350 1350 1350 1349 1348 1348 1348 1347 1345 1344 1342 1342 1340 1339 1338 1336 1334 1333 1332 1331 1329 1327 1326 1324 1323 1321 1320 1320 1319 1318 1318 1318 1318 1318 1319 1320 1322 1325 1326 1328 1330 1332 1334 1336 1340 1344 1348 1352 1356 1361 1365 1368 1372 1376 1378 1380 1383 1385 1387 1389 1390 1390 1390 1391 1391 1392 1393 1393 1393 1393 1394 1394 1394 1394 1394 1394 1394 1394 1394 1392 1392 1391 1389 1388 1387 1384 1382 1380 1379 1377 1376 1374 1373 1371 1370 1369 1369 1367 1367 1367 1367 1368 1370 1370 1370 1373 1376 1378 1382 1384 1389 1394 1399 1403 1408 1416 1419 1421 1427 1431 1434 1445 1448 1468 1479 1493 1506 1518 1533 1539 1542 1560 1560 1560 1553 0 0 0 0 0 0 0 0 0 0 0 0 0 0 0 0 0 0 0 0 0 0 0 0 0 0 0 0 0 0 0 0 0 0 0 0 0 0 1496 1496 1508 1514 1514 1515 0
0 0 0 0 0 0 0 0 0 2065 2068 2068 0 0 0 0 0 2341 2343 2343 2341 2340 2340 2337 2337 2337 2304 2288 2288 2288 2311 2311 2311 2290 2263 0 0 0 0 0 0 0 0 0 0 0 0 0 0 0 0 0 0 0 0 0 0 0 0 0 0 0 0 0 0 0 0 0 0 0 0 0 0 0 0 0 0 0 0 0 0 0 0 0 0 0 0 0 0 0 0 0 0 0 0 0 0 0 0 0 0 0 0 0 0 0 0 0 0 0 0 0 0 0 0 0 0 0 0 0 0 0 0 0 0 0 0 2656 2774 2828 2841 2841 2841 2764 2764 2764 2818 2886 2889 2913 2942 2989 3062 3085 3089 3099 3123 3123 3123 3068 3000 2947 2947 2946 2947 2951 2972 2979 3003 3007 3013 3037 3042 3042 3042 3033 3018 2984 2931 2931 2931 2982 3072 3229 3335 3383 3415 3415 3415 3401 3317 3195 3195 3195 3337 3337 3337 3228 2897 2763 2658 2614 0 0 0 0 0 0 0 2578 2637 2657 2657 2657 2657 2650 2616 0 0 0 0 0 0 2517 2517 2517 2503 0 0 0 0 0 0 0 0 0 0 0 0 0 0 0 0 0 0 0 0 0 0 0 0 0 0 0 0 0 0 0 0 0 0 0 2277 2277 2277 2273 2272 2266 2256 2253 2253 2251 2251 2246 2238 2234 2216 0 0 0 0 0 1827 1805 1787 1774 1762 1751 1749 1744 1736 1727 1725 1719 1710 1703 1697 1693 1687 1681 1668 1656 1646 1630 1610 1595 1574 1565 1564 1559 1551 1548 1545 1542 1539 1536 1533 1532 1530 1528 1526 1526 1526 1526 1527 1527 1530 1532 1535 1537 1540 1543 1548 1552 1553 1554 1556 1557 1559 1559 1559 1559 1559 1557 1557 1556 1555 1554 1552 1551 1549 1548 1546 1544 1542 1540 1537 1535 1532 1529 1526 1523 1520 1517 1514 1512 1510 1506 1502 1498 1494 1491 1487 1482 1477 1473 1467 1463 1458 1455 1451 1449 1447 1445 1444 1442 1441 1440 1440 1439 1439 1439 1438 1438 1438 1438 1438 1438 1438 1438 1437 1436 1435 1435 1434 1433 1432 1431 1429 1427 1425 1424 1422 1420 1417 1414 1410 1408 1404 1401 1396 1392 1389 1386 1383 1381 1378 1377 1374 1372 1369 1367 1364 1361 1360 1358 1356 1354 1353 1351 1350 1349 1348 1347 1347 1346 1345 1345 1345 1345 1345 1345 1346 1346 1346 1347 1347 1348 1348 1348 1349 1349 1349 1349 1350 1350 1350 1350 1351 1351 1350 1350 1350 1350 1349 1349 1348 1347 1345 1344 1344 1342 1341 1340 1338 1337 1335 1335 1333 1332 1330 1329 1327 1325 1323 1322 1321 1320 1319 1318 1318 1318 1318 1318 1319 1319 1322 1323 1325 1327 1329 1331 1332 1335 1336 1341 1344 1346 1350 1355 1360 1363 1368 1372 1376 1379 1380 1381 1384 1386 1389 1389 1390 1391 1391 1392 1392 1392 1393 1393 1394 1394 1394 1394 1394 1394 1394 1394 1394 1394 1393 1391 1391 1390 1388 1386 1384 1383 1381 1379 1378 1376 1375 1373 1372 1370 1370 1369 1367 1367 1367 1368 1369 1369 1370 1372 1374 1376 1378 1381 1385 1392 1396 1401 1407 1411 1415 1420 1425 1428 1434 1445 1448 1468 1484 1495 1508 1518 1533 1539 1551 1557 1557 1557 1535 0 0 0 0 0 0 0 0 0 0 0 0 0 0 0 0 0 0 0 0 0 0 0 0 0 0 0 0 0 0 0 0 0 0 0 0 0 0 0 0 0 0 0 0 0
0 0 0 0 0 0 0 0 2092 2096 2104 2107 2138 0 0 0 2330 2346 2356 2356 2346 2345 2340 2340 2340 2339 2339 2334 2315 2315 2315 2313 2311 2290 2263 0 0 0 0 0 0 0 0 0 0 0 0 0 0 0 0 0 0 0 0 0 0 0 0 0 0 0 0 0 0 0 0 0 0 0 0 0 0 0 0 0 0 0 0 0 0 0 0 0 0 0 0 0 0 0 0 0 0 0 0 0 0 0 0 0 0 0 0 0 0 0 0 0 0 0 0 0 0 0 0 0 0 0 0 0 0 0 0 0 0 0 0 0 2368 2466 2582 2583 2585 2641 2743 2750 2818 2886 2889 2913 2942 2989 3062 3071 3071 3071 3053 3028 2877 2877 2877 2883 2922 2946 2947 2951 2972 2979 3003 3007 3013 3037 3042 3042 3042 3033 3018 2984 2931 2931 2931 2982 3072 3194 3239 3260 3273 3273 3273 3271 3189 3035 2975 2975 2975 2975 2975 2964 2867 2696 2645 2573 0 0 0 0 0 0 2573 2646 2657 2663 2663 2663 2663 2650 2565 0 0 0 0 0 2544 2560 2560 2560 2548 2523 0 0 0 0 0 0 0 0 0 0 0 0 0 0 0 0 0 0 0 0 0 0 0 0 0 0 0 0 0 0 0 0 0 0 2309 2309 2309 2297 2297 2292 2276 2259 2258 2254 2254 2250 2245 2234 2216 0 0 0 0 1853 1822 1800 1784 1772 1760 1750 1747 1743 1736 1727 1721 1714 1706 1697 1692 1689 1685 1677 1668 1658 1650 1636 1618 1604 1586 1572 1564 1559 1553 1548 1545 1542 1539 1535 1533 1530 1529 1527 1524 1524 1523 1523 1523 1524 1524 1527 1529 1530 1532 1536 1541 1547 1551 1551 1552 1553 1555 1556 1556 1556 1556 1555 1555 1553 1553 1552 1551 1549 1548 1546 1543 1541 1539 1537 1536 1534 1531 1528 1526 1522 1520 1516 1514 1512 1510 1506 1503 1498 1495 1491 1487 1484 1478 1473 1469 1463 1459 1455 1452 1450 1447 1445 1444 1442 1440 1440 1438 1438 1438 1437 1437 1437 1437 1437 1436 1436 1436 1436 1435 1435 1435 1434 1433 1432 1432 1431 1429 1427 1425 1424 1422 1420 1418 1416 1412 1409 1407 1404 1400 1396 1391 1388 1386 1383 1381 1378 1375 1372 1369 1367 1365 1362 1361 1359 1356 1354 1353 1351 1350 1349 1348 1347 1347 1346 1346 1345 1345 1345 1345 1345 1346 1346 1346 1347 1347 1348 1348 1348 1349 1349 1349 1349 1350 1350 1351 1351 1351 1351 1351 1351 1351 1350 1350 1349 1348 1347 1347 1345 1344 1343 1342 1341 1339 1338 1337 1336 1334 1332 1331 1330 1328 1326 1324 1323 1321 1321 1320 1318 1318 1318 1318 1318 1318 1319 1320 1322 1323 1325 1327 1328 1331 1333 1334 1336 1341 1343 1346 1349 1353 1358 1364 1370 1374 1376 1378 1379 1381 1384 1386 1388 1389 1390 1390 1391 1391 1391 1392 1392 1393 1394 1394 1395 1395 1395 1395 1394 1394 1394 1393 1393 1392 1391 1390 1387 1386 1384 1383 1381 1379 1378 1376 1375 1373 1372 1371 1370 1369 1368 1368 1368 1369 1369 1370 1371 1373 1375 1377 1379 1383 1388 1394 1399 1403 1407 1411 1416 1423 1427 1434 1445 1448 1468 1484 1497 1511 1523 1533 1539 1551 1555 1555 1555 1529 0 0 0 0 0 0 0 0 0 0 0 0 0 0 0 0 0 0 0 0 0 0 0 0 0 0 0 0 0 0 0 0 0 0 0 0 0 0 0 0 0 0 0 0 0
0 0 0 0 0 0 0 2082 2092 2096 2105 2108 2138 2173 0 0 2347 2364 2364 2364 2359 2352 2340 2339 2339 2340 2345 2348 2353 2360 2360 2360 2358 2345 2338 0 0 0 0 0 0 0 0 0 0 0 0 0 0 0 0 0 0 0 0 0 0 0 0 0 0 0 0 0 0 0 0 0 0 0 0 0 0 0 0 0 0 0 0 0 0 0 0 0 0 0 0 0 0 0 0 0 0 0 0 0 0 0 0 0 0 0 0 0 0 0 0 0 0 0 0 0 0 0 0 0 0 0 0 0 0 0 0 0 0 0 0 0 0 0 0 0 0 0 2598 2724 2818 2886 2889 2913 2942 2986 2986 2986 2947 2874 2816 2794 2794 2794 2835 2878 2896 2904 2915 2946 2972 2972 2974 2976 2993 3016 3048 3051 3074 3074 3074 3062 3046 3021 3021 3021 3061 3119 3152 3169 3177 3177 3177 3144 3109 2993 2868 2768 2768 2768 2768 2768 2755 2674 2577 2446 0 0 0 0 0 2557 2654 2678 2679 2679 2678 2677 2663 2593 2511 0 0 0 0 2537 2585 2596 2596 2596 2588 2568 2537 0 0 0 0 0 0 0 0 0 0 0 0 0 0 0 0 0 0 0 0 0 2434 2409 2387 2355 0 0 0 0 0 0 0 0 2337 2337 2337 2335 2333 2325 2309 2290 2267 2259 2259 2251 2245 2234 0 0 0 0 0 1829 1808 1799 1783 1771 1759 1750 1746 1738 1728 1720 1712 1705 1698 1692 1690 1687 1682 1672 1666 1660 1651 1641 1626 1610 1595 1586 1574 1565 1558 1553 1548 1545 1539 1535 1533 1530 1528 1526 1523 1521 1520 1520 1520 1520 1520 1520 1521 1522 1525 1528 1534 1539 1545 1547 1547 1549 1551 1551 1551 1551 1552 1552 1552 1552 1551 1550 1549 1548 1546 1544 1542 1540 1538 1536 1534 1532 1530 1528 1524 1522 1519 1516 1514 1512 1509 1506 1503 1499 1495 1492 1488 1484 1481 1477 1471 1466 1460 1456 1453 1451 1448 1446 1444 1442 1440 1438 1437 1437 1436 1436 1435 1435 1435 1435 1435 1435 1435 1435 1435 1434 1434 1433 1432 1431 1431 1431 1429 1427 1426 1424 1422 1421 1419 1416 1414 1411 1409 1407 1404 1400 1395 1392 1389 1385 1382 1379 1377 1373 1371 1368 1366 1364 1361 1359 1357 1355 1354 1352 1351 1350 1348 1348 1347 1346 1346 1345 1345 1345 1345 1346 1346 1346 1346 1347 1347 1348 1348 1348 1349 1349 1349 1350 1350 1350 1351 1351 1351 1351 1351 1351 1351 1350 1350 1350 1349 1348 1347 1347 1345 1344 1343 1342 1340 1339 1338 1336 1336 1334 1332 1330 1329 1327 1326 1323 1323 1321 1320 1320 1319 1318 1318 1318 1318 1318 1320 1321 1322 1323 1325 1328 1329 1331 1333 1335 1337 1339 1341 1344 1348 1351 1357 1363 1367 1371 1373 1375 1377 1381 1383 1386 1387 1389 1390 1390 1390 1391 1392 1392 1393 1394 1395 1395 1395 1395 1395 1395 1395 1395 1394 1393 1393 1392 1390 1390 1388 1386 1385 1383 1381 1379 1378 1377 1374 1373 1372 1371 1371 1369 1369 1369 1369 1369 1370 1371 1373 1374 1376 1378 1383 1387 1393 1398 1400 1403 1408 1416 1423 1427 1441 1445 1464 1476 1487 1498 1514 1523 1525 1537 1549 1550 1550 1550 0 0 0 0 0 0 0 0 0 0 0 0 0 0 0 0 0 0 0 0 0 0 0 0 0 0 0 0 0 0 0 0 0 0 0 0 0 0 0 0 0 0 0 0 0 0
0 0 0 0 0 2069 2089 2097 2106 2107 2107 2116 2138 2173 0 0 2347 2374 2374 2374 2368 2345 2332 2332 2332 2339 2345 2348 2353 2363 2370 2383 2383 2383 2378 2374 2367 0 0 0 0 0 0 0 0 0 0 0 0 0 0 0 0 0 0 0 0 0 0 0 0 0 0 0 0 0 0 0 0 0 0 0 0 0 0 0 0 0 0 0 0 0 0 0 0 0 0 0 0 0 0 0 0 0 0 0 0 0 0 0 0 0 0 0 0 0 0 0 0 0 0 0 0 2438 2438 2438 2446 2446 2446 2446 0 0 0 0 0 0 0 0 0 0 0 0 0 0 2544 2664 2755 2788 2837 2840 2905 2905 2905 2895 2714 2667 2667 2667 2709 2768 2824 2874 2889 2896 2915 2946 2972 2972 2974 2976 2993 3013 3048 3051 3074 3074 3074 3062 3046 3021 3021 3021 3055 3087 3109 3114 3114 3114 3099 3071 3020 2967 2868 2712 2683 2683 2683 2683 2683 2668 2549 2340 0 0 0 0 2527 2622 2671 2678 2679 2679 2678 2677 2651 2547 0 0 0 0 2515 2597 2626 2626 2626 2626 2625 2615 2587 2559 2519 0 0 0 0 0 0 0 0 0 0 0 0 0 0 0 0 0 0 2458 2458 2425 2396 2366 2334 0 0 0 0 0 0 0 2383 2383 2383 2381 2372 2355 2336 2313 2306 2284 2259 2251 2251 2243 0 0 0 0 0 1817 1802 1791 1777 1764 1753 1747 1740 1730 1721 1713 1706 1700 1695 1691 1688 1684 1679 1672 1664 1660 1653 1644 1629 1616 1608 1596 1588 1573 1564 1557 1551 1546 1541 1535 1532 1529 1528 1525 1522 1520 1518 1518 1517 1516 1516 1516 1517 1519 1521 1523 1526 1532 1538 1541 1542 1543 1545 1547 1548 1548 1549 1549 1549 1548 1548 1547 1547 1545 1544 1542 1540 1539 1537 1534 1533 1530 1528 1526 1523 1521 1519 1516 1514 1511 1508 1506 1503 1499 1495 1492 1489 1486 1482 1479 1474 1469 1463 1457 1454 1451 1448 1446 1445 1442 1440 1438 1437 1436 1435 1435 1434 1434 1434 1434 1434 1434 1434 1434 1433 1433 1433 1432 1431 1431 1430 1430 1429 1427 1426 1424 1423 1421 1420 1418 1416 1413 1410 1408 1405 1402 1400 1396 1391 1389 1384 1381 1378 1375 1372 1370 1367 1364 1362 1360 1358 1356 1354 1352 1351 1350 1349 1348 1347 1346 1346 1345 1345 1345 1345 1346 1346 1346 1346 1347 1347 1347 1347 1348 1348 1349 1349 1350 1350 1350 1351 1351 1351 1351 1351 1351 1351 1351 1350 1350 1349 1348 1347 1347 1346 1345 1344 1343 1342 1340 1339 1338 1337 1335 1334 1332 1330 1328 1327 1325 1323 1322 1321 1320 1319 1319 1318 1318 1318 1318 1319 1320 1321 1322 1324 1325 1327 1329 1331 1333 1334 1336 1338 1341 1344 1347 1351 1355 1360 1365 1368 1371 1374 1376 1379 1382 1384 1386 1387 1389 1390 1391 1391 1392 1393 1394 1395 1395 1395 1395 1395 1395 1395 1395 1395 1394 1394 1393 1391 1391 1389 1388 1386 1384 1382 1381 1379 1378 1375 1375 1373 1372 1371 1370 1369 1369 1369 1369 1370 1371 1373 1374 1376 1378 1381 1385 1389 1395 1398 1401 1408 1416 1423 1427 1441 1447 1471 1480 1494 1513 1518 1523 1525 1533 1549 1549 1549 1542 0 0 0 0 0 0 0 0 0 0 0 0 0 0 0 0 0 0 0 0 0 0 0 0 0 0 0 0 0 0 0 0 0 0 0 0 0 0 0 0 0 0 0 0 0 0
1987 1987 2017 2020 2039 2069 2108 2108 2109 2113 2113 2117 2138 2172 0 0 2367 2393 2393 2393 2368 2335 2331 2326 2326 2326 2340 2348 2354 2363 2370 2383 2383 2383 2378 2378 2378 2381 2393 2394 2396 2396 2395 2395 2395 2390 0 0 0 0 0 0 0 0 0 0 0 0 0 0 0 0 0 0 0 0 0 0 0 0 0 0 0 0 0 0 0 0 0 0 0 0 0 0 0 0 0 0 0 0 0 0 0 0 0 0 0 0 0 0 0 0 0 0 0 0 0 0 0 0 0 0 2381 2385 2397 2416 2446 2446 2446 2446 2446 2460 2472 2472 2472 2438 2392 2316 0 0 0 0 0 0 2539 2592 2644 2711 2758 2761 2763 2763 2763 2666 2612 2612 2612 2642 2709 2759 2810 2874 2887 2896 2915 2946 2972 2972 2973 2974 2976 2985 3010 3044 3074 3074 3074 3062 3046 3021 3004 3004 3004 3025 3073 3073 3073 3071 3053 3005 2996 2962 2868 2712 2620 2620 2620 2580 2580 2580 2418 2218 0 0 0 0 2613 2663 2671 2678 2679 2679 2678 2677 2605 0 0 0 0 2518 2619 2659 2659 2659 2652 2649 2645 2644 2632 2610 2590 2558 2525 0 0 0 0 0 0 0 0 0 0 0 0 0 0 0 0 2458 2458 2454 2414 2382 2353 0 0 0 0 0 0 0 2402 2421 2421 2421 2399 2375 2347 2339 2332 2328 2301 2283 2273 2266 0 0 0 0 0 1816 1796 1787 1771 1754 1745 1739 1732 1723 1716 1712 1704 1698 1693 1690 1685 1682 1676 1670 1664 1660 1656 1650 1638 1625 1614 1605 1590 1580 1570 1561 1553 1548 1541 1535 1532 1529 1526 1523 1521 1518 1517 1516 1514 1514 1514 1514 1515 1516 1517 1520 1522 1526 1531 1534 1536 1538 1539 1541 1543 1544 1545 1545 1545 1545 1545 1545 1544 1543 1542 1540 1539 1537 1534 1532 1530 1528 1526 1524 1522 1520 1517 1515 1512 1511 1508 1506 1502 1499 1497 1494 1490 1487 1483 1480 1477 1473 1467 1463 1457 1453 1450 1446 1445 1442 1440 1438 1436 1436 1434 1433 1433 1433 1433 1433 1433 1432 1432 1432 1432 1432 1432 1431 1431 1430 1429 1429 1428 1427 1426 1424 1423 1421 1420 1419 1418 1414 1412 1410 1408 1405 1402 1398 1394 1391 1387 1383 1380 1378 1375 1371 1368 1366 1363 1362 1359 1357 1355 1353 1352 1350 1349 1348 1347 1347 1346 1345 1345 1345 1345 1346 1346 1346 1346 1346 1347 1347 1347 1348 1348 1349 1349 1349 1350 1350 1351 1351 1351 1352 1352 1351 1351 1351 1351 1350 1350 1349 1348 1348 1347 1346 1345 1344 1343 1341 1341 1340 1338 1337 1335 1333 1331 1330 1328 1327 1325 1323 1322 1321 1320 1319 1318 1318 1318 1318 1318 1320 1320 1321 1322 1323 1324 1326 1328 1331 1333 1335 1336 1339 1342 1344 1348 1351 1355 1359 1363 1367 1369 1371 1375 1377 1379 1381 1383 1385 1387 1390 1391 1392 1393 1394 1395 1395 1395 1395 1395 1395 1395 1395 1395 1394 1394 1393 1393 1391 1390 1388 1387 1386 1384 1382 1380 1378 1376 1375 1374 1373 1372 1371 1370 1370 1370 1370 1370 1371 1373 1374 1376 1378 1381 1384 1387 1391 1394 1400 1408 1417 1426 1433 1445 1454 1478 1488 1508 1514 1518 1524 1525 1533 1546 1546 1546 0 0 0 0 0 0 0 0 0 0 0 0 0 0 0 0 0 0 0 0 0 0 0 0 0 0 0 0 0 0 0 0 0 0 0 0 0 0 0 0 0 0 0 0 0 0 0
1987 1987 2017 2020 2036 2069 2108 2108 2113 2113 2114 2129 2138 2172 0 0 2369 2393 2393 2393 2368 2330 2322 2322 2322 2325 2339 2347 2354 2362 2363 2383 2383 2383 2378 2378 2378 2381 2393 2394 2394 2395 2395 2395 2398 2404 2412 2412 2412 2416 2416 2402 2383 0 0 0 0 0 0 0 0 0 0 0 0 0 0 0 0 0 0 0 0 0 0 0 0 0 0 0 0 0 0 0 0 0 0 0 0 0 0 0 0 0 0 0 0 0 0 0 0 0 0 0 0 0 0 0 0 2315 2316 2316 2327 2341 2363 2395 2402 2416 2432 2443 2446 2460 2472 2472 2472 2438 2404 2385 0 0 0 0 0 2440 2477 2509 2565 2588 2685 2711 2711 2711 2672 2616 2582 2582 2582 2640 2684 2711 2730 2756 2771 2783 2789 2805 2805 2805 2773 2773 2773 2827 2894 2928 2928 2928 2915 2915 2915 2916 2924 2950 2972 2985 3017 3028 3028 3028 2993 2993 2990 2960 2911 2792 2620 0 0 0 0 0 0 0 0 0 0 2612 2668 2671 2671 2678 2678 2678 2660 2627 0 0 0 0 2515 2596 2697 2697 2697 2689 2675 2674 2668 2666 2666 2652 2645 2632 2623 2601 2529 0 0 0 0 0 0 0 0 0 0 0 0 0 0 2454 2454 2454 2430 2391 2353 0 0 0 0 0 0 0 2433 2441 2441 2441 2416 2384 2362 2358 2355 2345 2327 2314 2297 2270 0 0 0 0 1849 1816 1791 1778 1760 1748 1739 1733 1726 1721 1716 1709 1701 1697 1693 1689 1683 1680 1674 1669 1664 1660 1656 1651 1646 1637 1627 1612 1598 1586 1576 1566 1554 1549 1542 1537 1532 1529 1526 1522 1520 1517 1515 1514 1513 1512 1512 1512 1512 1513 1514 1517 1520 1522 1524 1526 1528 1531 1532 1535 1539 1541 1542 1542 1542 1542 1542 1542 1542 1541 1539 1538 1537 1535 1532 1531 1529 1526 1524 1522 1521 1518 1516 1514 1512 1510 1508 1504 1502 1499 1497 1494 1492 1488 1484 1481 1478 1474 1471 1466 1462 1456 1451 1448 1445 1442 1440 1438 1436 1435 1434 1433 1432 1432 1432 1431 1431 1431 1431 1431 1431 1431 1430 1430 1430 1429 1429 1428 1427 1426 1426 1424 1423 1422 1421 1419 1418 1416 1414 1412 1409 1407 1404 1401 1397 1394 1389 1385 1382 1380 1377 1374 1370 1367 1364 1363 1360 1358 1357 1354 1352 1350 1349 1348 1348 1347 1346 1345 1345 1345 1345 1346 1346 1346 1346 1346 1347 1347 1347 1348 1348 1349 1349 1349 1350 1350 1351 1351 1352 1352 1352 1352 1352 1351 1351 1351 1350 1349 1349 1348 1347 1347 1346 1345 1344 1343 1341 1340 1339 1339 1337 1335 1333 1331 1330 1327 1327 1325 1323 1322 1320 1320 1319 1318 1318 1318 1318 1319 1319 1320 1321 1322 1322 1324 1326 1328 1330 1332 1334 1337 1338 1342 1345 1349 1351 1355 1359 1361 1363 1366 1370 1372 1375 1377 1379 1382 1384 1387 1391 1392 1393 1394 1394 1395 1395 1395 1395 1395 1395 1395 1395 1394 1394 1393 1393 1392 1391 1390 1388 1387 1385 1383 1382 1380 1378 1376 1375 1374 1373 1371 1371 1371 1371 1371 1371 1371 1373 1374 1376 1378 1380 1383 1386 1389 1393 1399 1407 1417 1428 1438 1449 1472 1487 1504 1511 1514 1518 1524 1527 1532 1535 1535 1535 0 0 0 0 0 0 0 0 0 0 0 0 0 0 0 0 0 0 0 0 0 0 0 0 0 0 0 0 0 0 0 0 0 0 0 0 0 0 0 0 0 0 0 0 0 0 0
1987 1987 1998 2017 2034 2069 2108 2109 2113 2114 2120 2137 2141 2172 0 0 2369 2393 2393 2393 2361 2329 2322 2322 2322 2325 2335 2346 2354 2362 2363 2368 2376 2376 2376 2376 2376 2382 2393 2394 2394 2396 2396 2396 2401 2404 2412 2414 2414 2416 2416 2416 2430 2431 2431 2431 2431 2425 2403 2401 2370 0 0 0 0 0 0 0 0 0 0 0 0 0 0 0 0 0 0 0 0 0 0 0 0 0 0 0 0 0 0 0 0 0 0 0 0 0 0 0 0 0 0 0 0 0 0 0 2271 2315 2316 2316 2327 2339 2351 2355 2356 2363 2383 2400 2422 2422 2422 2422 2411 2404 2404 2404 2412 2419 2422 2422 2423 2440 2465 2474 2502 2550 2568 2580 2580 2580 2511 2511 2511 2511 2530 2559 2596 2628 2646 2657 2692 2693 2695 2695 2695 2677 2633 2633 2633 2657 2736 2816 2816 2816 2810 2810 2810 2828 2841 2856 2929 2961 2974 2974 2974 2975 2973 2970 2970 2960 2911 2792 2622 0 0 0 0 0 0 0 0 0 0 2671 2671 2671 2668 2654 2652 2640 2600 0 0 0 0 2507 2593 2714 2725 2725 2725 2707 2694 2694 2694 2694 2694 2688 2683 2679 2677 2666 2641 2602 2535 0 0 0 0 0 0 0 0 0 0 0 0 0 2430 2430 2430 2391 0 0 0 0 0 0 0 0 2433 2441 2441 2441 2416 2384 2362 2358 2355 2345 2335 2332 2303 2270 0 0 0 1880 1842 1814 1785 1767 1756 1745 1735 1728 1721 1718 1712 1704 1699 1696 1690 1685 1680 1677 1673 1668 1663 1660 1656 1652 1647 1640 1633 1620 1607 1596 1584 1571 1559 1550 1545 1539 1535 1530 1526 1522 1519 1517 1515 1513 1511 1511 1509 1509 1509 1509 1511 1513 1516 1519 1521 1522 1523 1525 1527 1530 1534 1536 1538 1538 1538 1539 1539 1539 1539 1538 1536 1535 1534 1532 1530 1529 1527 1524 1522 1520 1519 1517 1514 1513 1511 1509 1506 1504 1502 1499 1497 1494 1492 1489 1485 1482 1478 1475 1471 1468 1464 1459 1454 1450 1446 1443 1440 1438 1435 1434 1433 1432 1432 1430 1430 1430 1430 1430 1430 1430 1430 1430 1430 1429 1429 1428 1428 1428 1426 1426 1425 1424 1423 1422 1421 1420 1418 1416 1415 1413 1410 1407 1406 1402 1399 1396 1393 1388 1385 1383 1379 1376 1371 1369 1366 1363 1361 1359 1357 1354 1352 1351 1350 1349 1348 1347 1347 1346 1346 1346 1346 1346 1346 1346 1346 1346 1346 1347 1347 1348 1348 1349 1349 1349 1350 1351 1351 1351 1352 1352 1352 1352 1352 1351 1351 1351 1350 1350 1349 1349 1348 1347 1347 1346 1345 1344 1343 1342 1341 1340 1338 1336 1335 1333 1332 1329 1328 1326 1323 1323 1321 1320 1319 1319 1319 1319 1318 1318 1319 1319 1319 1320 1322 1323 1325 1325 1327 1330 1333 1335 1337 1339 1343 1345 1348 1350 1352 1355 1358 1361 1366 1369 1371 1373 1376 1378 1382 1384 1387 1390 1393 1394 1394 1394 1395 1395 1395 1395 1395 1395 1395 1394 1394 1394 1393 1393 1391 1391 1389 1387 1386 1385 1382 1381 1379 1377 1376 1374 1373 1372 1372 1371 1371 1371 1372 1372 1373 1374 1376 1378 1379 1382 1386 1389 1392 1399 1407 1417 1431 1453 1457 1477 1491 1504 1511 1513 1516 1524 1527 1531 1533 1533 1533 0 0 0 0 0 0 0 0 0 0 0 0 0 0 0 0 0 0 0 0 0 0 0 0 0 0 0 0 0 0 0 0 0 0 0 0 0 0 0 0 0 0 0 0 0 0 0
1986 1986 1998 2017 2030 2057 2092 2106 2107 2114 2131 2149 2155 2188 0 0 2369 2389 2389 2389 2359 2329 2324 2324 2324 2326 2335 2346 2358 2360 2363 2365 2372 2372 2373 2373 2374 2381 2383 2389 2391 2392 2393 2396 2402 2407 2412 2414 2414 2414 2414 2414 2416 2431 2431 2431 2431 2431 2433 2439 2440 2440 0 0 0 0 0 0 0 0 0 0 0 0 0 0 0 0 0 0 0 0 0 0 0 0 0 0 0 0 0 0 0 0 0 0 0 0 0 0 0 0 0 0 0 0 0 2286 2303 2308 2309 2312 2324 2337 2346 2351 2353 2358 2371 2378 2383 2384 2388 2393 2395 2398 2403 2404 2412 2419 2422 2422 2423 2440 2450 2458 2463 2466 2491 2516 2516 2516 2427 0 0 0 0 0 0 0 0 0 2541 2589 2617 2624 2624 2624 2589 2569 2569 2569 2648 2678 2689 2710 2716 2731 2741 2762 2779 2810 2846 2924 2945 2945 2945 2943 2943 2938 2938 2925 2911 2792 2622 0 0 0 0 0 0 0 0 0 0 2671 2671 2671 2648 2625 2596 0 0 0 0 0 2539 2605 2700 2727 2727 2727 2725 2707 2707 2707 2706 2706 2706 2704 2704 2704 2699 2698 2690 2675 2645 2587 2509 0 0 0 0 0 0 0 0 0 0 0 0 0 0 0 0 0 0 0 0 0 0 0 0 2441 2441 2441 2416 2384 2362 2358 2355 2345 2335 2332 2303 0 0 0 0 1874 1830 1813 1777 1766 1749 1740 1730 1724 1719 1712 1704 1698 1695 1691 1687 1681 1679 1675 1671 1666 1662 1659 1656 1652 1647 1640 1634 1628 1617 1606 1599 1579 1566 1555 1548 1542 1536 1530 1526 1522 1519 1517 1514 1512 1511 1509 1507 1507 1507 1507 1508 1509 1511 1515 1517 1519 1520 1521 1523 1526 1529 1532 1532 1534 1534 1535 1536 1536 1536 1535 1534 1532 1532 1530 1528 1526 1525 1522 1520 1519 1517 1515 1514 1512 1510 1508 1506 1503 1501 1499 1496 1494 1492 1489 1486 1484 1479 1476 1473 1470 1466 1461 1456 1451 1447 1444 1441 1437 1435 1433 1433 1431 1430 1429 1429 1429 1429 1429 1429 1428 1428 1428 1428 1428 1428 1428 1427 1427 1426 1426 1425 1424 1423 1422 1421 1420 1418 1417 1416 1414 1412 1409 1406 1404 1401 1398 1396 1392 1388 1385 1382 1378 1374 1370 1367 1365 1362 1361 1357 1356 1353 1353 1351 1350 1348 1348 1347 1346 1346 1346 1346 1346 1346 1346 1346 1346 1346 1347 1347 1347 1348 1349 1349 1349 1350 1351 1351 1351 1352 1352 1352 1352 1352 1352 1351 1351 1351 1350 1349 1349 1348 1348 1348 1347 1346 1345 1345 1343 1342 1341 1339 1337 1336 1334 1332 1331 1329 1327 1325 1323 1322 1321 1320 1319 1319 1319 1318 1318 1319 1319 1319 1320 1321 1322 1323 1324 1326 1327 1330 1332 1334 1338 1341 1344 1345 1346 1349 1353 1355 1358 1361 1365 1368 1370 1372 1375 1378 1382 1385 1388 1391 1393 1394 1394 1394 1394 1395 1395 1395 1395 1395 1395 1394 1394 1394 1393 1392 1391 1390 1388 1387 1385 1383 1382 1380 1379 1376 1374 1374 1373 1372 1372 1372 1372 1372 1372 1373 1375 1376 1377 1379 1382 1385 1389 1391 1398 1407 1414 1436 1453 1463 1478 1492 1504 1511 1512 1513 1520 1527 1530 1530 1530 1524 0 0 0 0 0 0 0 0 0 0 0 0 0 0 0 0 0 0 0 0 0 0 0 0 0 0 0 0 0 0 0 0 0 0 0 0 0 0 0 0 0 0 0 0 0 0 0
1986 1986 1998 2017 2030 2057 2081 2087 2095 2114 2131 2149 2165 2188 0 0 2347 2358 2358 2358 2343 2330 2329 2329 2329 2330 2340 2347 2358 2360 2362 2364 2364 2370 2370 2372 2373 2378 2379 2380 2381 2383 2387 2395 2401 2404 2406 2408 2408 2408 2414 2414 2416 2431 2431 2431 2431 2431 2433 2439 2440 2440 0 0 0 0 0 0 0 0 0 0 0 0 0 0 0 0 0 0 0 0 0 0 0 0 0 0 0 0 0 0 0 0 2240 2245 2245 2247 2250 2251 2254 2255 2257 2269 2280 2290 2293 2294 2303 2308 2309 2312 2322 2333 2342 2346 2347 2348 2352 2360 2365 2368 2372 2376 2381 2386 2400 2403 2412 2419 2422 2422 2423 2432 2438 2442 2443 2445 2452 2472 2472 2472 2411 2372 2371 0 0 0 0 0 0 0 0 0 0 2506 2511 2535 2535 2535 2535 2566 2577 2584 2592 2599 2654 2705 2726 2749 2763 2765 2780 2813 2884 2900 2900 2903 2900 2899 2899 2871 2836 2753 2622 0 0 0 0 0 0 0 0 0 0 0 2644 2637 2531 0 0 0 0 0 0 2560 2627 2691 2717 2727 2727 2727 2725 2708 2708 2707 2707 2707 2707 2707 2709 2713 2713 2713 2704 2696 2676 2647 2600 2534 0 0 0 0 0 0 0 0 0 0 0 0 0 0 0 0 0 0 0 0 0 0 0 0 0 0 0 0 0 0 0 0 0 0 0 0 0 0 0 1857 1824 1784 1772 1765 1745 1728 1720 1716 1713 1708 1700 1694 1691 1687 1684 1680 1676 1672 1667 1664 1660 1658 1656 1652 1647 1640 1634 1629 1625 1616 1604 1591 1570 1558 1550 1544 1538 1531 1526 1522 1519 1517 1514 1512 1509 1508 1506 1505 1505 1505 1505 1506 1506 1507 1511 1513 1515 1517 1518 1521 1524 1526 1528 1529 1531 1532 1533 1533 1533 1533 1531 1530 1529 1528 1526 1524 1522 1521 1519 1517 1516 1514 1511 1511 1508 1507 1505 1502 1501 1498 1495 1493 1492 1489 1486 1484 1481 1478 1473 1471 1468 1463 1458 1452 1449 1445 1441 1438 1435 1433 1431 1431 1429 1428 1428 1427 1427 1427 1427 1427 1427 1427 1427 1427 1427 1426 1426 1426 1425 1425 1424 1424 1423 1422 1421 1420 1418 1417 1416 1415 1413 1411 1409 1406 1403 1400 1397 1395 1391 1388 1384 1381 1376 1374 1369 1366 1364 1361 1360 1357 1355 1353 1351 1350 1349 1348 1347 1347 1346 1346 1346 1346 1346 1346 1346 1346 1346 1346 1347 1347 1348 1349 1349 1349 1350 1351 1351 1351 1352 1352 1352 1352 1352 1352 1351 1351 1351 1351 1350 1349 1349 1349 1348 1347 1347 1346 1345 1344 1343 1341 1340 1338 1337 1335 1334 1332 1330 1328 1325 1324 1323 1321 1321 1320 1319 1319 1318 1318 1318 1318 1319 1319 1320 1321 1321 1322 1324 1325 1327 1330 1332 1335 1340 1342 1343 1344 1348 1352 1354 1356 1359 1362 1364 1367 1370 1372 1376 1380 1384 1387 1389 1391 1393 1393 1393 1394 1395 1395 1395 1395 1395 1395 1394 1394 1394 1393 1392 1391 1390 1388 1387 1386 1384 1382 1381 1379 1378 1375 1374 1373 1373 1373 1372 1372 1373 1373 1373 1375 1376 1378 1379 1382 1385 1389 1391 1399 1407 1414 1437 1453 1468 1481 1492 1504 1509 1512 1514 1516 1519 1524 1524 1524 1519 0 0 0 0 0 0 0 0 0 0 0 0 0 0 0 0 0 0 0 0 0 0 0 0 0 0 0 0 0 0 0 0 0 0 0 0 0 0 0 0 0 0 0 0 0 0 0
1987 1987 2000 2020 2034 2057 2073 2073 2079 2099 2131 2149 2165 2188 0 0 2330 2343 2343 2343 2343 2333 2333 2333 2350 2355 2358 2359 2360 2360 2361 2361 2361 2363 2370 2370 2371 2376 2376 2376 2377 2377 2377 2391 2400 2403 2404 2404 2404 2404 2401 2401 2401 2412 2417 2420 2420 2424 2429 2439 2440 2440 0 0 0 0 0 0 0 0 0 0 0 0 0 0 0 0 0 0 0 0 0 0 0 0 0 0 0 0 2210 2214 2221 2229 2239 2244 2247 2250 2254 2258 2261 2266 2271 2274 2282 2290 2293 2294 2303 2308 2309 2312 2322 2333 2342 2344 2344 2346 2348 2355 2357 2358 2359 2364 2368 2376 2386 2396 2403 2405 2408 2411 2417 2423 2430 2430 2430 2430 2428 2423 2422 2417 2408 2372 2371 2332 0 0 0 0 0 0 0 0 0 0 0 0 0 0 0 2531 2548 2555 2556 2592 2637 2695 2718 2740 2740 2745 2750 2753 2766 2840 2840 2840 2838 2833 2814 2760 2634 2554 2458 0 0 0 0 0 0 0 0 0 0 0 0 0 0 0 0 0 0 0 2584 2647 2698 2715 2718 2722 2722 2722 2709 2709 2709 2708 2708 2708 2708 2708 2719 2719 2719 2718 2709 2700 2695 2682 2650 2607 2561 0 0 0 0 0 0 0 0 0 0 0 0 0 0 0 0 0 0 0 0 0 0 0 0 0 0 0 0 0 0 0 0 0 0 0 0 0 0 1857 1823 1783 1771 1762 1740 1723 1715 1715 1711 1703 1697 1692 1688 1684 1680 1677 1674 1670 1666 1662 1658 1655 1651 1648 1644 1639 1635 1629 1626 1621 1612 1599 1583 1561 1552 1547 1541 1534 1527 1523 1519 1517 1515 1512 1509 1507 1505 1504 1502 1502 1502 1502 1503 1503 1504 1505 1507 1510 1514 1516 1517 1520 1523 1525 1527 1528 1529 1530 1530 1530 1530 1528 1527 1526 1523 1522 1520 1518 1517 1515 1514 1512 1510 1509 1507 1506 1503 1501 1499 1498 1495 1493 1491 1488 1486 1484 1481 1478 1474 1471 1468 1464 1459 1454 1450 1445 1441 1438 1434 1433 1431 1430 1428 1428 1427 1426 1426 1426 1426 1426 1426 1426 1426 1426 1426 1426 1425 1425 1425 1425 1424 1423 1423 1422 1421 1420 1419 1418 1416 1415 1413 1411 1410 1408 1405 1402 1400 1397 1394 1391 1387 1383 1380 1376 1372 1368 1366 1363 1361 1359 1356 1354 1352 1351 1349 1349 1348 1347 1346 1346 1346 1346 1346 1346 1346 1346 1346 1346 1347 1347 1347 1348 1349 1349 1350 1351 1351 1351 1352 1352 1353 1353 1352 1352 1352 1351 1351 1351 1351 1351 1350 1350 1349 1348 1347 1347 1346 1346 1345 1343 1341 1340 1339 1336 1335 1333 1330 1329 1327 1325 1324 1323 1322 1320 1320 1319 1318 1318 1318 1318 1318 1319 1319 1320 1321 1322 1323 1324 1326 1328 1330 1333 1337 1341 1341 1344 1346 1350 1353 1354 1356 1360 1361 1365 1367 1370 1373 1377 1381 1384 1387 1390 1391 1392 1393 1393 1394 1395 1395 1395 1395 1395 1395 1394 1394 1393 1393 1392 1390 1389 1388 1386 1385 1383 1381 1380 1378 1377 1375 1374 1373 1373 1373 1373 1373 1373 1373 1375 1376 1378 1379 1383 1385 1386 1390 1400 1407 1414 1440 1449 1470 1483 1492 1504 1509 1509 1511 1512 1515 1515 1521 1515 1513 0 0 0 0 0 0 0 0 0 0 0 0 0 0 0 0 0 0 0 0 0 0 0 0 0 0 0 0 0 0 0 0 0 0 0 0 0 0 0 0 0 0 0 0 0 0 0
2002 2002 2014 2027 2042 2059 2071 2073 2079 2088 2115 2142 2165 2175 0 0 2322 2341 2343 2343 2343 2343 2343 2353 2356 2359 2359 2363 2363 2363 2360 2360 2360 2362 2364 2366 2368 2376 2376 2376 2375 2375 2375 2390 2400 2400 2400 2393 2388 2388 2386 2384 2384 2386 2395 2400 2405 2406 2416 2416 2416 0 0 0 0 0 0 0 0 0 0 0 0 0 0 0 0 0 0 0 0 0 2204 2191 2188 2188 2188 2189 2201 2212 2212 2216 2221 2229 2234 2237 2241 2250 2254 2258 2261 2266 2271 2274 2282 2290 2293 2294 2297 2304 2308 2309 2318 2327 2337 2337 2338 2339 2339 2346 2346 2348 2348 2352 2356 2362 2372 2380 2388 2391 2394 2398 2401 2408 2412 2419 2419 2419 2413 2406 2402 2400 2389 2372 2371 2338 0 0 0 0 0 0 0 0 0 0 0 0 0 0 0 0 2513 2529 2551 2562 2630 2663 2688 2705 2705 2705 2705 2705 2705 2740 2740 2740 2707 2639 2623 2554 2542 2511 2458 0 0 0 0 0 0 0 0 0 0 0 0 0 0 0 0 0 2544 2650 2701 2724 2725 2725 2725 2725 2725 2719 2707 2707 2707 2708 2708 2710 2710 2710 2722 2727 2727 2727 2715 2705 2700 2694 2670 2639 2615 2581 2537 0 0 0 0 0 0 0 0 0 0 0 0 0 0 0 0 0 0 0 0 0 0 0 0 0 0 0 0 0 0 0 0 0 0 0 0 1857 1819 1783 1768 1746 1734 1720 1714 1714 1709 1701 1694 1690 1684 1680 1678 1675 1673 1668 1663 1660 1657 1653 1649 1645 1642 1638 1634 1630 1626 1621 1615 1607 1590 1576 1560 1553 1546 1538 1529 1524 1520 1517 1515 1512 1509 1507 1505 1503 1501 1501 1500 1500 1500 1500 1501 1503 1503 1505 1508 1510 1512 1514 1517 1521 1524 1525 1526 1527 1527 1527 1527 1526 1525 1524 1522 1520 1518 1516 1515 1513 1512 1510 1509 1507 1505 1504 1501 1499 1497 1496 1495 1492 1490 1488 1485 1484 1481 1478 1475 1471 1469 1465 1461 1456 1452 1447 1442 1438 1435 1433 1431 1429 1427 1426 1425 1425 1425 1424 1424 1425 1425 1425 1425 1425 1425 1424 1424 1424 1424 1424 1423 1423 1422 1421 1421 1420 1419 1418 1416 1415 1413 1412 1410 1408 1406 1404 1401 1399 1396 1392 1390 1386 1382 1378 1375 1371 1368 1366 1363 1360 1358 1356 1354 1352 1351 1349 1348 1347 1347 1346 1346 1345 1345 1345 1345 1345 1346 1346 1347 1347 1347 1348 1349 1350 1350 1351 1351 1352 1352 1352 1353 1353 1352 1352 1352 1352 1352 1352 1352 1351 1350 1350 1350 1349 1349 1348 1347 1346 1345 1344 1342 1341 1339 1338 1336 1333 1332 1330 1329 1326 1324 1324 1322 1321 1320 1319 1318 1318 1318 1318 1318 1319 1319 1320 1320 1320 1322 1324 1326 1327 1329 1332 1335 1338 1339 1342 1345 1349 1351 1353 1356 1359 1361 1363 1365 1368 1371 1375 1378 1382 1384 1387 1390 1391 1392 1393 1393 1394 1395 1395 1395 1395 1395 1394 1394 1393 1393 1392 1390 1390 1388 1386 1385 1383 1382 1381 1379 1378 1375 1374 1374 1374 1374 1374 1374 1374 1374 1375 1376 1378 1379 1383 1383 1384 1389 1400 1410 1419 1440 1449 1471 1484 1491 1503 1508 1509 1511 1512 1512 1512 1521 1512 1511 0 0 0 0 0 0 0 0 0 0 0 0 0 0 0 0 0 0 0 0 0 0 0 0 0 0 0 0 0 0 0 0 0 0 0 0 0 0 0 0 0 0 0 0 0 0 0
2002 2002 2027 2040 2046 2059 2070 2071 2074 2086 2094 2117 2146 2152 0 2264 2316 2323 2332 2348 2363 2363 2371 2371 2371 2368 2368 2367 2366 2365 2354 2354 2354 2360 2363 2363 2366 2374 2374 2374 2373 2373 2373 2384 2392 2392 2392 2391 2380 2365 2363 2361 2356 2347 0 0 0 0 0 0 0 0 0 0 0 0 0 0 0 0 0 0 0 0 0 0 0 0 0 0 0 2230 2204 2191 2191 2191 2197 2202 2208 2212 2212 2216 2221 2225 2226 2233 2241 2250 2254 2258 2261 2266 2271 2274 2282 2287 2290 2291 2292 2297 2302 2307 2316 2326 2326 2326 2326 2326 2326 2327 2331 2331 2332 2338 2347 2354 2359 2367 2373 2377 2379 2379 2379 2379 2386 2392 2411 2411 2411 2404 2398 2388 2387 2379 2378 2376 2362 0 0 0 0 0 0 0 0 0 0 0 0 0 0 0 0 0 2540 2547 2604 2604 2613 2613 2613 2613 2613 2569 2555 2551 2545 2545 2551 2542 2519 2542 2542 2511 2511 2554 2596 2643 2643 2643 2602 2565 2528 2497 2493 0 0 0 0 0 2516 2611 2707 2740 2757 2757 2757 2740 2728 2725 2723 2714 2707 2707 2707 2708 2708 2711 2713 2717 2727 2727 2727 2727 2719 2716 2705 2694 2670 2648 2619 2595 2583 2562 2531 0 0 0 0 0 0 0 0 0 0 0 0 0 0 0 0 0 0 0 0 0 0 0 0 0 0 0 0 0 0 0 0 0 1868 1848 1803 1783 1765 1745 1725 1717 1713 1712 1707 1697 1692 1688 1682 1679 1676 1673 1669 1666 1663 1658 1656 1652 1648 1644 1641 1638 1634 1629 1626 1621 1616 1610 1598 1586 1576 1561 1553 1544 1533 1524 1520 1517 1515 1512 1509 1506 1503 1501 1500 1498 1498 1498 1498 1498 1499 1499 1501 1502 1503 1506 1509 1510 1512 1515 1519 1521 1522 1523 1523 1524 1524 1524 1523 1521 1519 1519 1516 1514 1512 1511 1510 1508 1507 1505 1503 1502 1500 1498 1496 1494 1493 1492 1489 1487 1485 1483 1481 1478 1475 1471 1469 1466 1462 1458 1453 1448 1443 1438 1435 1433 1431 1429 1427 1426 1424 1424 1424 1423 1423 1423 1423 1423 1423 1423 1423 1424 1423 1423 1423 1423 1423 1422 1422 1421 1420 1419 1419 1418 1416 1415 1414 1412 1410 1408 1406 1404 1403 1400 1397 1395 1392 1388 1384 1381 1377 1374 1370 1367 1365 1363 1359 1356 1354 1353 1351 1350 1349 1348 1347 1347 1346 1345 1345 1345 1345 1345 1345 1345 1346 1347 1347 1348 1349 1350 1350 1351 1351 1352 1352 1353 1353 1353 1353 1353 1353 1353 1352 1352 1352 1351 1351 1351 1351 1350 1350 1349 1348 1347 1346 1345 1344 1343 1340 1338 1336 1335 1333 1331 1330 1328 1326 1324 1322 1322 1320 1320 1319 1318 1318 1318 1318 1318 1318 1319 1320 1320 1322 1324 1325 1326 1329 1332 1335 1337 1339 1342 1345 1349 1351 1353 1356 1358 1360 1362 1364 1366 1371 1373 1377 1379 1383 1386 1388 1390 1391 1392 1393 1393 1394 1395 1395 1395 1395 1395 1394 1393 1393 1392 1391 1390 1389 1387 1386 1384 1382 1381 1380 1378 1377 1375 1374 1374 1374 1374 1374 1374 1374 1375 1377 1379 1381 1383 1383 1384 1389 1399 1411 1424 1440 1447 1472 1484 1491 1500 1504 1509 1510 1513 1513 1512 1521 1512 1511 0 0 0 0 0 0 0 0 0 0 0 0 0 0 0 0 0 0 0 0 0 0 0 0 0 0 0 0 0 0 0 0 0 0 0 0 0 0 0 0 0 0 0 0 0 0 0
2002 2002 2027 2040 2046 2059 2067 2068 2069 2083 2083 2099 2122 2126 2187 2239 2266 2295 2322 2341 2363 2372 2379 2379 2379 2378 2376 2368 2367 2353 2341 2340 2340 2340 2340 2341 2355 2370 2370 2373 2373 2373 2373 2380 2380 0 0 0 0 0 0 0 0 0 0 0 0 0 0 0 0 0 0 0 0 0 0 0 0 2216 2216 2216 2208 2208 2208 2210 2220 2221 2221 2221 2208 2202 2194 2191 2191 2191 2197 2202 2208 2212 2212 2214 2219 2222 2223 2226 2233 2240 2247 2250 2255 2260 2268 2269 2273 2280 2286 2288 2288 2290 2294 2300 2304 2309 2310 2310 2312 2313 2313 2313 2314 2315 2320 2330 2339 2350 2353 2355 2362 2369 2369 2369 2371 2373 2380 2385 2386 2397 2397 2397 2390 2386 2385 2384 2384 2384 2384 2384 0 0 0 0 0 0 0 0 0 0 0 0 0 0 0 0 0 0 2513 2513 2513 0 0 0 0 0 0 0 0 0 2480 2519 2519 2542 2555 2555 2599 2657 2701 2721 2721 2721 2688 2663 2628 2581 2536 2531 2531 2531 2568 2630 2691 2737 2762 2777 2777 2777 2770 2749 2733 2725 2723 2714 2707 2707 2707 2713 2714 2717 2719 2724 2727 2727 2727 2727 2719 2716 2705 2694 2670 2648 2621 2601 2587 2585 2562 2524 0 0 0 0 0 0 0 0 0 0 0 0 0 0 0 1670 1669 1666 1654 1654 1654 1646 1646 1633 1633 0 0 0 0 0 0 0 1806 1806 1793 1780 1765 1744 1725 1714 1711 1707 1701 1694 1687 1682 1680 1678 1675 1671 1668 1663 1660 1656 1653 1649 1647 1644 1641 1638 1633 1629 1626 1622 1617 1610 1602 1592 1581 1573 1561 1552 1538 1529 1520 1518 1515 1512 1509 1506 1502 1499 1498 1497 1497 1496 1496 1496 1496 1497 1498 1499 1500 1501 1505 1506 1507 1510 1514 1517 1518 1519 1520 1520 1521 1521 1521 1518 1517 1516 1514 1513 1511 1510 1508 1506 1505 1503 1502 1500 1498 1497 1495 1494 1491 1490 1489 1486 1484 1482 1480 1478 1475 1471 1469 1466 1463 1459 1454 1449 1444 1440 1436 1433 1432 1429 1427 1425 1424 1423 1423 1422 1422 1422 1422 1422 1422 1422 1422 1422 1422 1422 1422 1422 1422 1422 1421 1420 1419 1419 1418 1417 1416 1415 1413 1412 1410 1408 1406 1405 1403 1401 1399 1396 1393 1390 1386 1383 1380 1376 1372 1370 1367 1364 1361 1358 1356 1353 1353 1351 1349 1348 1348 1347 1346 1345 1345 1345 1345 1345 1345 1345 1346 1347 1347 1348 1349 1350 1350 1351 1351 1352 1352 1353 1353 1353 1353 1353 1353 1353 1353 1353 1352 1352 1352 1352 1351 1351 1350 1350 1349 1348 1347 1346 1344 1343 1342 1340 1337 1336 1334 1333 1331 1328 1327 1325 1324 1322 1321 1320 1319 1318 1318 1318 1318 1318 1318 1318 1319 1319 1320 1322 1324 1326 1329 1332 1335 1337 1339 1342 1345 1349 1351 1353 1356 1358 1360 1362 1364 1366 1369 1372 1374 1378 1381 1385 1386 1388 1391 1392 1393 1393 1394 1394 1395 1395 1395 1395 1394 1393 1393 1392 1391 1390 1389 1387 1386 1384 1383 1381 1380 1378 1377 1376 1376 1375 1375 1375 1375 1375 1375 1376 1378 1379 1381 1383 1384 1384 1389 1399 1411 1424 1430 1447 1472 1483 1491 1497 1502 1509 1514 1514 1514 1514 1521 1513 1512 0 0 0 0 0 0 0 0 0 0 0 0 0 0 0 0 0 0 0 0 0 0 0 0 0 0 0 0 0 0 0 0 0 0 0 0 0 0 0 0 0 0 0 0 0 0 0
1993 1993 2027 2040 2046 2049 2054 2064 2066 2072 2078 2091 2116 2126 2169 2207 2224 2264 2298 2341 2363 2372 2379 2379 2379 2378 2376 2368 2367 2337 2322 2320 2319 2316 2316 2313 2316 2335 2362 2370 2370 2370 0 0 0 0 0 0 0 0 0 0 0 0 0 0 0 0 0 0 0 0 0 0 2178 2168 2168 2168 2168 2173 2178 2178 2180 2180 2181 2188 2192 2195 2195 2195 2190 2186 2186 2186 2186 2191 2197 2202 2208 2212 2212 2212 2213 2214 2219 2221 2226 2233 2240 2242 2248 2251 2255 2260 2264 2269 2275 2276 2277 2278 2279 2284 2285 2286 2288 2288 2291 2294 2301 2305 2310 2311 2316 2327 2338 2344 2345 2347 2352 2361 2364 2365 2367 2372 2372 2372 2374 2374 2377 2377 2379 2379 2379 2379 2381 2384 2384 2384 2379 2371 2349 0 0 0 0 0 0 0 0 0 0 0 0 0 0 0 0 0 0 2473 2470 2387 0 0 0 0 0 0 2480 2519 2598 2617 2649 2673 2736 2752 2752 2752 2745 2734 2716 2709 2698 2678 2678 2678 2691 2696 2712 2731 2740 2749 2762 2777 2777 2777 2770 2758 2738 2727 2723 2714 2711 2711 2711 2715 2721 2724 2726 2726 2725 2724 2722 2721 2719 2716 2705 2691 2670 2650 2630 2609 2595 2585 2577 2557 0 0 0 0 0 0 0 0 0 0 0 0 0 0 1669 1666 1663 1661 1654 1654 1650 1646 1646 1633 1627 1627 1627 1656 1679 0 0 1793 1793 1793 1786 1772 1751 1741 1723 1712 1706 1702 1697 1688 1685 1682 1680 1676 1673 1669 1665 1661 1657 1653 1650 1647 1645 1642 1640 1636 1632 1629 1626 1622 1618 1611 1604 1597 1586 1577 1570 1559 1548 1535 1525 1518 1515 1512 1506 1504 1501 1498 1496 1496 1495 1494 1494 1494 1494 1494 1495 1496 1496 1498 1499 1502 1503 1506 1509 1511 1513 1515 1516 1517 1517 1517 1517 1516 1515 1514 1513 1511 1509 1507 1507 1505 1504 1502 1500 1498 1498 1495 1493 1492 1490 1488 1486 1484 1483 1480 1479 1477 1473 1471 1469 1466 1463 1459 1455 1451 1447 1440 1436 1434 1432 1429 1427 1425 1423 1422 1421 1421 1421 1420 1420 1421 1421 1421 1421 1421 1421 1421 1421 1421 1421 1421 1421 1420 1419 1419 1418 1417 1416 1415 1413 1412 1410 1408 1406 1405 1403 1401 1400 1397 1394 1392 1389 1385 1383 1380 1375 1372 1369 1367 1362 1359 1356 1355 1353 1352 1351 1349 1348 1347 1347 1345 1345 1345 1345 1345 1345 1345 1346 1347 1347 1348 1348 1350 1350 1351 1352 1352 1352 1353 1353 1353 1353 1353 1353 1353 1353 1353 1353 1352 1352 1352 1352 1352 1351 1350 1349 1349 1348 1347 1345 1344 1342 1341 1338 1337 1335 1333 1331 1329 1327 1326 1324 1323 1322 1320 1320 1319 1319 1318 1318 1318 1318 1318 1319 1319 1320 1322 1324 1326 1329 1331 1335 1337 1339 1342 1346 1349 1351 1353 1356 1358 1360 1362 1364 1366 1369 1372 1374 1378 1380 1383 1386 1388 1390 1392 1392 1393 1394 1394 1395 1395 1395 1395 1394 1394 1393 1393 1391 1390 1389 1387 1386 1385 1384 1381 1380 1379 1378 1377 1376 1376 1376 1375 1375 1376 1376 1377 1379 1380 1382 1385 1386 1386 1390 1399 1411 1424 1429 1447 1471 1483 1492 1496 1502 1508 1514 1514 1516 1519 1521 1520 1519 0 0 0 0 0 0 0 0 0 0 0 0 0 0 0 0 0 0 0 0 0 0 0 0 0 0 0 0 0 0 0 0 0 0 0 0 0 0 0 0 0 0 0 0 0 0 0
1993 1993 2013 2031 2037 2040 2042 2042 2042 2055 2075 2091 2108 2121 2154 2176 2208 2262 2294 2322 2359 2372 2379 2379 2379 2378 2376 2368 2365 2317 2286 2275 0 0 0 0 0 0 0 0 0 0 0 0 0 0 0 0 0 0 0 0 0 0 0 0 0 0 0 2117 2125 2134 2139 2139 2139 2137 2137 2137 2142 2145 2148 2152 2152 2153 2159 2165 2173 2181 2182 2182 2182 2177 2176 2176 2176 2184 2192 2198 2200 2202 2203 2205 2209 2210 2215 2219 2225 2228 2232 2236 2237 2239 2242 2247 2249 2254 2259 2263 2263 2264 2268 2268 2268 2269 2271 2272 2276 2282 2291 2295 2297 2304 2310 2323 2330 2332 2333 2334 2340 2349 2353 2355 2358 2361 2361 2361 2361 2361 2361 2362 2366 2369 2372 2374 2381 2384 2384 2384 2379 2378 2371 2366 2361 0 0 0 0 0 0 0 0 0 0 0 0 0 0 0 2450 2450 2450 2387 2362 0 0 0 0 0 2613 2683 2706 2767 2767 2772 2772 2772 2768 2755 2745 2743 2743 2743 2745 2745 2747 2751 2751 2751 2744 2744 2744 2753 2762 2777 2777 2777 2770 2758 2749 2736 2726 2721 2715 2715 2715 2717 2724 2724 2724 2724 2723 2722 2722 2721 2714 2704 2695 2678 2664 2650 2643 2629 2610 2598 2586 2571 2526 0 0 0 0 0 0 0 0 0 0 0 0 1661 1656 1656 1653 1658 1653 1655 1653 1653 1647 1633 1627 1627 1627 1656 1679 1690 1724 1782 1786 1786 1786 1761 1743 1734 1722 1709 1702 1697 1693 1686 1683 1680 1677 1673 1670 1667 1664 1658 1655 1650 1647 1646 1643 1640 1638 1635 1632 1629 1625 1622 1618 1612 1607 1599 1593 1586 1574 1566 1555 1545 1535 1524 1515 1512 1506 1504 1499 1497 1496 1495 1493 1492 1492 1491 1491 1491 1491 1492 1494 1495 1496 1498 1500 1501 1504 1507 1508 1510 1512 1513 1513 1513 1513 1513 1512 1511 1510 1508 1507 1505 1505 1503 1502 1500 1498 1497 1496 1494 1492 1491 1489 1487 1485 1483 1481 1479 1478 1475 1472 1470 1468 1465 1463 1459 1456 1452 1447 1443 1438 1435 1433 1429 1427 1425 1422 1422 1421 1420 1420 1419 1419 1419 1419 1419 1419 1420 1420 1420 1420 1420 1420 1420 1420 1419 1419 1418 1417 1416 1416 1414 1413 1412 1410 1408 1407 1405 1404 1402 1400 1398 1396 1394 1391 1388 1385 1382 1379 1375 1373 1369 1365 1361 1358 1356 1354 1353 1352 1350 1348 1347 1347 1346 1345 1345 1344 1344 1344 1345 1345 1347 1347 1348 1348 1349 1350 1351 1351 1352 1352 1353 1353 1353 1353 1353 1353 1353 1354 1354 1353 1353 1353 1353 1353 1352 1352 1351 1350 1349 1348 1348 1346 1345 1343 1341 1340 1338 1336 1334 1333 1330 1329 1327 1325 1324 1323 1321 1320 1319 1319 1318 1318 1318 1318 1318 1319 1319 1320 1322 1324 1326 1329 1332 1335 1337 1341 1343 1346 1350 1352 1355 1357 1358 1361 1362 1364 1366 1369 1372 1374 1376 1379 1381 1384 1386 1389 1391 1392 1393 1394 1394 1395 1395 1395 1395 1394 1394 1394 1393 1392 1391 1389 1387 1386 1385 1384 1382 1381 1380 1378 1378 1377 1377 1377 1376 1376 1376 1377 1378 1379 1381 1383 1385 1388 1390 1392 1399 1410 1423 1429 1447 1469 1481 1492 1496 1502 1507 1514 1514 1521 1531 1531 1536 1536 0 0 0 0 0 0 0 0 0 0 0 0 0 0 0 0 0 0 0 0 0 0 0 0 0 0 0 0 0 0 0 0 0 0 0 0 0 0 0 0 0 0 0 0 0 0 0
1993 1993 2009 2021 2032 2040 2042 2042 2042 2055 2075 2091 2107 2119 2135 2156 2196 2253 2276 2295 2323 2337 2359 2359 2359 2359 2353 2351 2344 2314 2234 0 0 0 0 0 0 0 0 0 0 0 0 0 0 0 0 0 2091 2091 2091 2091 2091 2088 2084 2077 2077 2077 2081 2084 2096 2107 2116 2118 2118 2118 2118 2118 2123 2128 2133 2136 2138 2142 2146 2154 2161 2169 2174 2174 2174 2169 2167 2167 2167 2171 2183 2190 2192 2195 2198 2203 2205 2206 2210 2214 2219 2225 2225 2226 2227 2229 2231 2235 2238 2244 2253 2255 2255 2255 2254 2254 2254 2257 2262 2264 2268 2273 2279 2284 2287 2292 2300 2310 2320 2321 2321 2323 2328 2335 2336 2339 2341 2341 2341 2342 2343 2345 2351 2358 2361 2363 2364 2364 2364 2365 2366 2371 2373 2373 2376 2376 2376 2369 2369 2359 0 0 0 0 0 0 0 0 0 0 0 0 2449 2449 2449 2387 2387 2387 0 0 0 2591 2726 2789 2789 2789 2780 2780 2776 2772 2768 2755 2745 2745 2745 2746 2750 2751 2757 2759 2759 2759 2749 2749 2749 2754 2762 2766 2766 2766 2766 2759 2753 2744 2734 2727 2720 2720 2720 2721 2728 2728 2728 2724 2723 2722 2722 2721 2714 2703 2687 2670 2659 2650 2645 2638 2625 2615 2604 2590 2561 0 0 0 0 0 0 0 0 0 0 0 0 1656 1650 1650 1650 1653 1653 1655 1653 1653 1647 1635 1627 1627 1627 1656 1672 1690 1724 1780 1782 1782 1782 1757 1740 1732 1718 1706 1699 1695 1690 1685 1681 1677 1674 1671 1668 1665 1661 1656 1652 1649 1646 1644 1642 1638 1635 1633 1630 1628 1624 1622 1618 1614 1608 1602 1598 1593 1584 1572 1562 1551 1541 1534 1525 1512 1506 1504 1499 1497 1496 1495 1493 1491 1490 1489 1489 1489 1489 1490 1491 1492 1494 1495 1497 1498 1501 1503 1505 1506 1508 1510 1510 1510 1510 1510 1510 1509 1508 1507 1505 1504 1502 1502 1500 1499 1498 1496 1494 1493 1490 1489 1487 1486 1483 1481 1479 1477 1476 1473 1472 1469 1466 1464 1461 1459 1456 1453 1448 1443 1438 1435 1433 1430 1427 1425 1422 1421 1420 1419 1419 1418 1418 1418 1418 1418 1418 1418 1418 1418 1419 1419 1419 1419 1419 1419 1418 1418 1417 1416 1414 1414 1413 1411 1410 1408 1407 1405 1404 1402 1401 1399 1398 1395 1392 1390 1387 1385 1382 1378 1375 1373 1368 1364 1360 1357 1356 1354 1352 1351 1350 1348 1347 1346 1345 1345 1344 1344 1344 1345 1345 1346 1347 1348 1348 1349 1350 1351 1351 1352 1352 1353 1353 1353 1354 1354 1354 1354 1354 1354 1354 1354 1354 1354 1353 1353 1353 1352 1351 1350 1349 1349 1347 1345 1343 1342 1341 1339 1337 1335 1334 1331 1330 1328 1327 1325 1324 1322 1321 1320 1319 1318 1318 1318 1318 1318 1319 1319 1321 1322 1324 1326 1329 1332 1335 1339 1342 1345 1348 1352 1354 1356 1357 1359 1362 1363 1365 1367 1369 1372 1374 1376 1379 1381 1384 1386 1388 1390 1392 1393 1393 1394 1394 1395 1395 1395 1395 1394 1394 1393 1392 1391 1389 1388 1387 1385 1384 1383 1382 1380 1380 1379 1378 1378 1377 1377 1377 1377 1377 1378 1380 1381 1383 1387 1389 1392 1395 1399 1410 1421 1429 1447 1463 1476 1492 1496 1501 1503 1505 1506 1516 1532 1548 1548 1548 0 0 0 0 0 0 0 0 0 0 0 0 0 0 0 0 0 0 0 0 0 0 0 0 0 0 0 0 0 0 0 0 0 0 0 0 0 0 0 0 0 0 0 0 0 0 0
1985 1985 2006 2018 2032 2038 2038 2042 2042 2055 2070 2091 2101 2119 2124 2143 2177 2212 2236 0 0 0 0 0 0 0 0 0 0 0 0 0 0 0 0 0 0 0 0 0 0 0 0 0 2058 2058 2056 2056 2056 2056 2060 2060 2060 2059 2058 2055 2055 2055 2063 2065 2078 2089 2099 2105 2105 2105 2105 2105 2110 2115 2121 2129 2132 2135 2136 2141 2146 2154 2162 2165 2165 2165 2160 2159 2159 2159 2168 2178 2185 2192 2197 2200 2203 2204 2206 2209 2215 2221 2221 2221 2222 2222 2226 2231 2236 2238 2245 2248 2248 2248 2248 2248 2248 2251 2257 2260 2264 2265 2270 2275 2280 2284 2289 2296 2305 2306 2309 2309 2316 2321 2324 2325 2326 2329 2332 2334 2334 2337 2343 2354 2358 2358 2358 2355 2355 2355 2355 2360 2366 2367 2368 2378 2378 2373 2373 2373 2369 2368 0 0 0 0 0 0 2278 2278 2322 2362 2447 2465 2465 2465 2464 2459 2459 2464 2501 2591 2726 2789 2789 2789 2780 2780 2776 2772 2768 2753 2744 2744 2744 2746 2750 2751 2757 2759 2759 2759 2754 2754 2754 2754 2761 2761 2761 2761 2761 2759 2756 2750 2742 2735 2730 2727 2727 2727 2729 2729 2729 2724 2723 2721 2719 2717 2712 2703 2687 2670 2659 2650 2648 2642 2632 2617 2609 2590 2567 2519 0 0 0 0 0 0 0 0 0 0 0 1656 1647 1647 1647 1651 1653 1655 1655 1653 1650 1636 1636 1636 1638 1656 1672 1696 1724 1780 1780 1780 1780 1754 1736 1728 1717 1703 1696 1692 1688 1684 1680 1675 1672 1668 1666 1663 1658 1655 1651 1648 1646 1643 1639 1636 1634 1631 1628 1626 1623 1620 1618 1614 1610 1603 1599 1595 1590 1582 1571 1563 1551 1541 1536 1526 1511 1504 1499 1497 1496 1495 1493 1491 1490 1489 1489 1488 1488 1488 1488 1489 1489 1491 1493 1495 1496 1499 1501 1503 1505 1507 1507 1507 1507 1507 1507 1506 1506 1505 1504 1502 1501 1500 1498 1498 1496 1494 1493 1492 1489 1487 1485 1484 1481 1480 1478 1476 1475 1473 1470 1468 1465 1463 1460 1458 1456 1453 1448 1443 1440 1436 1433 1431 1427 1425 1423 1421 1419 1418 1418 1418 1417 1417 1417 1417 1417 1417 1417 1418 1418 1418 1418 1418 1418 1418 1417 1417 1416 1416 1414 1414 1412 1411 1410 1408 1407 1405 1404 1403 1401 1400 1398 1396 1394 1392 1390 1387 1384 1381 1378 1375 1372 1366 1362 1359 1357 1354 1353 1351 1350 1349 1347 1346 1345 1345 1344 1344 1344 1344 1345 1346 1347 1348 1348 1349 1350 1350 1351 1352 1352 1353 1353 1353 1354 1354 1354 1354 1354 1354 1354 1354 1354 1354 1354 1354 1353 1352 1352 1350 1350 1349 1348 1347 1345 1343 1341 1340 1338 1337 1335 1332 1331 1330 1327 1326 1324 1322 1322 1320 1319 1319 1318 1318 1318 1319 1319 1320 1321 1323 1325 1327 1330 1335 1339 1343 1346 1348 1350 1353 1355 1356 1358 1360 1362 1365 1366 1368 1370 1372 1374 1376 1379 1381 1383 1386 1388 1389 1391 1392 1393 1394 1394 1394 1394 1394 1394 1394 1394 1393 1392 1391 1390 1388 1387 1386 1384 1383 1382 1381 1380 1380 1379 1379 1379 1379 1379 1379 1379 1380 1381 1382 1385 1387 1390 1393 1397 1400 1410 1417 1429 1447 1461 1474 1483 1493 1497 1503 1505 1506 1516 1535 1569 1580 1580 1580 0 0 0 0 0 0 0 0 0 0 0 0 0 0 0 0 0 0 0 0 0 0 0 0 0 0 0 0 0 0 0 0 0 0 0 0 0 0 0 0 0 0 0 0 0 0
1983 1983 1996 2011 2023 2032 2035 2037 2038 2055 2070 2087 2092 2104 2108 2139 2157 0 0 0 0 0 0 0 0 0 0 0 0 0 0 0 0 2049 2041 2041 2041 2043 2043 2043 2037 2035 2033 2033 2032 2032 2032 2034 2036 2041 2045 2045 2046 2047 2045 2047 2047 2048 2057 2063 2068 2078 2087 2091 2092 2093 2093 2094 2099 2108 2116 2122 2126 2127 2128 2130 2134 2143 2150 2153 2155 2155 2155 2150 2150 2150 2157 2168 2181 2191 2196 2198 2201 2203 2204 2208 2213 2217 2217 2217 2219 2220 2222 2227 2231 2232 2237 2240 2241 2241 2241 2242 2242 2243 2253 2257 2258 2260 2264 2266 2270 2274 2278 2283 2290 2294 2295 2298 2307 2310 2314 2314 2314 2316 2322 2326 2329 2335 2340 2348 2355 2355 2355 2350 2349 2349 2349 2349 2353 2356 2361 2367 2378 2379 2383 2386 2386 2386 2380 2372 2372 2359 2343 2319 2319 2319 2323 2362 2417 2465 2465 2465 2464 2459 2459 2464 2501 2591 2726 2789 2789 2789 2776 2769 2768 2766 2762 2752 2744 2744 2744 2746 2750 2751 2757 2759 2759 2759 2754 2754 2754 2756 2759 2760 2760 2760 2759 2758 2757 2753 2748 2747 2742 2739 2737 2736 2734 2730 2727 2723 2723 2722 2719 2717 2711 2700 2687 2670 2659 2651 2649 2646 2636 2625 2610 2591 2567 2537 0 0 0 0 0 0 0 0 0 0 0 0 1647 1647 1647 1651 1651 1652 1652 1650 1649 1649 1648 1648 1648 1656 1679 1702 1740 1780 1780 1780 1762 1747 1731 1723 1713 1701 1695 1691 1686 1682 1677 1673 1669 1666 1664 1660 1656 1653 1650 1647 1644 1641 1637 1635 1632 1630 1628 1626 1622 1620 1618 1614 1610 1604 1599 1596 1591 1587 1581 1574 1565 1551 1540 1535 1523 1510 1504 1500 1498 1496 1494 1491 1490 1488 1487 1487 1486 1486 1486 1486 1486 1487 1489 1490 1494 1495 1497 1500 1502 1503 1503 1505 1505 1505 1505 1504 1503 1503 1501 1500 1499 1498 1496 1495 1494 1493 1492 1490 1488 1486 1484 1482 1480 1478 1476 1474 1473 1471 1470 1467 1465 1462 1460 1457 1456 1453 1449 1445 1441 1437 1435 1432 1429 1425 1423 1421 1419 1418 1417 1417 1417 1416 1416 1416 1416 1416 1417 1417 1417 1417 1417 1417 1417 1416 1416 1415 1415 1414 1414 1413 1411 1411 1410 1408 1407 1405 1404 1403 1401 1400 1398 1397 1395 1392 1391 1388 1386 1383 1380 1377 1374 1370 1365 1361 1358 1356 1353 1352 1350 1349 1348 1347 1346 1345 1345 1344 1344 1344 1345 1346 1347 1348 1348 1349 1349 1350 1351 1351 1352 1353 1353 1353 1354 1354 1354 1355 1355 1355 1355 1355 1355 1355 1354 1354 1353 1353 1352 1352 1350 1349 1348 1347 1345 1344 1342 1341 1339 1337 1336 1333 1332 1330 1329 1327 1325 1324 1322 1321 1319 1319 1319 1319 1319 1319 1319 1320 1322 1324 1326 1327 1331 1337 1343 1346 1348 1350 1353 1356 1357 1358 1360 1362 1365 1366 1368 1369 1372 1373 1374 1377 1380 1381 1383 1385 1387 1388 1390 1392 1392 1393 1393 1394 1394 1394 1394 1394 1393 1393 1392 1391 1390 1388 1387 1386 1385 1384 1383 1382 1382 1380 1380 1379 1379 1379 1380 1380 1380 1382 1384 1384 1386 1388 1391 1394 1399 1404 1411 1417 1431 1447 1461 1473 1483 1490 1497 1503 1505 1506 1516 1546 1597 1609 1609 1609 0 0 0 0 0 0 0 0 0 0 0 0 0 0 0 0 0 0 0 0 0 0 0 0 0 0 0 0 0 0 0 0 0 0 0 0 0 0 0 0 0 0 0 0 0 0
