0 0 0 0 0 0 0 0 0 0 0 0 0 0 0 0 0 0 0 0 0 0 0 0 0 0 0 0 0 0 0 0 0 0 0 0 0 0 0 0 0 0 0 0 0 0 0 0 2537 2587 2635 2672 2674 2674 2674 2674 2674 2702 2724 2724 2724 2718 2702 2702 2702 2711 2714 2735 2745 2753 2801 2836 2884 2935 2975 2993 3001 3037 3062 3101 3101 3101 3105 3113 3117 3121 3131 3137 3138 3142 3146 3154 3171 3171 3174 3176 3176 3179 3188 3191 3194 3194 3194 3194 3194 3208 3221 3229 3230 3232 3240 3248 3264 3275 3282 3289 3298 3308 3308 3310 3316 3316 3316 3320 3332 3349 3356 3365 3367 3383 3386 3386 3386 3386 3386 3386 3392 3393 3395 3411 3411 3411 3404 3401 3401 3401 3409 3415 3416 3417 3421 3428 3435 3448 3456 3456 3456 3460 3461 3461 3471 3473 3474 3475 3487 3506 3519 3532 3539 3540 3544 3552 3568 3569 3569 3569 3569 3566 3566 3566 3570 3582 3582 3582 3574 3574 3574 3595 3632 3647 3647 3647 3640 3638 3638 3638 3639 3645 3652 3667 3681 3682 3683 3683 3681 3669 3648 3647 3647 3647 3647 3648 3649 3648 3647 3649 3650 3652 3666 3689 3700 3701 3701 3701 3704 3715 3733 3733 3733 3718 3718 3718 3718 3724 3732 3737 3737 3737 3733 3729 3717 3712 3712 3711 3706 3705 3705 3705 3724 3725 3736 3736 3736 3672 3500 3190 3036 2976 2976 2976 3156 3565 3972 4081 4092 4092 4092 4092 4092 4091 4091 4091 4091 4091 4091 4091 4092 4092 4092 4091 4091 4091 4091 4091 4091 4091 4090 4089 4084 4080 4056 4056 4056 4056 4059 4064 4070 4077 4083 4089 4089 4089 4089 4088 4087 4087 4086 4084 4083 4079 4077 4076 4066 4054 4039 4025 4013 4000 3942 3857 3326 0 0 0 0 0 0 1629 1620 1613 1607 1603 1603 1603 1603 1603 1601 1601 1600 1599 1597 1596 1596 1596 1596 1596 1596 1595 1593 1590 1588 1587 1585 1584 1584 1583 1583 1583 1581 1579 1578 1576 1575 1575 1572 1569 1569 1568 1567 1567 1565 1564 1563 1562 1560 1558 1557 1556 1555 1554 1552 1551 1549 1548 1547 1547 1547 1545 1542 1539 1537 1535 1535 1535 1537 1537 1537 1535 1534 1534 1533 1532 1530 1530 1529 1528 1527 1526 1525 1523 1522 1522 1521 1520 1519 1519 1517 1516 1514 1513 1512 1510 1509 1508 1507 1507 1507 1505 1503 1503 1501 1499 1498 1497 1496 1495 1494 1494 1493 1492 1491 1490 1489 1488 1487 1487 1486 1486 1485 1484 1484 1483 1482 1480 1479 1476 1475 1473 1471 1467 1465 1463 1461 1458 1456 1454 1453 1452 1451 1451 1450 1449 1447 1447 1446 1446 1446 1446 1446 1446 1446 1446 1447 1447 1446 1446 1446 1446 1444 1442 1441 1440 1438 1433 1432 1431 1428 1426 1424 1421 1421 1419 1417 1415 1413 1413 1412 1410 1409 1409 1409 1410 1410 1411 1411 1411 1411 1411 1412 1418 1419 1419 1419 1419 1419 1417 1417 1416 1415 1415 1414 1413 1412 1411 1411 1409 1408 1406 1406 1404 1402 1400 1400 1397 1394 1394 1393 1393 1392 1392 1391 1391 1391 1391 1391 1392 1392 1392 1391 1391 1391 1391 1391 1391 1390 1390 1390 1390 1389 1389 1388 1388 1388 1394 1396 1398 1398 1400 1410 0 0 0 0 0 0 1779 1779 1779 1777 1776 1776 1776 1781 1785 1792 1795 1795 1797 1798 1799 1800 1801 1803 1806 1808 1809 1809 1811 1816 1820 1820 1821 1826 1828 1829 1829 1829 1830 1830 1830 1828 1828 1828 1830 1831 1834 1837 1840 1843 1845 1845 1849 1849
0 0 0 0 0 0 0 0 0 0 0 0 0 0 0 0 0 0 0 0 0 0 0 0 0 0 0 0 0 0 0 0 0 0 0 0 0 0 0 0 0 0 0 0 0 0 0 0 0 2541 2634 2672 2674 2674 2674 2674 2674 2688 2688 2688 2687 2662 2640 2640 2640 2669 2673 2701 2733 2750 2765 2777 2811 2850 2906 2953 2978 2993 3023 3053 3090 3096 3103 3110 3110 3120 3125 3133 3137 3139 3146 3154 3171 3177 3177 3179 3179 3179 3187 3198 3200 3205 3205 3205 3205 3212 3229 3232 3236 3238 3240 3248 3264 3276 3284 3290 3298 3308 3308 3312 3316 3316 3316 3320 3332 3349 3364 3382 3384 3389 3391 3393 3394 3394 3398 3407 3412 3418 3418 3418 3412 3408 3403 3403 3403 3405 3410 3415 3416 3417 3421 3431 3440 3445 3450 3453 3453 3455 3461 3461 3471 3473 3473 3475 3487 3506 3519 3532 3539 3540 3544 3552 3568 3571 3571 3571 3571 3567 3567 3567 3569 3580 3580 3580 3574 3574 3574 3593 3632 3647 3647 3647 3640 3634 3633 3633 3633 3642 3652 3667 3680 3681 3682 3681 3681 3669 3648 3641 3641 3641 3648 3653 3655 3655 3655 3655 3655 3657 3666 3689 3700 3701 3701 3701 3704 3715 3733 3733 3733 3718 3718 3718 3718 3724 3732 3737 3737 3737 3733 3720 3705 3699 3698 3697 3693 3693 3693 3693 3695 3698 3698 3695 3663 3615 3394 3121 2952 2952 2952 2976 3229 3782 3990 4081 4092 4092 4092 4092 4092 4091 4091 4091 4091 4091 4091 4091 4092 4092 4092 4091 4087 4087 4086 4083 4083 4067 4040 4038 4035 4033 4024 4006 4006 4006 4032 4053 4062 4073 4083 4089 4089 4089 4089 4089 4088 4088 4086 4085 4084 4081 4078 4078 4074 4063 4051 4038 4028 4000 3936 3857 3046 0 0 0 0 0 0 0 1625 1613 1607 1603 1602 1600 1600 1599 1599 1599 1598 1597 1596 1596 1596 1595 1596 1595 1593 1593 1593 1590 1588 1587 1585 1583 1583 1581 1580 1579 1578 1576 1573 1573 1573 1572 1571 1567 1565 1565 1564 1564 1564 1563 1562 1562 1559 1557 1556 1555 1553 1552 1551 1549 1548 1547 1547 1546 1546 1544 1542 1538 1536 1535 1535 1535 1535 1535 1534 1534 1534 1534 1533 1530 1530 1530 1528 1527 1526 1524 1523 1522 1522 1521 1520 1519 1518 1516 1516 1514 1514 1512 1511 1509 1509 1507 1505 1505 1504 1504 1501 1500 1499 1499 1497 1496 1496 1495 1494 1492 1492 1492 1491 1490 1489 1488 1487 1487 1486 1486 1485 1484 1484 1482 1481 1480 1478 1476 1475 1473 1471 1467 1465 1463 1461 1459 1457 1455 1454 1452 1452 1451 1450 1449 1448 1447 1446 1446 1446 1446 1446 1446 1446 1447 1447 1447 1447 1447 1446 1445 1444 1442 1440 1440 1438 1433 1430 1428 1427 1424 1422 1420 1419 1418 1417 1414 1412 1411 1410 1409 1409 1409 1409 1409 1409 1409 1409 1409 1409 1409 1410 1417 1418 1418 1418 1418 1417 1416 1416 1415 1414 1413 1413 1412 1411 1409 1409 1408 1407 1405 1404 1403 1402 1397 1396 1393 1392 1392 1392 1392 1391 1389 1386 1386 1386 1388 1390 1391 1391 1391 1391 1390 1390 1390 1390 1390 1390 1390 1389 1388 1387 1387 1387 1388 1388 1388 1389 1390 1391 1391 1392 1405 1405 0 0 0 0 0 1769 1774 1774 1774 1774 1774 1775 1781 1784 1786 1794 1794 1797 1797 1798 1798 1801 1803 1806 1807 1807 1810 1814 1816 1818 1820 1824 1825 1825 1825 1825 1825 1825 1825 1826 1827 1828 1830 1831 1834 1837 1840 1843 1845 1845 1849 1849
0 0 0 0 0 0 0 0 0 0 0 0 0 0 0 0 0 0 0 0 0 0 0 0 0 0 0 0 0 0 0 0 0 0 0 0 0 0 0 0 0 0 0 0 0 0 0 0 0 0 0 2672 2674 2674 2674 2671 2671 2671 2671 2671 2662 2662 2640 2640 2640 2649 2652 2682 2708 2734 2734 2745 2761 2793 2823 2851 2900 2927 2970 3001 3036 3064 3096 3105 3110 3117 3124 3133 3137 3139 3146 3154 3171 3177 3177 3180 3180 3180 3188 3198 3205 3209 3214 3216 3222 3232 3245 3245 3245 3252 3252 3252 3264 3277 3284 3290 3301 3308 3314 3314 3316 3316 3317 3326 3344 3369 3384 3399 3399 3399 3395 3395 3395 3400 3411 3421 3430 3430 3430 3420 3412 3406 3406 3406 3409 3414 3415 3416 3416 3418 3427 3435 3440 3444 3445 3452 3455 3457 3459 3461 3471 3473 3473 3474 3487 3506 3519 3532 3539 3539 3542 3550 3571 3572 3572 3572 3571 3568 3568 3568 3569 3579 3579 3579 3571 3571 3571 3593 3632 3647 3647 3647 3632 3625 3625 3625 3628 3642 3652 3667 3680 3681 3682 3681 3681 3669 3648 3640 3640 3640 3650 3668 3668 3668 3667 3658 3658 3658 3666 3689 3700 3701 3701 3701 3702 3702 3720 3720 3720 3718 3718 3718 3718 3723 3724 3734 3734 3734 3731 3720 3701 3685 3678 3678 3678 3682 3682 3682 3678 3664 3653 3631 3619 3555 3286 3040 2908 2908 0 0 3236 3818 3992 4092 4092 4092 4092 4092 4092 4091 4091 4091 4091 4092 4092 4092 4092 4091 4067 3994 3994 3994 4000 4010 4021 4021 4024 4026 4026 4020 4010 3998 3998 3998 4029 4051 4062 4071 4083 4091 4091 4091 4090 4089 4089 4088 4087 4085 4085 4081 4079 4079 4075 4068 4059 4048 4032 4000 3916 3711 2764 0 0 0 0 0 0 0 1632 1614 1607 1603 1601 1599 1598 1598 1598 1598 1597 1596 1595 1594 1594 1592 1592 1592 1593 1593 1593 1590 1587 1586 1584 1582 1581 1579 1577 1576 1574 1573 1571 1571 1570 1570 1568 1565 1563 1563 1563 1563 1563 1563 1561 1559 1558 1557 1555 1554 1552 1550 1549 1548 1547 1547 1542 1541 1541 1539 1539 1537 1535 1535 1535 1535 1535 1534 1534 1534 1533 1532 1532 1530 1529 1529 1527 1525 1524 1523 1522 1522 1521 1519 1518 1517 1516 1514 1514 1513 1511 1511 1509 1508 1507 1504 1503 1502 1502 1502 1501 1499 1498 1497 1497 1495 1495 1494 1493 1492 1492 1491 1490 1489 1489 1488 1487 1487 1486 1486 1485 1484 1483 1482 1481 1479 1478 1475 1474 1473 1471 1467 1465 1463 1460 1459 1458 1456 1455 1454 1452 1452 1450 1449 1448 1448 1447 1447 1447 1447 1447 1447 1447 1448 1448 1448 1447 1446 1446 1445 1443 1441 1440 1439 1436 1432 1430 1428 1426 1423 1421 1419 1418 1417 1415 1413 1410 1409 1409 1408 1408 1408 1408 1408 1407 1407 1407 1404 1404 1404 1405 1409 1413 1414 1415 1416 1416 1416 1415 1414 1414 1413 1412 1410 1408 1407 1406 1406 1404 1403 1403 1402 1398 1396 1395 1393 1391 1390 1389 1388 1386 1385 1385 1385 1385 1386 1388 1388 1389 1389 1389 1389 1389 1389 1389 1389 1389 1388 1388 1388 1387 1387 1387 1388 1388 1388 1388 1385 1385 1385 1385 1392 1393 1404 0 0 0 0 1739 1767 1773 1773 1773 1773 1773 1775 1775 1778 1789 1794 1794 1795 1797 1797 1798 1801 1804 1804 1805 1805 1809 1814 1816 1818 1822 1823 1823 1823 1821 1821 1821 1822 1824 1826 1828 1830 1833 1835 1837 1840 1843 1845 1845 1849 1849
0 0 0 0 0 0 0 0 0 0 0 0 0 0 0 0 0 0 0 0 0 0 0 0 0 0 0 0 0 0 0 0 0 0 0 0 0 0 0 0 0 0 0 0 0 0 0 0 0 0 0 0 2611 2640 2643 2653 2653 2654 2656 2656 2656 2651 2640 2639 2634 2634 2634 2652 2673 2686 2691 2699 2710 2741 2775 2805 2833 2904 2905 2942 2970 2992 3032 3066 3096 3111 3120 3129 3131 3134 3143 3147 3165 3177 3177 3181 3181 3181 3188 3198 3205 3210 3216 3223 3237 3250 3259 3261 3261 3261 3261 3261 3270 3277 3282 3292 3301 3308 3314 3316 3316 3316 3328 3342 3345 3369 3384 3399 3399 3399 3395 3395 3395 3400 3411 3421 3430 3430 3430 3420 3412 3406 3406 3406 3409 3419 3419 3422 3422 3422 3427 3435 3436 3438 3440 3445 3449 3456 3457 3459 3461 3469 3470 3473 3487 3504 3514 3521 3531 3532 3537 3547 3567 3573 3573 3573 3571 3568 3568 3567 3567 3569 3569 3569 3570 3571 3571 3589 3604 3610 3614 3616 3617 3617 3617 3618 3628 3642 3669 3680 3683 3684 3683 3683 3683 3675 3661 3646 3646 3646 3653 3673 3673 3673 3667 3661 3661 3661 3667 3669 3687 3687 3687 3696 3696 3697 3711 3711 3714 3717 3716 3714 3714 3716 3716 3720 3725 3725 3725 3718 3701 3680 3663 3663 3663 3678 3678 3678 3677 3661 3644 3614 3581 3490 3172 2987 2908 2908 2908 0 3352 3818 4006 4092 4092 4092 4092 4092 4092 4091 4091 4091 4091 4092 4092 4092 4092 4049 3915 3781 3781 3781 3819 3827 3851 3853 3862 3882 3960 3960 3962 3981 3981 3981 4000 4020 4042 4069 4083 4091 4091 4091 4090 4089 4089 4088 4087 4087 4086 4081 4080 4080 4077 4069 4060 4050 4034 3994 3864 3636 2723 0 0 0 0 0 0 0 1635 1623 1609 1603 1602 1599 1598 1598 1597 1596 1595 1594 1593 1592 1591 1590 1590 1590 1590 1590 1590 1590 1587 1584 1581 1578 1578 1576 1576 1574 1572 1571 1569 1569 1569 1567 1565 1563 1560 1560 1560 1559 1559 1559 1558 1557 1556 1556 1553 1551 1550 1548 1548 1547 1546 1543 1541 1538 1536 1535 1535 1534 1535 1535 1534 1534 1534 1533 1533 1533 1532 1532 1531 1530 1527 1527 1526 1525 1522 1521 1521 1521 1519 1518 1517 1517 1515 1514 1512 1510 1510 1509 1509 1506 1504 1503 1502 1501 1501 1501 1499 1499 1498 1497 1495 1495 1494 1494 1493 1492 1491 1490 1490 1489 1488 1488 1487 1487 1486 1485 1485 1484 1483 1482 1481 1479 1477 1475 1473 1472 1471 1468 1465 1463 1460 1459 1458 1456 1455 1454 1453 1452 1450 1449 1448 1448 1448 1448 1448 1449 1449 1449 1449 1449 1448 1448 1447 1446 1446 1445 1443 1441 1440 1438 1436 1432 1430 1428 1426 1423 1420 1418 1416 1415 1413 1412 1410 1409 1408 1408 1408 1407 1407 1406 1406 1405 1404 1402 1402 1402 1402 1404 1408 1410 1411 1414 1414 1414 1414 1412 1412 1412 1411 1409 1407 1406 1405 1404 1404 1402 1401 1401 1395 1394 1394 1391 1389 1387 1385 1384 1383 1383 1383 1383 1384 1384 1385 1386 1387 1387 1389 1389 1389 1389 1389 1388 1388 1388 1387 1387 1386 1386 1386 1386 1386 1386 1385 1384 1384 1384 1385 1391 1391 1399 1420 0 0 0 0 1746 1772 1772 1772 1772 1772 1772 1772 1774 1785 1791 1791 1792 1796 1796 1796 1799 1801 1803 1803 1803 1807 1813 1815 1817 1820 1823 1823 1823 1820 1820 1820 1822 1824 1825 1828 1831 1834 1836 1837 1837 1838 1840 1840 1842 1842
0 0 0 0 0 0 0 0 0 0 0 0 0 0 0 0 0 0 0 0 0 0 0 0 0 0 0 0 0 0 0 0 0 0 0 0 0 0 0 0 0 0 0 0 0 0 0 0 0 0 0 0 0 0 2610 2626 2626 2636 2637 2636 2637 2639 2639 2636 2629 2619 2619 2619 2630 2633 2634 2634 2661 2689 2728 2756 2819 2864 2865 2867 2885 2887 2935 2992 3058 3082 3092 3112 3116 3118 3132 3134 3151 3165 3176 3177 3181 3181 3187 3195 3202 3215 3217 3236 3246 3250 3265 3275 3275 3275 3271 3271 3271 3277 3282 3292 3309 3318 3319 3320 3324 3326 3329 3342 3345 3369 3384 3399 3399 3399 3389 3389 3389 3400 3411 3421 3430 3430 3430 3428 3416 3412 3412 3412 3424 3429 3429 3429 3427 3427 3427 3428 3434 3435 3435 3442 3449 3456 3457 3459 3461 3469 3470 3475 3488 3502 3509 3513 3519 3525 3533 3547 3565 3573 3573 3573 3571 3568 3562 3561 3561 3561 3561 3564 3565 3566 3574 3574 3574 3575 3575 3585 3606 3616 3617 3618 3628 3652 3679 3683 3684 3686 3688 3688 3688 3688 3678 3659 3656 3656 3656 3673 3673 3673 3668 3665 3665 3664 3664 3654 3654 3654 3657 3661 3666 3690 3711 3711 3714 3715 3715 3714 3714 3715 3716 3720 3720 3720 3716 3706 3701 3680 3663 3663 3663 3678 3678 3678 3674 3661 3638 3604 3552 3351 3070 2957 2912 2912 2912 3073 3713 3874 4041 4092 4092 4092 4092 4092 4092 4092 4092 4092 4092 4092 4092 4092 4077 3995 3861 3419 3169 3124 3124 3124 3192 3269 3370 3643 3767 3818 3866 3866 3866 3876 3878 3890 3953 4046 4083 4091 4091 4091 4090 4089 4089 4089 4088 4087 4087 4087 4087 4087 4081 4070 4062 4055 4034 3985 3838 3397 2510 0 0 0 0 0 0 0 0 1623 1611 1605 1602 1599 1598 1597 1597 1595 1594 1593 1591 1590 1590 1590 1590 1587 1587 1587 1587 1587 1585 1581 1576 1575 1575 1575 1574 1573 1571 1570 1569 1567 1565 1563 1560 1560 1560 1559 1559 1557 1557 1557 1556 1555 1554 1552 1551 1548 1547 1546 1546 1544 1542 1541 1540 1536 1534 1533 1532 1532 1532 1533 1533 1533 1531 1531 1530 1530 1529 1528 1528 1527 1527 1526 1524 1523 1522 1520 1520 1519 1518 1517 1516 1515 1513 1512 1511 1510 1508 1507 1506 1504 1502 1502 1502 1500 1500 1499 1498 1497 1497 1496 1495 1494 1494 1493 1493 1492 1491 1490 1489 1488 1487 1487 1487 1486 1485 1484 1484 1484 1483 1481 1480 1479 1477 1474 1473 1471 1471 1468 1465 1463 1461 1460 1458 1456 1455 1454 1453 1452 1451 1449 1448 1448 1448 1448 1449 1449 1449 1449 1449 1449 1448 1448 1447 1446 1446 1445 1443 1441 1440 1438 1436 1432 1430 1428 1425 1423 1420 1417 1415 1413 1412 1411 1409 1408 1408 1408 1407 1406 1405 1404 1403 1400 1398 1398 1398 1399 1401 1403 1406 1410 1410 1410 1411 1411 1411 1411 1411 1411 1409 1408 1406 1404 1404 1402 1402 1401 1398 1395 1393 1393 1392 1391 1386 1384 1384 1383 1383 1382 1381 1381 1381 1381 1381 1383 1385 1386 1387 1387 1387 1387 1387 1387 1387 1387 1387 1386 1386 1386 1386 1385 1384 1384 1384 1383 1383 1383 1384 1389 1391 1399 1410 0 0 0 0 1744 1768 1768 1771 1771 1771 1771 1771 1772 1782 1788 1788 1790 1793 1795 1796 1797 1799 1800 1801 1803 1807 1810 1814 1816 1818 1819 1819 1819 1818 1818 1818 1821 1822 1825 1828 1831 1835 1838 1838 1838 1837 1837 1837 1838 1838
0 0 0 0 0 0 0 0 0 0 0 0 0 0 0 0 0 0 0 0 0 0 0 0 0 0 0 0 0 0 0 0 0 0 0 0 0 0 0 0 0 0 0 0 0 0 0 0 0 0 0 0 0 0 0 0 2516 2575 2592 2592 2617 2632 2632 2632 2628 2615 2612 2612 2611 2610 2593 2593 2593 2614 2668 2714 2799 2834 2834 2837 2849 2851 2903 2954 2987 3032 3081 3097 3111 3113 3122 3125 3144 3152 3166 3173 3175 3181 3183 3188 3200 3210 3229 3240 3249 3251 3265 3275 3285 3285 3285 3284 3278 3278 3278 3292 3309 3320 3330 3330 3330 3331 3336 3342 3351 3351 3367 3378 3386 3387 3387 3389 3389 3400 3409 3412 3413 3422 3428 3428 3428 3427 3424 3424 3427 3430 3430 3430 3428 3428 3428 3428 3434 3435 3435 3442 3449 3457 3457 3470 3470 3470 3470 3479 3489 3500 3501 3501 3503 3521 3533 3550 3565 3566 3566 3566 3557 3557 3555 3554 3554 3554 3554 3564 3565 3566 3575 3575 3575 3575 3575 3585 3606 3616 3617 3618 3633 3656 3680 3683 3685 3688 3691 3691 3691 3691 3686 3667 3660 3660 3660 3670 3670 3670 3670 3670 3670 3670 3665 3650 3636 3636 3636 3650 3666 3690 3709 3709 3714 3714 3714 3714 3714 3714 3716 3720 3720 3720 3716 3706 3699 3680 3663 3663 3663 3678 3678 3678 3672 3661 3638 3604 3497 3264 3025 2929 2929 2929 2984 3167 3820 3985 4058 4092 4092 4092 4092 4092 4092 4092 4092 4092 4092 4092 4092 4092 4069 3962 3689 3316 3169 3102 3102 3097 0 3122 3141 3141 3160 3256 3278 3300 3428 3536 3615 3670 3775 3840 3923 3962 3979 4007 4021 4066 4089 4089 4089 4088 4088 4088 4088 4088 4081 4070 4065 4055 4034 3966 3825 3187 0 0 0 0 0 0 0 0 0 0 1614 1605 1601 1598 1598 1597 1596 1593 1591 1590 1590 1588 1587 1587 1587 1586 1584 1584 1583 1582 1580 1577 1573 1573 1573 1572 1572 1572 1571 1568 1567 1563 1561 1558 1558 1557 1557 1557 1557 1556 1555 1553 1553 1552 1551 1550 1549 1547 1546 1544 1542 1542 1539 1537 1537 1536 1534 1532 1531 1529 1528 1528 1528 1528 1529 1529 1529 1529 1527 1527 1527 1527 1526 1525 1523 1521 1520 1519 1518 1517 1517 1516 1515 1514 1513 1511 1510 1508 1507 1506 1504 1502 1502 1501 1501 1499 1498 1497 1496 1495 1495 1495 1494 1494 1494 1493 1492 1491 1490 1489 1489 1487 1487 1486 1485 1485 1484 1484 1484 1483 1481 1481 1479 1478 1476 1474 1472 1471 1470 1468 1465 1463 1461 1459 1458 1456 1455 1454 1452 1452 1451 1449 1448 1448 1448 1449 1449 1449 1449 1449 1449 1448 1448 1447 1446 1445 1445 1444 1443 1441 1439 1438 1435 1433 1431 1428 1425 1423 1420 1417 1415 1413 1412 1411 1409 1408 1408 1406 1406 1406 1405 1403 1401 1400 1398 1398 1398 1399 1401 1403 1405 1407 1407 1408 1408 1409 1409 1409 1409 1409 1408 1406 1403 1401 1400 1400 1398 1393 1390 1389 1389 1389 1388 1388 1384 1383 1382 1382 1382 1381 1380 1379 1379 1379 1379 1381 1382 1383 1384 1384 1385 1385 1386 1386 1386 1386 1385 1385 1385 1385 1384 1384 1384 1382 1382 1382 1382 1383 1384 1389 1390 1397 1402 1410 0 0 0 0 1751 1768 1769 1769 1769 1769 1769 1769 1778 1783 1784 1784 1788 1791 1793 1794 1795 1797 1798 1799 1802 1806 1811 1811 1813 1815 1815 1815 1816 1816 1817 1817 1819 1822 1827 1831 1835 1837 1837 1837 1835 1831 1831 1831 1831
0 0 0 0 0 0 0 0 0 0 0 0 0 0 0 0 0 0 0 0 0 0 0 0 0 0 0 0 0 0 0 0 0 0 0 0 0 0 0 0 0 0 0 0 0 0 0 0 0 0 0 0 0 0 0 0 0 0 2513 2519 2534 2534 2559 2611 2611 2611 2608 2608 2607 2606 2593 2570 2570 2570 2622 2673 2728 2774 2791 2794 2796 2808 2847 2880 2905 2932 2982 3015 3057 3084 3099 3106 3110 3130 3142 3143 3150 3161 3165 3182 3194 3209 3229 3240 3249 3251 3265 3275 3285 3285 3285 3284 3278 3278 3278 3293 3310 3320 3330 3330 3330 3331 3337 3345 3351 3352 3354 3359 3373 3380 3386 3387 3391 3396 3397 3398 3402 3405 3421 3432 3432 3432 3427 3427 3427 3431 3431 3431 3431 3431 3431 3429 3434 3435 3435 3442 3451 3461 3470 3471 3474 3474 3481 3486 3492 3493 3494 3497 3503 3521 3533 3552 3565 3565 3565 3550 3542 3539 3537 3537 3537 3545 3554 3564 3565 3570 3575 3575 3575 3575 3575 3585 3606 3619 3623 3629 3639 3662 3682 3688 3688 3690 3691 3693 3693 3693 3692 3677 3669 3669 3669 3669 3669 3670 3670 3670 3670 3670 3664 3650 3636 3636 3636 3650 3666 3689 3709 3709 3714 3714 3714 3714 3715 3716 3720 3721 3720 3720 3716 3705 3699 3689 3686 3681 3681 3681 3681 3681 3674 3661 3638 3596 3461 3163 2969 2919 2919 2919 3009 3306 3869 4027 4065 4092 4092 4092 4092 4092 4092 4092 4092 4092 4092 4092 4092 4092 4043 3848 3523 3298 3169 3095 3040 3040 3040 3044 3058 3087 3088 3091 3139 3158 3192 3238 3240 3247 3271 3348 3530 3682 3718 3790 3901 4055 4082 4088 4088 4088 4088 4088 4088 4088 4081 4072 4065 4055 4025 3913 3768 3104 0 0 0 0 0 0 0 0 0 0 1616 1605 1601 1598 1597 1595 1595 1593 1591 1589 1588 1587 1586 1585 1585 1584 1583 1582 1581 1580 1577 1575 1572 1571 1571 1570 1570 1570 1568 1565 1563 1559 1555 1554 1554 1554 1554 1554 1554 1552 1552 1550 1550 1548 1548 1548 1547 1547 1544 1543 1541 1540 1538 1536 1535 1534 1532 1531 1529 1526 1525 1524 1524 1524 1524 1525 1525 1525 1525 1526 1526 1526 1523 1522 1521 1521 1519 1519 1518 1516 1516 1515 1513 1512 1511 1509 1509 1508 1505 1503 1501 1500 1499 1498 1497 1496 1494 1493 1493 1493 1494 1494 1494 1493 1493 1493 1492 1490 1490 1488 1487 1487 1486 1485 1484 1484 1483 1483 1483 1482 1481 1480 1478 1477 1475 1473 1471 1469 1469 1466 1465 1462 1461 1460 1458 1455 1455 1453 1452 1452 1451 1449 1448 1448 1448 1449 1449 1449 1449 1449 1448 1448 1447 1447 1446 1445 1445 1443 1442 1440 1438 1437 1435 1433 1431 1428 1425 1423 1420 1417 1415 1413 1412 1411 1409 1407 1407 1405 1405 1405 1404 1402 1400 1400 1398 1398 1398 1399 1401 1403 1405 1407 1407 1408 1408 1408 1408 1408 1408 1407 1407 1406 1402 1400 1398 1394 1393 1392 1390 1388 1386 1385 1385 1385 1383 1382 1382 1382 1380 1379 1379 1378 1378 1378 1379 1380 1381 1381 1383 1383 1384 1384 1384 1384 1384 1384 1384 1384 1383 1383 1383 1383 1383 1382 1381 1381 1381 1382 1383 1384 1386 1387 1392 1407 0 0 0 0 1734 1758 1764 1766 1769 1769 1769 1769 1769 1777 1777 1782 1784 1788 1790 1793 1795 1796 1796 1798 1801 1802 1805 1806 1807 1807 1808 1809 1810 1811 1813 1813 1815 1819 1824 1830 1834 1835 1835 1835 1833 1831 1831 1831 1831
0 0 0 0 0 0 0 0 0 0 0 0 0 0 0 0 0 0 0 0 0 0 0 0 0 0 0 0 0 0 0 0 0 0 0 0 0 0 0 0 0 0 0 0 0 0 0 0 0 0 0 0 0 0 0 0 0 0 0 0 0 0 2508 2538 2577 2602 2604 2604 2602 2602 2587 2570 2570 2570 2582 2631 2678 2709 2733 2736 2751 2776 2799 2832 2848 2855 2881 2935 2963 3000 3005 3031 3035 3074 3114 3125 3128 3135 3148 3165 3184 3204 3229 3240 3249 3250 3255 3269 3284 3284 3284 3284 3280 3280 3280 3293 3311 3320 3330 3330 3330 3331 3340 3347 3351 3352 3353 3354 3360 3376 3383 3388 3392 3396 3397 3398 3400 3405 3421 3432 3432 3432 3427 3423 3423 3423 3431 3431 3438 3440 3440 3441 3442 3445 3450 3459 3470 3472 3472 3471 3474 3474 3481 3486 3486 3488 3493 3494 3503 3521 3537 3552 3554 3554 3554 3550 3542 3520 3520 3520 3524 3544 3557 3573 3573 3577 3579 3580 3580 3590 3606 3611 3615 3627 3633 3636 3649 3669 3689 3694 3698 3698 3698 3696 3696 3695 3693 3690 3690 3685 3680 3670 3667 3667 3667 3671 3671 3671 3669 3650 3636 3636 3636 3650 3670 3681 3700 3709 3709 3711 3714 3714 3719 3720 3721 3724 3721 3720 3715 3704 3699 3692 3688 3681 3681 3680 3680 3679 3674 3661 3636 3564 3389 3162 2963 2909 0 0 3047 3641 3892 4033 4091 4092 4092 4092 4091 4091 4091 4091 4091 4092 4092 4092 4092 4092 3994 3832 3491 3260 3169 3074 0 0 0 2928 2943 2956 3018 3091 3139 3152 3180 3191 3191 3191 3188 3188 3188 3264 3416 3790 3901 4055 4082 4089 4089 4089 4089 4089 4089 4087 4081 4072 4065 4055 4000 3880 3567 2642 0 0 0 0 0 0 0 0 0 0 1629 1607 1604 1598 1594 1594 1593 1592 1591 1588 1586 1585 1584 1583 1583 1582 1579 1579 1578 1577 1576 1575 1571 1569 1568 1568 1568 1566 1565 1562 1560 1557 1552 1552 1552 1554 1554 1554 1552 1551 1550 1549 1549 1547 1547 1547 1546 1545 1544 1542 1541 1539 1536 1535 1534 1532 1531 1528 1526 1523 1522 1521 1521 1521 1521 1521 1521 1521 1521 1521 1521 1521 1520 1519 1519 1519 1518 1518 1515 1515 1513 1513 1511 1510 1508 1508 1507 1507 1504 1501 1499 1497 1497 1495 1495 1495 1493 1493 1493 1493 1493 1493 1493 1493 1492 1491 1490 1489 1488 1487 1487 1486 1485 1484 1484 1483 1483 1482 1481 1480 1479 1478 1477 1475 1474 1472 1471 1469 1467 1466 1463 1462 1461 1460 1456 1454 1454 1453 1453 1452 1451 1449 1449 1449 1449 1449 1449 1449 1449 1449 1449 1448 1447 1447 1446 1445 1444 1442 1441 1440 1438 1437 1436 1433 1431 1429 1425 1423 1421 1418 1417 1416 1414 1411 1409 1407 1406 1405 1404 1404 1403 1402 1400 1400 1399 1399 1399 1399 1402 1403 1405 1406 1407 1407 1408 1408 1408 1407 1407 1406 1406 1402 1401 1395 1393 1392 1391 1390 1389 1386 1383 1383 1383 1382 1382 1380 1380 1378 1376 1375 1375 1375 1376 1377 1378 1380 1380 1381 1381 1382 1382 1382 1382 1383 1383 1383 1383 1383 1383 1383 1382 1382 1381 1381 1380 1379 1379 1379 1380 1381 1383 1383 1389 1390 1405 0 0 0 0 1751 1760 1763 1767 1767 1767 1767 1767 1775 1775 1778 1779 1783 1788 1791 1794 1794 1795 1796 1798 1800 1800 1802 1804 1806 1806 1806 1806 1807 1807 1808 1808 1813 1820 1827 1832 1834 1834 1834 1832 1831 1831 1831 1831
0 0 0 0 0 0 0 0 0 0 0 0 0 0 0 0 0 0 0 0 0 0 0 0 0 0 0 0 0 0 0 0 0 0 0 0 0 0 0 0 0 0 0 0 0 0 0 0 0 0 0 0 0 0 0 0 0 0 0 0 0 0 0 2504 2563 2574 2574 2577 2581 2581 2581 2570 2570 2570 2574 2596 2643 2670 2677 2690 2706 2730 2744 2750 2762 2790 2809 2835 2842 2846 2896 2954 2958 3001 3048 3088 3093 3095 3099 3121 3149 3175 3207 3229 3229 3232 3232 3233 3240 3252 3252 3252 3268 3268 3278 3292 3311 3320 3320 3323 3323 3326 3342 3347 3350 3350 3351 3351 3360 3374 3377 3395 3395 3396 3397 3398 3400 3405 3421 3432 3432 3432 3427 3423 3423 3423 3431 3434 3440 3445 3455 3455 3456 3456 3456 3464 3474 3474 3474 3471 3471 3471 3481 3481 3481 3486 3493 3494 3514 3521 3537 3552 3554 3554 3554 3550 3542 3520 3520 3520 3524 3542 3569 3588 3588 3588 3584 3584 3584 3612 3638 3642 3646 3657 3666 3667 3671 3684 3700 3710 3712 3712 3712 3712 3703 3697 3697 3697 3697 3697 3686 3670 3665 3665 3665 3671 3671 3671 3670 3652 3647 3647 3647 3652 3670 3681 3685 3688 3702 3702 3702 3703 3721 3722 3724 3725 3724 3724 3715 3704 3696 3691 3691 3691 3690 3690 3688 3678 3672 3660 3627 3522 3362 3131 2940 0 0 0 3078 3682 3942 4033 4092 4092 4092 4091 4091 4091 4091 4091 4091 4092 4092 4092 4092 4092 3947 3696 3278 3221 3124 0 0 0 0 0 0 2902 3018 3091 3131 3139 3139 3131 3147 3143 3143 3147 3152 3221 3416 3790 3901 4055 4082 4089 4089 4089 4089 4089 4089 4086 4081 4070 4064 4053 3996 3851 3367 0 0 2339 2314 2298 0 0 0 0 0 0 0 1610 1604 1598 1594 1593 1591 1591 1589 1585 1584 1584 1583 1582 1582 1581 1578 1577 1577 1576 1572 1569 1567 1566 1565 1565 1564 1563 1561 1560 1559 1556 1552 1552 1552 1552 1552 1552 1550 1550 1549 1549 1548 1547 1547 1545 1545 1545 1542 1541 1540 1538 1535 1534 1533 1531 1528 1526 1525 1523 1520 1519 1519 1519 1519 1519 1519 1518 1518 1517 1517 1517 1517 1517 1517 1517 1517 1516 1514 1514 1512 1511 1510 1508 1507 1506 1506 1504 1502 1500 1498 1496 1494 1494 1493 1493 1492 1492 1492 1492 1492 1491 1491 1490 1490 1489 1488 1487 1487 1486 1485 1485 1484 1484 1483 1482 1481 1480 1480 1479 1478 1477 1476 1474 1473 1471 1469 1467 1465 1464 1462 1461 1461 1459 1456 1454 1453 1453 1452 1452 1451 1450 1450 1449 1449 1449 1449 1449 1449 1449 1449 1448 1447 1447 1445 1445 1443 1442 1441 1439 1438 1437 1436 1433 1431 1429 1425 1423 1421 1420 1417 1416 1414 1411 1409 1407 1406 1405 1404 1403 1403 1402 1400 1400 1400 1400 1400 1401 1402 1403 1406 1407 1407 1407 1407 1406 1406 1406 1406 1406 1405 1401 1397 1395 1392 1391 1390 1388 1387 1385 1382 1382 1382 1381 1381 1380 1378 1377 1375 1374 1374 1374 1374 1376 1378 1378 1378 1379 1380 1380 1380 1380 1381 1381 1382 1382 1382 1382 1382 1382 1381 1381 1380 1380 1379 1379 1378 1377 1377 1378 1379 1383 1383 1383 1385 0 0 0 0 0 1754 1763 1765 1765 1765 1762 1762 1762 1773 1775 1777 1783 1786 1788 1791 1792 1793 1794 1796 1797 1797 1797 1801 1801 1803 1804 1804 1804 1805 1806 1807 1811 1817 1824 1829 1831 1832 1832 1832 1830 1830 1830 1830
0 0 0 0 0 0 0 0 0 0 0 0 0 0 0 0 0 0 0 0 0 0 0 0 0 0 0 0 0 0 0 0 0 0 0 0 0 0 0 0 0 0 0 0 0 0 0 0 0 0 0 0 0 0 0 0 0 0 0 0 0 0 0 0 0 0 2507 2511 2511 2546 2566 2566 2570 2570 2574 2594 2618 2635 2635 2640 2650 2677 2684 2687 2689 2708 2726 2739 2765 2790 2790 2831 2832 2905 2967 2989 3009 3011 3037 3065 3102 3153 3170 3174 3182 3184 3191 3191 3196 3220 3226 3237 3242 3249 3273 3292 3292 3296 3299 3299 3299 3320 3342 3347 3347 3348 3350 3350 3359 3374 3377 3395 3400 3400 3397 3400 3400 3401 3421 3431 3431 3431 3427 3423 3423 3423 3431 3434 3440 3445 3455 3455 3456 3456 3456 3464 3474 3474 3474 3470 3461 3461 3461 3462 3469 3472 3481 3499 3521 3522 3532 3537 3537 3546 3546 3546 3546 3520 3520 3520 3524 3542 3570 3605 3605 3605 3595 3595 3595 3614 3638 3646 3683 3685 3689 3690 3693 3699 3713 3715 3715 3718 3715 3713 3712 3701 3701 3700 3698 3698 3686 3668 3665 3665 3665 3670 3670 3670 3670 3663 3658 3652 3652 3652 3665 3666 3666 3666 3667 3675 3679 3692 3722 3722 3724 3725 3722 3720 3715 3696 3696 3696 3696 3703 3703 3703 3688 3678 3668 3652 3616 3493 3320 3128 0 0 0 2909 3220 3847 3942 4035 4092 4092 4092 4091 4091 4091 4091 4091 4091 4091 4092 4092 4092 4063 3921 3696 3242 3143 2971 0 0 0 0 0 0 2902 3018 3097 3097 3097 3073 3073 3073 3075 3137 3137 3143 3221 3416 3840 4024 4090 4090 4090 4089 4089 4089 4089 4089 4086 4077 4062 4053 4039 3961 3834 3069 0 2354 2321 2321 2321 2286 0 0 0 0 0 0 1621 1606 1597 1592 1590 1589 1589 1587 1585 1584 1582 1581 1580 1578 1578 1577 1575 1573 1569 1569 1568 1566 1564 1564 1563 1561 1561 1560 1560 1558 1556 1552 1552 1552 1552 1552 1552 1550 1550 1549 1549 1548 1547 1545 1544 1544 1542 1542 1540 1538 1535 1535 1533 1531 1530 1528 1526 1525 1522 1520 1518 1518 1518 1517 1516 1516 1516 1516 1515 1515 1515 1515 1516 1516 1516 1515 1514 1514 1512 1512 1511 1509 1508 1506 1504 1503 1502 1501 1499 1498 1494 1493 1492 1492 1491 1490 1490 1490 1490 1490 1490 1489 1489 1488 1488 1487 1486 1485 1485 1484 1483 1482 1482 1481 1480 1480 1479 1479 1478 1477 1476 1474 1473 1471 1469 1468 1466 1464 1462 1461 1460 1458 1455 1455 1454 1452 1452 1452 1451 1451 1451 1450 1450 1449 1449 1449 1449 1449 1449 1449 1448 1447 1447 1445 1444 1443 1442 1440 1439 1438 1436 1435 1433 1431 1428 1425 1423 1422 1420 1417 1416 1414 1411 1409 1407 1405 1405 1404 1403 1403 1402 1400 1400 1400 1402 1402 1403 1403 1404 1406 1407 1407 1407 1407 1406 1405 1405 1405 1405 1405 1401 1397 1394 1392 1391 1389 1387 1385 1383 1381 1381 1381 1380 1380 1379 1378 1376 1375 1374 1374 1374 1374 1375 1376 1376 1376 1377 1377 1378 1378 1379 1380 1380 1381 1381 1381 1381 1381 1380 1380 1380 1380 1379 1379 1377 1376 1376 1376 1376 1378 1379 1381 1382 1385 1388 0 0 0 0 1735 1762 1765 1765 1765 1762 1759 1759 1759 1769 1776 1782 1784 1786 1788 1790 1790 1791 1792 1794 1794 1795 1800 1800 1801 1803 1803 1804 1805 1806 1806 1810 1817 1822 1826 1829 1831 1831 1831 1831 1831 1833 1833
0 0 0 0 0 0 0 0 0 0 0 0 0 0 0 0 0 0 0 0 0 0 0 0 0 0 0 0 0 0 0 0 0 0 0 0 0 0 0 0 0 0 0 0 0 0 0 0 0 0 0 0 0 0 0 0 0 0 0 0 0 0 0 0 0 0 0 0 0 0 2554 2554 2559 2566 2566 2590 2608 2608 2608 2608 2608 2610 2612 2612 2631 2642 2667 2691 2716 2721 2742 2788 2802 2802 2802 2788 2788 2788 2809 2861 2928 2988 3044 3067 3070 3073 3075 3107 3135 3164 3166 3175 3179 3207 3253 3253 3256 3256 3256 3256 3267 3310 3321 3325 3327 3327 3339 3348 3355 3373 3376 3395 3400 3400 3397 3400 3400 3401 3421 3431 3431 3431 3423 3423 3423 3423 3431 3434 3439 3445 3455 3455 3456 3456 3456 3464 3474 3474 3474 3470 3461 3461 3461 3462 3469 3472 3481 3506 3513 3516 3518 3518 3520 3536 3557 3557 3557 3557 3542 3542 3542 3542 3573 3605 3605 3605 3606 3606 3606 3630 3638 3646 3683 3686 3711 3714 3716 3724 3739 3739 3739 3727 3725 3725 3723 3723 3714 3706 3704 3698 3686 3668 3665 3665 3665 3670 3674 3677 3677 3677 3675 3655 3653 3653 3653 3652 3649 3647 3647 3647 3678 3692 3721 3721 3724 3721 3719 3717 3691 3691 3691 3701 3712 3712 3712 3703 3685 3667 3655 3629 3573 3400 3186 0 0 0 0 2931 3390 3847 3978 4072 4092 4092 4092 4091 4091 4091 4091 4091 4091 4091 4092 4092 4092 4063 3921 3696 3238 3083 0 0 0 0 0 0 0 2902 3066 3123 3123 3123 3058 0 0 0 0 3118 3126 3221 3687 3928 4039 4090 4090 4090 4090 4090 4090 4089 4089 4085 4070 4056 4046 4013 3911 3520 2503 0 0 2356 2356 2356 0 0 0 0 0 0 0 0 1609 1597 1591 1590 1589 1587 1587 1585 1583 1581 1579 1578 1577 1575 1573 1572 1570 1568 1567 1567 1565 1563 1563 1562 1561 1560 1560 1560 1558 1557 1553 1553 1551 1551 1551 1551 1550 1549 1549 1549 1547 1547 1545 1544 1543 1542 1540 1537 1536 1534 1533 1532 1529 1528 1526 1525 1524 1522 1520 1518 1518 1518 1516 1514 1514 1514 1514 1514 1514 1514 1514 1515 1515 1515 1514 1513 1513 1512 1512 1510 1508 1506 1506 1503 1501 1501 1499 1499 1496 1494 1492 1491 1489 1488 1487 1486 1486 1486 1486 1486 1486 1487 1487 1486 1486 1484 1484 1483 1483 1482 1482 1481 1481 1479 1479 1478 1477 1477 1476 1474 1472 1471 1469 1468 1467 1466 1464 1462 1460 1459 1458 1455 1455 1453 1452 1452 1452 1451 1451 1451 1450 1450 1449 1449 1449 1449 1449 1449 1448 1447 1446 1446 1444 1444 1442 1441 1439 1438 1437 1436 1435 1432 1430 1428 1425 1423 1422 1420 1417 1415 1413 1411 1409 1407 1405 1405 1404 1403 1403 1403 1401 1401 1401 1403 1403 1404 1404 1405 1406 1406 1406 1406 1406 1406 1405 1405 1404 1404 1404 1401 1397 1394 1391 1390 1388 1386 1383 1383 1381 1380 1380 1379 1379 1379 1377 1376 1375 1374 1374 1374 1374 1374 1374 1374 1374 1374 1374 1375 1376 1376 1379 1380 1380 1380 1380 1380 1380 1380 1380 1379 1379 1378 1378 1377 1376 1376 1376 1376 1376 1376 1379 1381 1384 1384 0 0 0 0 0 1743 1764 1764 1764 1762 1757 1757 1757 1762 1774 1777 1780 1782 1785 1786 1786 1788 1790 1792 1793 1795 1798 1798 1800 1800 1801 1802 1803 1804 1804 1809 1816 1819 1822 1826 1826 1827 1828 1828 1831 1833 1833
0 0 0 0 0 0 0 0 0 0 0 0 0 0 0 0 0 0 0 0 0 0 0 0 0 0 0 0 0 0 0 0 0 0 0 0 0 0 0 0 0 0 0 0 0 0 0 0 0 0 0 0 0 0 0 0 0 0 0 0 0 0 0 0 0 0 0 0 0 0 0 2550 2553 2555 2566 2584 2588 2588 2588 2577 2577 2577 2585 2610 2631 2642 2667 2687 2695 2707 2710 2712 2712 2710 2683 2645 2621 2621 2621 2652 2705 2761 2806 2840 2874 2887 2909 2937 2973 3003 3042 3069 3099 3116 3116 3131 3131 3131 3162 3209 3260 3272 3283 3293 3293 3293 3310 3338 3355 3373 3376 3394 3400 3400 3397 3400 3400 3401 3420 3423 3423 3423 3423 3423 3423 3423 3431 3434 3434 3434 3434 3434 3434 3434 3435 3443 3457 3473 3473 3473 3461 3461 3461 3462 3469 3472 3484 3506 3506 3506 3507 3507 3520 3536 3557 3557 3557 3557 3548 3545 3545 3545 3573 3605 3621 3621 3622 3622 3627 3629 3630 3646 3683 3690 3713 3726 3731 3736 3752 3752 3752 3734 3734 3734 3734 3734 3718 3706 3704 3694 3673 3673 3671 3671 3671 3673 3675 3678 3678 3678 3677 3662 3657 3653 3653 3652 3649 3647 3647 3647 3678 3692 3721 3721 3721 3714 3711 3693 3691 3691 3691 3709 3712 3712 3712 3704 3685 3667 3655 3622 3531 3336 3079 0 0 0 0 3017 3507 3855 4066 4092 4092 4092 4091 4091 4091 4091 4091 4091 4091 4091 4092 4092 4092 4052 3882 3715 0 0 0 0 0 0 0 0 0 2901 3066 3127 3127 3127 0 0 0 0 0 0 0 3291 3824 3978 4069 4090 4090 4090 4090 4090 4090 4089 4089 4081 4060 4049 4040 3996 3851 3206 0 0 2393 2356 2356 0 0 0 0 0 0 0 0 0 0 1599 1592 1588 1587 1587 1586 1585 1582 1580 1579 1577 1576 1574 1572 1572 1570 1567 1567 1565 1565 1562 1562 1562 1561 1560 1559 1557 1557 1555 1553 1553 1553 1552 1551 1550 1549 1548 1548 1548 1547 1546 1544 1544 1542 1540 1539 1536 1534 1533 1532 1529 1528 1526 1525 1524 1524 1522 1520 1518 1518 1517 1515 1512 1512 1512 1514 1514 1514 1514 1514 1513 1513 1513 1513 1513 1513 1512 1510 1508 1506 1506 1505 1502 1500 1499 1498 1496 1493 1491 1489 1488 1486 1483 1482 1482 1482 1482 1482 1483 1485 1485 1485 1484 1484 1483 1482 1482 1481 1481 1480 1479 1479 1478 1477 1476 1475 1475 1474 1473 1471 1470 1468 1467 1465 1464 1463 1461 1460 1459 1457 1455 1454 1453 1452 1452 1451 1451 1451 1451 1450 1449 1449 1449 1449 1449 1449 1448 1447 1447 1446 1445 1444 1443 1442 1440 1438 1437 1436 1435 1433 1432 1430 1428 1425 1423 1422 1419 1416 1414 1412 1410 1408 1406 1405 1405 1404 1403 1403 1403 1403 1403 1403 1403 1404 1404 1405 1405 1407 1407 1407 1407 1406 1405 1404 1404 1403 1402 1400 1398 1396 1392 1390 1388 1387 1385 1383 1381 1380 1378 1378 1378 1377 1377 1377 1376 1375 1374 1374 1374 1373 1373 1373 1373 1371 1371 1371 1374 1374 1374 1376 1378 1379 1379 1379 1379 1379 1379 1379 1379 1377 1377 1377 1377 1376 1376 1375 1375 1375 1376 1376 1380 1381 1384 1391 0 0 0 0 0 1756 1762 1762 1762 1757 1757 1757 1762 1769 1772 1774 1779 1783 1784 1785 1787 1789 1790 1792 1794 1795 1796 1797 1798 1800 1802 1803 1804 1804 1809 1813 1818 1822 1825 1825 1825 1825 1827 1831 1835 1835
0 0 0 0 0 0 0 0 0 0 0 0 0 0 0 0 0 0 0 0 0 0 0 0 0 0 0 0 0 0 0 0 0 0 0 0 0 0 0 0 0 0 0 0 0 0 0 0 0 0 0 0 0 0 0 0 0 0 0 0 0 0 0 0 0 0 0 0 0 0 0 0 0 2518 2549 2555 2568 2568 2568 2568 2568 2568 2585 2610 2631 2642 2667 2687 2695 2707 2707 2707 2700 2680 2664 2634 2621 2621 2621 2625 2625 2625 2605 2605 2605 2664 2670 2681 2687 2723 2789 2899 2959 2959 2959 2950 2950 2950 3000 3076 3157 3196 3196 3196 3196 3196 3208 3224 3242 3281 3313 3316 3324 3363 3363 3363 3362 3362 3362 3376 3409 3409 3409 3393 3390 3390 3390 3400 3413 3415 3415 3415 3406 3406 3406 3411 3445 3474 3475 3486 3487 3487 3487 3478 3478 3478 3484 3495 3495 3499 3499 3499 3520 3536 3557 3557 3557 3557 3548 3548 3548 3548 3573 3597 3621 3621 3622 3627 3627 3627 3630 3646 3683 3703 3718 3730 3739 3741 3753 3771 3771 3771 3758 3755 3750 3737 3726 3706 3693 3673 3670 3670 3670 3682 3682 3682 3682 3681 3680 3678 3677 3674 3665 3653 3653 3652 3649 3647 3647 3647 3676 3692 3706 3706 3706 3698 3696 3693 3691 3691 3691 3707 3707 3707 3703 3701 3685 3667 3655 3622 3513 3238 3035 0 0 0 0 3064 3689 3985 4082 4092 4092 4092 4091 4091 4090 4090 4090 4091 4091 4091 4091 4091 4091 4051 3903 3723 0 0 0 0 0 0 0 0 0 0 3066 3066 3066 0 0 0 0 0 0 0 3117 3420 3872 4045 4083 4090 4090 4090 4090 4090 4090 4089 4079 4067 4054 4042 4021 3926 3782 3018 0 2331 2331 2362 2362 2362 0 0 0 0 0 0 0 0 0 1599 1593 1587 1586 1585 1584 1582 1580 1579 1577 1576 1574 1572 1570 1569 1569 1567 1566 1564 1563 1562 1562 1561 1560 1559 1559 1557 1556 1555 1553 1553 1552 1551 1551 1550 1549 1548 1548 1547 1545 1544 1542 1542 1542 1540 1539 1535 1534 1532 1530 1528 1525 1525 1523 1522 1521 1520 1520 1518 1518 1516 1514 1512 1512 1512 1513 1513 1513 1514 1514 1513 1513 1513 1513 1513 1512 1511 1510 1508 1505 1502 1501 1500 1500 1498 1496 1493 1490 1487 1486 1483 1482 1480 1479 1479 1478 1478 1479 1479 1479 1483 1483 1483 1482 1482 1481 1480 1480 1479 1479 1479 1477 1477 1476 1475 1475 1474 1472 1470 1469 1467 1467 1466 1465 1463 1461 1459 1457 1457 1455 1454 1453 1452 1452 1451 1451 1451 1450 1450 1450 1449 1449 1449 1449 1448 1447 1447 1447 1446 1445 1444 1443 1441 1440 1439 1438 1437 1435 1434 1433 1430 1429 1427 1425 1423 1421 1418 1416 1413 1412 1410 1408 1406 1405 1405 1404 1404 1404 1404 1404 1404 1404 1404 1405 1405 1405 1407 1407 1407 1407 1407 1406 1404 1404 1403 1402 1400 1398 1398 1394 1390 1389 1385 1385 1383 1382 1380 1378 1377 1377 1377 1377 1377 1376 1376 1375 1374 1373 1373 1373 1373 1373 1372 1369 1369 1369 1370 1371 1371 1372 1378 1378 1378 1378 1378 1378 1378 1378 1377 1377 1376 1376 1375 1375 1375 1375 1374 1374 1375 1375 1377 1379 1382 1388 1393 0 0 0 0 0 1758 1758 1758 1757 1757 1757 1761 1768 1770 1773 1777 1782 1784 1785 1787 1788 1789 1791 1792 1792 1794 1795 1797 1800 1801 1802 1803 1803 1805 1810 1817 1822 1825 1825 1825 1825 1826 1830 1839 1839
0 0 0 0 0 0 0 0 0 0 0 0 0 0 0 0 0 0 0 0 0 0 0 0 0 0 0 0 0 0 0 0 0 0 0 0 0 0 0 0 0 0 0 0 0 0 0 0 0 0 0 0 0 0 0 0 0 0 0 0 0 0 0 0 0 0 0 0 0 0 0 0 0 0 0 0 2511 2533 2549 2551 2563 2568 2585 2622 2656 2673 2679 2687 2695 2707 2707 2707 2700 2680 2664 2634 2621 2621 2621 2625 2625 2625 2592 2578 2545 2543 2541 2538 2538 2538 2591 2655 2718 2728 2728 2728 2728 2742 2756 2822 2881 2994 2994 2994 3018 3042 3027 3042 3051 3055 3062 3064 3100 3164 3237 3273 3278 3279 3283 3299 3323 3331 3331 3331 3315 3315 3315 3342 3379 3394 3394 3394 3383 3383 3383 3401 3430 3469 3475 3486 3487 3487 3487 3478 3478 3478 3484 3484 3484 3485 3485 3498 3520 3534 3534 3536 3543 3543 3543 3545 3548 3548 3573 3597 3621 3621 3622 3622 3626 3626 3627 3646 3683 3703 3719 3730 3744 3768 3770 3773 3773 3773 3760 3760 3758 3750 3749 3705 3688 3673 3670 3670 3670 3690 3690 3690 3688 3686 3685 3679 3679 3676 3672 3667 3661 3661 3661 3674 3676 3690 3683 3676 3676 3677 3677 3677 3679 3690 3690 3695 3695 3695 3693 3693 3693 3699 3699 3699 3672 3622 3510 3237 2994 0 0 0 0 3271 3835 4015 4082 4092 4092 4092 4091 4090 4090 4090 4090 4090 4090 4091 4091 4091 4082 4051 3903 3750 3102 0 0 0 0 0 0 0 0 0 0 0 0 0 0 0 0 0 0 0 3118 3674 3939 4068 4091 4091 4091 4090 4090 4090 4090 4089 4077 4064 4050 4036 4012 3883 3533 2511 0 2346 2346 2363 2363 2363 0 0 0 0 0 0 0 0 0 1599 1593 1587 1586 1585 1582 1580 1578 1578 1576 1575 1572 1571 1569 1569 1568 1566 1565 1564 1563 1562 1562 1561 1559 1559 1559 1557 1556 1555 1553 1552 1551 1551 1550 1550 1549 1548 1547 1546 1544 1543 1542 1540 1539 1539 1537 1534 1533 1531 1529 1527 1525 1524 1523 1521 1520 1518 1517 1516 1516 1515 1513 1512 1512 1512 1512 1513 1513 1513 1513 1513 1513 1513 1512 1512 1512 1511 1508 1505 1501 1499 1499 1498 1497 1496 1493 1491 1487 1485 1483 1481 1479 1476 1476 1476 1476 1476 1477 1477 1477 1482 1482 1482 1481 1480 1480 1479 1478 1478 1477 1477 1476 1476 1474 1473 1473 1472 1471 1470 1468 1466 1465 1463 1462 1459 1458 1457 1455 1454 1454 1453 1452 1452 1450 1450 1450 1450 1450 1449 1449 1449 1449 1449 1448 1447 1447 1446 1445 1445 1444 1444 1442 1440 1439 1438 1437 1436 1434 1433 1432 1430 1428 1426 1424 1423 1421 1417 1416 1413 1411 1410 1408 1406 1406 1405 1405 1405 1405 1405 1405 1405 1405 1405 1405 1406 1406 1407 1407 1407 1407 1406 1405 1404 1403 1402 1402 1400 1398 1395 1393 1390 1387 1385 1385 1383 1381 1379 1378 1377 1377 1377 1377 1377 1376 1376 1375 1374 1373 1373 1372 1372 1372 1372 1369 1366 1366 1366 1367 1369 1371 1373 1377 1377 1377 1377 1377 1377 1377 1377 1376 1375 1375 1374 1374 1374 1374 1374 1373 1373 1373 1373 1373 1374 1380 1387 1402 0 0 0 0 1725 1756 1756 1757 1757 1757 1761 1768 1769 1772 1776 1780 1783 1784 1785 1787 1788 1789 1790 1790 1792 1794 1797 1799 1800 1800 1801 1803 1805 1809 1817 1821 1824 1824 1824 1824 1825 1830 1839 1839
0 0 0 0 0 0 0 0 0 0 0 0 0 0 0 0 0 0 0 0 0 0 0 0 0 0 0 0 0 0 0 0 0 0 0 0 0 0 0 0 0 0 0 0 0 0 0 0 0 0 0 0 0 0 0 0 0 0 0 0 0 0 0 0 0 0 0 0 0 0 0 0 0 0 0 0 0 0 2515 2542 2555 2568 2585 2622 2656 2673 2680 2687 2700 2712 2712 2712 2700 2680 2664 2634 2634 2634 2646 2646 2646 2625 0 2578 2545 2543 2541 2519 2507 2507 2504 2519 0 2606 2691 0 2653 2653 2661 2661 2724 2790 2852 2852 2857 2857 2867 2902 2902 2903 2903 2941 2943 3010 3052 3061 3066 3075 3080 3087 3124 3165 3205 3210 3212 3235 3258 3284 3294 3333 3335 3335 3335 3335 3335 3346 3404 3438 3442 3475 3487 3487 3487 3478 3478 3472 3471 3472 3473 3473 3474 3494 3520 3520 3520 3521 3521 3521 3528 3534 3543 3548 3569 3595 3600 3617 3617 3617 3617 3617 3626 3658 3691 3709 3719 3730 3744 3768 3770 3773 3773 3779 3779 3772 3769 3769 3750 3705 3688 3688 3688 3695 3695 3696 3695 3692 3688 3686 3685 3679 3679 3679 3679 3678 3678 3678 3682 3682 3682 3676 3674 3671 3669 3667 3667 3669 3677 3685 3690 3695 3695 3695 3681 3681 3681 3699 3699 3699 3684 3622 3503 3200 2942 0 0 0 2979 3590 3874 4016 4087 4091 4091 4091 4091 4090 4090 4090 4090 4090 4090 4091 4091 4091 4078 4008 3882 3723 3221 0 0 0 0 0 0 0 0 0 0 0 0 0 0 0 0 0 0 2965 3248 3777 3970 4078 4091 4091 4091 4090 4090 4090 4090 4088 4076 4062 4044 4034 3988 3851 3248 2511 0 2372 2372 2384 2384 2384 0 0 0 0 0 0 0 0 0 1613 1599 1591 1586 1585 1580 1577 1577 1576 1575 1573 1571 1570 1569 1568 1566 1564 1564 1563 1562 1562 1560 1559 1559 1558 1558 1555 1554 1553 1552 1551 1551 1550 1550 1549 1548 1547 1546 1545 1544 1543 1542 1540 1539 1538 1536 1534 1533 1531 1529 1527 1525 1523 1522 1520 1519 1518 1516 1514 1514 1513 1512 1512 1512 1512 1512 1512 1512 1512 1513 1513 1513 1512 1510 1510 1510 1509 1507 1503 1501 1499 1497 1495 1494 1491 1489 1487 1483 1482 1481 1479 1477 1476 1475 1475 1475 1475 1475 1475 1475 1475 1477 1479 1479 1479 1478 1477 1477 1476 1476 1475 1474 1473 1472 1472 1471 1470 1470 1467 1466 1464 1463 1461 1460 1458 1456 1455 1454 1453 1453 1451 1449 1449 1449 1449 1449 1449 1449 1449 1448 1448 1448 1448 1447 1446 1446 1446 1445 1444 1443 1442 1441 1440 1438 1437 1436 1435 1433 1432 1431 1430 1428 1426 1423 1422 1421 1417 1416 1412 1411 1410 1409 1408 1406 1405 1405 1405 1405 1405 1406 1406 1406 1407 1407 1407 1407 1407 1407 1407 1407 1406 1405 1404 1403 1402 1401 1399 1398 1395 1393 1390 1387 1385 1384 1382 1381 1379 1378 1376 1376 1376 1376 1376 1376 1375 1373 1371 1371 1370 1370 1370 1369 1369 1364 1360 1360 1360 1363 1367 1370 1373 1375 1375 1375 1375 1375 1375 1375 1375 1375 1374 1374 1373 1373 1373 1373 1373 1373 1373 1373 1372 1372 1372 1374 1383 1390 1400 0 0 0 0 1729 1754 1754 1755 1757 1759 1764 1768 1772 1776 1780 1783 1784 1785 1786 1787 1788 1789 1790 1791 1794 1796 1797 1799 1800 1801 1803 1805 1809 1817 1817 1817 1818 1818 1818 1821 1830 1839 1839
0 0 0 0 0 0 0 0 0 0 0 0 0 0 0 0 0 0 0 0 0 0 0 0 0 0 0 0 0 0 0 0 0 0 0 0 0 0 0 0 0 0 0 0 0 0 0 0 0 0 0 0 0 0 0 0 0 0 0 0 0 0 0 0 0 0 0 0 0 0 0 0 0 0 0 0 0 0 0 2523 2555 2568 2585 2622 2656 2673 2681 2688 2713 2732 2732 2732 2729 2688 2664 2650 2649 2649 2649 2649 2649 2631 2592 2585 2545 2543 2541 2519 2507 2504 0 0 0 0 0 0 0 2616 2644 2644 2616 0 0 2689 2689 2722 0 2722 2807 2856 2878 2931 2934 2934 2938 2938 2916 2880 2880 2880 2880 2966 3007 3045 3058 3058 3064 3065 3073 3102 3104 3104 3105 3119 3169 3200 3270 3318 3360 3362 3368 3368 3377 3388 3403 3403 3405 3416 3432 3445 3468 3488 3489 3490 3493 3493 3496 3501 3509 3525 3534 3543 3567 3590 3597 3599 3599 3611 3611 3616 3644 3670 3691 3709 3719 3730 3744 3768 3770 3773 3773 3776 3779 3779 3779 3779 3760 3705 3688 3688 3688 3699 3699 3699 3696 3694 3694 3696 3690 3690 3687 3687 3687 3687 3687 3688 3688 3682 3682 3674 3669 3665 3665 3662 3665 3665 3675 3677 3690 3695 3695 3695 3669 3669 3669 3697 3697 3697 3684 3622 3400 3153 2942 2854 2854 2854 3062 3619 3874 4016 4082 4091 4091 4091 4090 4085 4075 4075 4075 4087 4090 4090 4090 4090 4078 4008 3851 3715 3236 0 0 0 0 0 0 0 0 0 0 0 0 0 0 0 0 0 0 3016 3337 3832 3970 4078 4087 4087 4087 4086 4074 4060 4058 4046 4042 4021 4020 4013 3951 3828 3127 0 2372 2372 2372 2382 2382 2382 0 0 0 0 0 0 0 0 0 0 1601 1596 1589 1584 1576 1575 1574 1574 1574 1572 1571 1570 1568 1567 1566 1564 1564 1562 1561 1561 1560 1558 1557 1557 1556 1554 1553 1552 1552 1550 1549 1549 1548 1548 1548 1546 1546 1545 1544 1542 1542 1540 1539 1538 1536 1533 1531 1529 1527 1526 1524 1523 1521 1519 1518 1517 1515 1514 1512 1511 1511 1511 1511 1511 1512 1512 1512 1512 1513 1513 1512 1511 1509 1508 1507 1506 1505 1503 1500 1497 1495 1492 1490 1488 1485 1480 1480 1479 1479 1478 1477 1475 1475 1474 1474 1474 1474 1474 1474 1474 1474 1475 1475 1475 1475 1475 1475 1475 1474 1474 1472 1472 1470 1469 1469 1468 1468 1466 1464 1462 1461 1460 1459 1457 1455 1453 1451 1451 1450 1450 1449 1447 1447 1447 1447 1447 1447 1447 1447 1447 1447 1447 1446 1446 1445 1444 1444 1443 1443 1441 1440 1439 1438 1436 1436 1434 1433 1432 1431 1429 1427 1425 1423 1421 1421 1418 1415 1412 1411 1410 1409 1408 1406 1406 1406 1407 1407 1408 1408 1408 1408 1408 1408 1407 1407 1407 1407 1407 1407 1406 1405 1404 1403 1402 1400 1399 1397 1395 1392 1390 1388 1386 1384 1382 1381 1379 1376 1374 1374 1374 1375 1375 1375 1374 1371 1370 1369 1369 1369 1368 1368 1366 1362 1358 1358 1358 1361 1366 1369 1373 1373 1373 1374 1374 1374 1374 1374 1374 1374 1373 1373 1372 1372 1371 1371 1372 1372 1372 1372 1369 1369 1369 1374 1375 1378 1382 0 0 0 0 0 1748 1750 1753 1757 1758 1760 1766 1771 1775 1780 1783 1784 1785 1786 1786 1787 1788 1789 1791 1793 1794 1796 1799 1800 1801 1803 1806 1808 1809 1814 1814 1814 1814 1818 1821 1829 1839 1839
0 0 0 0 0 0 0 0 0 0 0 0 0 0 0 0 0 0 0 0 0 0 0 0 0 0 0 0 0 0 0 0 0 0 0 0 0 0 0 0 0 0 0 0 0 0 0 0 0 0 0 0 0 0 0 0 0 0 0 0 0 0 0 0 0 0 0 0 0 0 0 0 0 2295 2295 2299 2324 0 0 0 2517 2563 2579 2602 2627 2666 2681 2688 2713 2732 2732 2732 2729 2688 2664 2663 2649 2649 2649 2659 2659 2659 2637 2633 2625 2598 2557 2519 2507 2504 0 0 0 0 0 0 0 0 0 0 0 0 0 0 0 0 0 0 0 0 0 0 0 0 0 0 2838 2838 2838 2819 0 0 2774 2774 2799 2799 2799 2799 2802 2809 2838 2869 2949 3061 3132 3150 3151 3234 3277 3277 3277 3277 3216 3213 3213 3213 3213 3240 3298 3381 3445 3462 3462 3462 3462 3462 3464 3474 3480 3480 3487 3487 3500 3542 3591 3594 3595 3607 3607 3616 3644 3670 3691 3706 3709 3709 3712 3726 3756 3771 3771 3775 3776 3779 3779 3779 3760 3720 3696 3696 3696 3702 3702 3702 3696 3694 3694 3696 3694 3694 3687 3687 3687 3688 3688 3688 3682 3674 3665 3660 3659 3659 3659 3660 3659 3657 3655 3655 3655 3652 3652 3656 3656 3656 3666 3688 3688 3688 3684 3592 3345 3101 2942 2887 2887 2887 3152 3619 3874 4016 4082 4082 4082 4073 4069 4069 4069 4071 4073 4075 4078 4090 4090 4090 4078 4008 3851 3748 3266 2965 0 0 0 0 0 0 0 0 0 0 0 0 0 0 0 0 2887 3020 3424 3837 3970 4078 4078 4078 4071 4049 4049 4049 4049 4046 4042 4020 4010 3971 3870 3743 2846 0 2382 2382 2382 2382 2382 2382 0 0 0 0 0 0 0 0 0 0 1613 1604 1589 1584 1575 1575 1573 1573 1573 1571 1570 1568 1567 1566 1564 1563 1563 1562 1560 1560 1559 1558 1557 1557 1555 1553 1553 1552 1551 1549 1549 1548 1548 1547 1547 1546 1545 1544 1543 1542 1541 1540 1539 1537 1536 1533 1531 1528 1525 1523 1522 1521 1521 1519 1518 1517 1515 1514 1512 1511 1511 1511 1511 1511 1511 1512 1512 1512 1512 1512 1512 1510 1508 1507 1506 1504 1504 1500 1498 1494 1490 1487 1484 1482 1481 1479 1479 1478 1478 1478 1476 1475 1475 1474 1473 1473 1473 1473 1473 1473 1473 1474 1475 1475 1475 1474 1474 1473 1472 1471 1471 1470 1468 1467 1467 1466 1465 1463 1462 1461 1459 1458 1456 1454 1451 1449 1448 1448 1447 1447 1446 1446 1446 1446 1446 1446 1446 1447 1447 1447 1447 1446 1446 1445 1445 1444 1443 1442 1442 1441 1439 1438 1436 1435 1435 1434 1432 1431 1429 1428 1427 1425 1423 1421 1419 1417 1415 1412 1411 1410 1409 1408 1408 1408 1408 1408 1408 1408 1408 1408 1408 1408 1408 1408 1407 1407 1406 1406 1406 1406 1405 1404 1403 1402 1400 1399 1397 1393 1392 1390 1389 1387 1384 1381 1380 1377 1374 1374 1374 1374 1374 1374 1374 1372 1371 1369 1368 1367 1367 1367 1366 1363 1360 1358 1358 1358 1361 1363 1366 1370 1370 1371 1372 1373 1373 1373 1373 1373 1372 1372 1372 1371 1371 1370 1370 1370 1370 1370 1370 1369 1369 1369 1372 1372 1372 1375 1378 0 0 0 0 0 0 1751 1754 1755 1758 1759 1768 1775 1780 1783 1784 1785 1786 1786 1787 1787 1789 1790 1793 1794 1796 1798 1800 1801 1803 1806 1807 1807 1808 1809 1810 1812 1818 1821 1828 1828 1828
0 0 0 0 0 0 0 0 0 0 0 0 0 0 0 0 0 0 0 0 0 0 0 0 0 0 0 0 0 0 0 0 0 0 0 0 0 0 0 0 0 0 0 0 0 0 0 0 0 0 0 0 0 0 0 0 0 0 0 0 0 0 0 0 0 0 0 0 0 0 0 0 2269 2295 2295 2297 2316 2324 2353 0 0 0 2502 2537 2588 2633 2680 2682 2713 2732 2732 2732 2729 2688 2667 2665 2661 2661 2661 2677 2677 2677 2675 2666 2658 2620 2591 2579 2545 2545 0 0 0 0 0 0 0 0 0 0 0 0 0 0 0 0 0 0 0 0 0 0 0 0 0 0 2836 2836 2836 2806 2791 2774 2774 2774 2791 2791 2791 2791 2791 2781 2781 2755 2755 2755 2867 2951 2951 2951 2918 2918 2918 2970 3070 3070 3070 3113 3113 3113 3140 3168 3244 3298 3345 3348 3349 3352 3355 3361 3379 3391 3399 3405 3411 3466 3505 3535 3545 3559 3590 3616 3644 3687 3687 3690 3690 3692 3692 3703 3753 3753 3753 3759 3758 3758 3760 3760 3758 3720 3696 3694 3694 3694 3694 3696 3696 3696 3696 3707 3707 3707 3694 3688 3688 3688 3688 3688 3682 3660 3651 3649 3649 3649 3655 3658 3658 3658 3633 3632 3632 3632 3637 3643 3648 3652 3664 3664 3664 3651 3614 3488 3250 3066 2948 2948 2948 2972 3319 3619 3807 3908 3966 3966 3967 3969 3969 3981 4032 4059 4069 4069 4076 4087 4087 4087 4039 3978 3825 3748 3289 3175 0 0 0 0 0 0 0 0 0 0 0 3350 3350 3142 0 3076 3076 3237 3434 3845 3894 3990 4003 4007 4038 4038 4038 4046 4046 4046 4042 4020 4010 3954 3844 3342 2742 0 2376 2376 2382 2382 2382 2381 0 0 0 0 0 0 0 0 0 0 0 1604 1591 1581 1575 1575 1573 1572 1571 1571 1569 1567 1566 1564 1564 1563 1562 1561 1560 1558 1558 1557 1556 1555 1554 1553 1552 1551 1549 1549 1548 1548 1548 1547 1546 1545 1544 1544 1543 1542 1541 1539 1538 1536 1535 1533 1529 1528 1524 1521 1520 1518 1517 1516 1516 1515 1515 1514 1512 1512 1511 1511 1511 1511 1511 1511 1511 1511 1511 1511 1510 1509 1507 1507 1504 1503 1500 1499 1494 1490 1486 1484 1482 1481 1481 1479 1478 1477 1476 1475 1473 1472 1472 1472 1471 1471 1471 1471 1471 1472 1473 1474 1474 1474 1474 1473 1472 1471 1470 1470 1469 1467 1467 1466 1465 1464 1462 1461 1460 1458 1457 1456 1453 1449 1447 1447 1447 1446 1446 1446 1445 1444 1444 1444 1445 1445 1445 1446 1446 1446 1446 1446 1445 1445 1444 1443 1442 1441 1441 1440 1439 1438 1436 1435 1434 1432 1431 1430 1429 1428 1426 1425 1423 1421 1419 1417 1415 1412 1410 1410 1409 1408 1408 1408 1408 1409 1409 1409 1409 1408 1408 1408 1408 1407 1407 1407 1406 1406 1405 1405 1405 1404 1403 1401 1399 1398 1395 1393 1392 1390 1388 1387 1383 1381 1378 1375 1372 1372 1372 1373 1373 1373 1372 1371 1369 1367 1367 1367 1366 1366 1365 1362 1360 1358 1358 1358 1361 1363 1364 1366 1370 1370 1371 1371 1372 1372 1372 1372 1372 1372 1371 1370 1370 1369 1369 1369 1369 1369 1369 1368 1368 1368 1371 1371 1372 1373 1376 1386 0 0 0 0 0 1718 1740 1747 1753 1754 1755 1771 1780 1784 1784 1785 1785 1786 1787 1787 1789 1790 1792 1794 1795 1798 1800 1801 1803 1806 1806 1806 1804 1804 1804 1811 1814 1819 1821 1823 1823
0 0 0 0 0 0 0 0 0 0 0 0 0 0 0 0 0 0 0 0 0 0 0 0 0 0 0 0 0 0 0 0 0 0 0 0 0 0 0 0 0 0 0 0 0 0 0 0 0 0 0 0 0 0 0 0 0 0 0 0 0 0 0 0 0 0 0 0 0 0 0 0 2337 2337 2324 2316 2316 2324 2337 2353 0 0 0 0 2521 2587 2644 2663 2674 2693 2706 2706 2706 2683 2665 2664 2664 2665 2670 2703 2714 2714 2714 2697 2675 2620 2595 2591 2583 2556 0 0 0 0 0 0 0 0 0 0 0 0 0 0 0 0 0 0 0 0 0 0 0 0 0 0 2838 2838 2838 2806 2791 2774 2774 2774 2784 2784 2784 2791 2791 2781 2781 2721 2721 2690 2662 0 0 0 0 0 0 0 0 0 0 0 2942 2962 2973 2985 2999 3022 3103 3105 3113 3113 3113 3114 3114 3143 3193 3261 3321 3374 3385 3394 3406 3426 3470 3524 3640 3640 3646 3649 3649 3649 3649 3666 3713 3722 3723 3727 3727 3747 3747 3747 3734 3720 3696 3691 3691 3691 3692 3692 3694 3708 3713 3713 3713 3713 3695 3688 3688 3688 3684 3678 3675 3660 3631 3631 3631 3649 3655 3655 3655 3652 3610 3582 3582 3582 3602 3603 3608 3620 3633 3633 3633 3587 3558 3453 3168 3023 2966 2966 2966 3240 3408 3597 3730 3802 3848 3848 3852 3852 3854 3921 3962 3973 4006 4020 4049 4073 4073 4073 4039 3978 3813 3748 3505 3341 3197 0 0 0 0 0 0 0 0 0 3678 3678 3678 3663 3632 3471 3471 3471 3567 3845 3870 3878 3934 3946 3961 3998 4026 4062 4062 4062 4057 4043 3977 3927 3814 2953 0 0 2376 2376 2403 2403 2403 2381 0 0 0 0 0 0 0 0 0 0 0 1607 1591 1579 1575 1575 1572 1571 1571 1569 1568 1567 1565 1564 1563 1562 1561 1560 1559 1558 1557 1556 1556 1555 1553 1552 1551 1550 1549 1548 1547 1547 1547 1546 1545 1545 1544 1543 1542 1541 1539 1538 1537 1536 1534 1531 1528 1527 1524 1519 1517 1516 1515 1515 1515 1515 1514 1514 1513 1513 1513 1512 1511 1511 1511 1511 1511 1511 1511 1510 1510 1508 1507 1507 1504 1502 1500 1496 1492 1487 1484 1483 1481 1481 1479 1479 1477 1476 1475 1472 1472 1470 1470 1469 1468 1468 1468 1470 1470 1470 1470 1470 1470 1471 1471 1470 1470 1469 1468 1466 1466 1465 1464 1464 1463 1462 1460 1458 1457 1457 1455 1453 1451 1446 1446 1446 1446 1445 1445 1443 1443 1443 1443 1444 1444 1445 1445 1445 1445 1445 1445 1445 1444 1444 1443 1442 1441 1441 1440 1439 1438 1437 1436 1434 1433 1432 1430 1430 1428 1427 1425 1424 1422 1420 1418 1417 1414 1412 1410 1410 1409 1409 1409 1409 1409 1409 1409 1409 1409 1409 1409 1408 1408 1407 1407 1407 1406 1406 1405 1405 1404 1403 1402 1401 1399 1398 1395 1393 1392 1390 1389 1387 1383 1380 1377 1374 1372 1372 1372 1372 1372 1372 1370 1368 1368 1367 1367 1366 1365 1365 1364 1362 1360 1360 1360 1360 1361 1363 1364 1366 1370 1370 1371 1371 1371 1372 1372 1372 1371 1370 1370 1369 1369 1369 1368 1368 1368 1368 1368 1367 1367 1367 1367 1367 1368 1371 1373 1380 1388 0 0 0 0 0 1723 1738 1745 1752 1755 1763 1780 1783 1784 1785 1785 1786 1787 1787 1789 1790 1792 1794 1795 1798 1800 1801 1802 1804 1804 1804 1803 1803 1803 1809 1814 1819 1821 1823 1823
0 0 0 0 0 0 0 0 0 0 0 0 0 0 0 0 0 0 0 0 0 0 0 0 0 0 0 0 0 0 0 0 0 0 0 0 0 0 0 0 0 0 0 0 0 0 0 0 0 0 0 0 0 0 0 0 0 0 0 0 0 0 0 0 0 0 0 0 0 0 2408 2408 2398 2380 2332 2327 2327 2327 2337 2337 2340 2340 2350 0 0 0 2599 2611 2618 2624 2647 2669 2669 2669 2665 2664 2664 2665 2670 2703 2714 2714 2714 2697 2675 2620 2595 2591 2591 2591 2591 2591 0 0 0 0 0 0 0 0 0 0 0 0 0 0 0 0 0 0 0 0 0 0 0 0 2841 2841 0 0 2841 2837 2837 2812 2802 2791 2791 2794 2794 2794 2794 2721 2646 0 0 0 0 0 0 0 0 0 0 0 0 0 0 0 0 0 0 0 0 0 0 0 0 2971 2976 3009 3040 3068 3128 3128 3131 3156 3160 3230 3412 3520 3544 3544 3544 3544 3525 3504 3504 3504 3540 3620 3665 3680 3699 3703 3703 3703 3695 3660 3641 3619 3619 3619 3679 3689 3694 3708 3713 3713 3713 3713 3695 3688 3685 3685 3682 3676 3675 3643 3603 3603 3603 3645 3655 3655 3655 3620 3577 3534 3534 3534 3553 3563 3578 3597 3597 3597 3575 3558 3533 3388 3115 0 2983 2983 3163 3412 3547 3592 3641 3697 3740 3780 3823 3835 3845 3852 3863 3863 3866 3874 3919 3956 3991 3991 3991 3978 3811 3755 3701 3603 3510 3275 0 0 0 0 0 0 0 0 3678 3678 3678 3663 3632 3544 3544 3544 3661 3845 3855 3855 3863 3876 3876 3940 4026 4062 4062 4062 4057 4043 3977 3927 3710 0 0 0 0 2319 2403 2403 2403 0 0 0 0 0 0 0 0 0 0 0 0 0 1591 1579 1575 1575 1572 1570 1569 1568 1567 1566 1564 1563 1562 1561 1560 1559 1559 1558 1557 1556 1555 1554 1553 1552 1551 1550 1548 1547 1547 1547 1546 1545 1545 1544 1544 1542 1541 1540 1538 1538 1537 1535 1533 1530 1527 1526 1523 1519 1517 1515 1514 1514 1514 1514 1514 1514 1513 1513 1513 1512 1511 1511 1511 1511 1511 1511 1510 1510 1509 1508 1507 1507 1503 1501 1499 1496 1491 1487 1484 1483 1481 1480 1479 1479 1477 1475 1473 1472 1470 1470 1470 1469 1468 1468 1467 1467 1467 1465 1465 1465 1467 1467 1467 1467 1466 1466 1465 1464 1463 1463 1463 1463 1462 1461 1460 1458 1455 1454 1454 1453 1449 1446 1445 1445 1444 1444 1442 1442 1442 1442 1442 1443 1444 1444 1444 1444 1444 1444 1444 1444 1443 1443 1442 1442 1440 1440 1439 1438 1437 1435 1434 1433 1432 1431 1429 1428 1426 1426 1424 1423 1422 1419 1417 1415 1414 1412 1410 1410 1409 1409 1409 1409 1409 1409 1409 1409 1409 1409 1409 1408 1408 1407 1407 1407 1406 1406 1405 1404 1404 1403 1402 1401 1399 1397 1395 1393 1392 1389 1389 1387 1383 1379 1377 1374 1372 1372 1372 1372 1372 1370 1368 1367 1366 1366 1366 1366 1365 1365 1364 1362 1360 1360 1360 1361 1362 1363 1364 1366 1370 1370 1371 1371 1371 1371 1371 1371 1370 1370 1369 1369 1369 1368 1368 1368 1368 1367 1367 1367 1367 1367 1367 1366 1367 1367 1367 1371 1377 1378 0 0 0 0 1696 1728 1733 1744 1755 1760 1776 1782 1783 1783 1786 1786 1787 1787 1790 1791 1792 1794 1794 1796 1798 1798 1799 1801 1802 1803 1803 1803 1803 1805 1810 1817 1817 1821 1821
0 0 0 0 0 0 0 0 0 0 0 0 0 0 0 0 0 0 0 0 0 0 0 0 0 0 0 0 0 0 0 0 0 0 0 0 0 0 0 0 0 0 0 0 0 0 0 0 0 0 0 0 0 0 0 0 0 0 0 0 0 0 0 0 0 0 0 0 0 2436 2436 2436 2408 2390 2389 2370 2365 2337 2337 2337 2337 2332 2329 2329 0 0 0 2520 2534 2548 2564 2605 2618 2627 2643 2644 2648 2651 2670 2703 2714 2714 2714 2697 2675 2618 2595 2591 2591 2591 2609 2613 2621 2628 2628 2628 0 0 0 0 0 0 0 0 0 0 0 0 0 0 0 0 0 0 0 2764 2859 2875 2879 2882 2890 2902 2902 2930 0 2968 2929 2929 2887 2864 2848 0 0 0 0 0 0 0 0 0 0 0 0 0 0 0 0 0 0 0 0 0 0 0 0 0 0 0 0 0 0 2943 2943 2975 2943 2936 0 0 0 0 0 0 0 3234 3236 3297 3335 3369 3427 3475 3516 3528 3528 3533 3528 3527 3520 3495 3492 3492 3492 3544 3586 3632 3665 3689 3713 3713 3713 3713 3695 3679 3678 3678 3674 3674 3654 3632 3601 3601 3601 3604 3612 3612 3612 3567 3524 3506 3506 3506 3519 3537 3547 3562 3562 3562 3558 3527 3519 3357 3082 0 0 3049 3313 3503 3547 3587 3618 3639 3673 3717 3791 3813 3827 3835 3836 3842 3842 3843 3850 3852 3863 3863 3863 3843 3807 3771 3731 3686 3634 3541 3248 0 0 0 0 0 0 0 3678 3678 3678 3663 3632 3544 3544 3544 3661 3848 3850 3853 3850 3850 3853 3855 4002 4062 4062 4062 4057 4043 3977 3862 3159 0 0 0 0 0 0 0 0 0 0 0 0 0 0 0 0 0 0 0 0 0 1591 1579 1578 1575 1572 1569 1567 1566 1565 1564 1563 1562 1561 1560 1559 1559 1558 1558 1557 1556 1554 1553 1552 1551 1550 1549 1548 1547 1546 1546 1545 1544 1544 1543 1542 1541 1540 1539 1538 1536 1535 1534 1532 1530 1526 1524 1521 1518 1517 1515 1514 1513 1513 1513 1513 1513 1513 1513 1513 1512 1511 1511 1511 1511 1510 1509 1509 1508 1508 1507 1506 1505 1503 1501 1498 1495 1491 1487 1484 1483 1482 1481 1478 1477 1476 1474 1473 1471 1470 1469 1469 1469 1468 1467 1467 1466 1465 1463 1462 1462 1462 1464 1465 1465 1465 1465 1463 1462 1461 1461 1461 1461 1461 1458 1456 1455 1454 1453 1452 1451 1448 1446 1444 1443 1442 1441 1441 1440 1440 1440 1441 1441 1441 1442 1443 1443 1443 1443 1443 1443 1443 1442 1442 1441 1440 1439 1439 1437 1436 1434 1433 1433 1431 1430 1428 1427 1426 1424 1423 1422 1420 1418 1416 1415 1413 1411 1410 1410 1409 1409 1409 1409 1409 1409 1409 1409 1409 1409 1409 1408 1408 1407 1407 1406 1406 1405 1405 1404 1403 1402 1401 1400 1399 1397 1395 1393 1391 1389 1387 1386 1383 1378 1377 1373 1371 1371 1371 1371 1371 1368 1366 1366 1366 1366 1366 1366 1365 1365 1364 1363 1363 1363 1363 1364 1364 1367 1367 1368 1370 1370 1370 1371 1371 1370 1370 1370 1370 1369 1369 1369 1369 1368 1368 1368 1367 1367 1367 1367 1366 1366 1366 1366 1366 1366 1371 1371 1371 1376 1395 0 0 0 0 1711 1730 1744 1751 1760 1773 1780 1780 1783 1786 1786 1790 1790 1791 1792 1793 1793 1794 1795 1796 1796 1797 1798 1802 1802 1802 1802 1802 1803 1805 1813 1815 1816 1816
0 0 0 0 0 0 0 0 0 0 0 0 0 0 0 0 0 0 0 0 0 0 0 0 0 0 0 0 0 0 0 0 0 0 0 0 0 0 0 0 0 0 0 0 0 0 0 0 0 0 0 0 0 0 0 0 0 0 0 0 0 0 0 0 0 0 0 0 2415 2441 2441 2441 2437 2393 2393 2390 2390 2393 2388 2367 2350 2332 2329 2329 2329 0 0 0 0 0 2484 2512 2534 2573 2590 2590 2590 2590 2592 2614 2686 2688 2688 2688 2657 2584 2547 2547 2547 2591 2609 2613 2621 2628 2628 2628 2578 2576 2541 0 0 0 0 0 0 0 0 0 0 0 0 0 0 2701 2738 2764 2841 2875 2879 2882 2890 2902 2902 2930 2968 2968 2929 2929 2887 2864 2850 2765 0 0 0 0 0 0 0 0 0 0 0 0 0 0 0 0 0 0 0 0 0 0 0 0 0 0 0 0 0 0 0 0 0 0 0 0 0 0 0 0 0 0 0 0 0 0 0 0 0 3083 3182 3182 3223 3334 3346 3346 3346 3287 3287 3287 3316 3322 3329 3343 3436 3535 3537 3540 3572 3604 3607 3610 3612 3612 3610 3600 3591 3582 3582 3582 3582 3582 3576 3513 3474 3474 3474 3490 3506 3524 3529 3537 3537 3537 3527 3519 3511 3357 3057 0 3057 3189 3432 3527 3527 3527 3527 3527 3589 3660 3744 3802 3809 3813 3820 3811 3811 3817 3817 3817 3843 3843 3843 3843 3807 3775 3742 3742 3742 3702 3693 3547 0 0 0 0 0 0 0 3139 3145 3168 3172 3264 3325 3544 3661 3848 3850 3850 3848 3844 3844 3844 3847 3967 4028 4028 4028 3988 3848 3562 3010 0 0 0 0 0 0 0 0 0 0 0 0 0 0 0 0 0 0 0 0 0 1594 1582 1578 1575 1571 1568 1566 1563 1563 1563 1562 1561 1560 1559 1559 1558 1557 1556 1556 1555 1553 1553 1551 1550 1549 1548 1547 1546 1546 1545 1544 1543 1542 1542 1542 1541 1539 1538 1537 1535 1534 1532 1530 1528 1524 1521 1521 1517 1517 1515 1513 1513 1512 1512 1512 1513 1512 1512 1512 1512 1511 1511 1511 1510 1510 1509 1508 1508 1507 1506 1505 1504 1502 1499 1497 1494 1491 1487 1484 1484 1482 1481 1478 1475 1473 1472 1472 1471 1470 1469 1469 1469 1467 1466 1466 1466 1464 1463 1462 1462 1462 1462 1463 1463 1463 1463 1462 1460 1459 1458 1458 1457 1457 1456 1454 1454 1453 1452 1451 1450 1447 1444 1442 1442 1440 1438 1438 1438 1438 1438 1439 1439 1440 1440 1441 1442 1442 1443 1443 1442 1442 1441 1441 1440 1439 1439 1437 1436 1435 1433 1433 1431 1430 1429 1427 1426 1425 1423 1422 1420 1418 1417 1415 1413 1413 1411 1410 1410 1409 1409 1408 1408 1408 1409 1409 1409 1409 1408 1408 1408 1407 1407 1406 1406 1405 1404 1404 1403 1403 1402 1401 1400 1398 1397 1395 1393 1391 1389 1387 1385 1383 1378 1374 1373 1370 1368 1368 1368 1367 1366 1365 1365 1365 1366 1366 1366 1366 1366 1366 1366 1366 1365 1365 1365 1366 1367 1367 1368 1369 1370 1370 1370 1370 1370 1370 1369 1369 1368 1368 1368 1368 1368 1367 1367 1367 1367 1367 1366 1366 1366 1365 1365 1365 1366 1369 1370 1370 1371 1371 1381 0 0 0 0 1723 1743 1751 1758 1767 1778 1779 1782 1787 1790 1790 1790 1791 1792 1793 1793 1793 1794 1794 1795 1795 1796 1798 1800 1801 1801 1802 1803 1805 1807 1812 1815 1815
0 0 0 0 0 0 0 0 0 0 0 0 0 0 0 0 0 0 0 0 0 0 0 0 0 0 0 0 0 0 0 0 0 0 0 0 0 0 0 0 0 0 0 0 0 0 0 0 0 0 0 0 0 0 0 0 0 0 0 0 0 0 0 0 0 0 0 2401 2417 2441 2441 2441 2433 2406 2406 2406 2410 2410 2410 2400 2388 2369 2329 2329 2328 2328 2333 2343 2360 2381 2412 2450 2478 2496 2528 2528 2528 2534 2531 2531 2534 2563 2563 2563 2554 2543 2542 2542 2543 2546 2564 2590 2613 2628 2628 2628 2578 2576 2541 2516 2516 2502 2486 0 0 0 0 0 0 0 0 0 2662 2701 2738 2764 2801 2852 2875 2879 2890 2902 2902 2930 2968 2968 2929 2929 2887 2864 2850 2777 0 0 0 0 0 0 0 0 0 0 0 0 0 0 0 0 0 0 0 0 0 0 0 0 0 0 0 0 0 0 0 0 0 0 0 0 0 0 0 0 0 0 0 0 0 0 0 0 0 0 0 0 0 0 0 3055 3055 3077 3055 3045 3015 2984 2984 2984 3026 3135 3211 3359 3451 3473 3474 3491 3497 3497 3497 3474 3474 3474 3487 3487 3487 3471 3444 3432 3432 3432 3443 3460 3476 3483 3493 3509 3509 3512 3519 3509 3496 3357 3057 3057 3057 3244 3432 3518 3518 3518 3469 3469 3469 3603 3675 3722 3740 3744 3780 3783 3783 3797 3797 3797 3831 3839 3839 3839 3807 3796 3796 3796 3811 3811 3811 3790 3714 0 0 0 0 0 0 0 0 0 2907 2973 3004 3190 3584 3855 3855 3855 3855 3853 3849 3847 3847 3847 3855 3916 3916 3916 3840 3465 2788 0 0 0 0 0 0 0 0 0 0 0 0 0 0 0 0 0 0 0 0 0 0 1583 1575 1575 1570 1567 1564 1563 1562 1562 1561 1559 1559 1558 1558 1557 1556 1555 1554 1553 1552 1552 1550 1550 1548 1547 1546 1545 1544 1544 1543 1542 1541 1541 1540 1539 1538 1537 1536 1534 1533 1531 1529 1527 1524 1521 1520 1517 1517 1515 1513 1512 1512 1512 1512 1512 1512 1512 1512 1511 1511 1511 1511 1510 1510 1509 1508 1507 1506 1505 1505 1503 1501 1499 1496 1494 1491 1487 1487 1486 1484 1481 1477 1474 1473 1472 1471 1471 1470 1470 1469 1469 1467 1466 1466 1465 1464 1463 1462 1462 1462 1461 1460 1461 1461 1461 1460 1459 1457 1456 1456 1454 1453 1450 1450 1450 1449 1449 1449 1449 1446 1444 1442 1440 1438 1437 1437 1437 1437 1437 1438 1438 1439 1439 1441 1441 1442 1442 1442 1441 1440 1440 1439 1439 1438 1438 1436 1435 1434 1432 1431 1430 1429 1428 1426 1424 1423 1421 1420 1418 1416 1415 1413 1413 1411 1411 1410 1410 1409 1409 1408 1408 1408 1408 1408 1408 1408 1408 1407 1407 1407 1406 1405 1404 1404 1404 1404 1403 1402 1402 1400 1399 1397 1397 1395 1393 1391 1389 1386 1384 1383 1378 1373 1371 1367 1364 1364 1364 1365 1365 1365 1365 1365 1366 1366 1366 1366 1366 1366 1366 1366 1366 1366 1366 1366 1367 1368 1368 1368 1368 1368 1368 1368 1368 1368 1368 1368 1368 1368 1368 1367 1367 1367 1367 1367 1367 1366 1366 1365 1365 1365 1364 1364 1364 1367 1369 1369 1370 1370 1373 0 0 0 0 0 1739 1746 1751 1761 1775 1777 1780 1789 1790 1790 1791 1791 1792 1793 1793 1793 1793 1794 1794 1795 1795 1797 1800 1800 1801 1802 1803 1805 1805 1805 1809 1809
0 0 0 0 0 0 0 0 0 0 0 0 0 0 0 0 0 0 0 0 0 0 0 0 0 0 0 0 0 0 0 0 0 0 0 0 0 0 0 0 0 0 0 0 0 0 0 0 0 0 0 0 0 0 0 0 0 0 0 0 0 0 0 0 0 0 0 2416 2431 2441 2441 2441 2433 2429 2422 2416 2416 2414 2413 2408 2401 2399 2392 2392 2355 2333 2328 2328 2328 2350 2403 2431 2463 2489 2491 2491 2492 2492 2499 2512 2520 2520 2520 2520 2519 2516 2519 2524 2531 2536 2553 2572 2580 2587 2587 2587 2578 2576 2541 2516 2516 2502 2500 0 0 0 0 0 0 0 0 0 2670 2701 2738 2739 2790 2799 2800 2800 2800 2800 2819 2855 2899 2899 2899 2859 2850 2848 2843 2777 0 0 0 0 0 0 0 0 0 0 0 0 0 0 0 0 0 0 0 0 0 0 0 0 0 0 0 0 0 0 0 0 0 0 0 0 0 0 0 0 0 0 0 0 0 0 0 0 0 0 0 0 0 0 0 0 0 0 0 0 0 0 0 0 0 0 0 0 0 0 0 0 0 3277 3277 3277 3209 3199 3199 3206 3209 3262 3276 3327 3337 3345 3357 3357 3357 3363 3389 3428 3465 3494 3495 3495 3495 3411 3082 3082 3082 3272 3432 3485 3485 3485 3410 3410 3410 3453 3500 3541 3545 3615 3681 3739 3739 3745 3763 3773 3813 3836 3836 3836 3832 3819 3819 3819 3814 3813 3811 3790 3714 3650 0 0 0 0 0 0 0 0 0 0 2798 3036 3584 3849 3849 3869 3871 3871 3869 3855 3849 3847 3847 3818 3830 3818 3799 3398 2788 0 0 0 0 0 0 0 0 0 0 0 0 0 0 0 0 0 0 0 0 0 0 1583 1575 1569 1568 1566 1563 1562 1560 1560 1559 1558 1558 1557 1557 1556 1555 1554 1554 1552 1551 1551 1549 1549 1547 1546 1545 1544 1543 1543 1542 1541 1540 1539 1538 1538 1537 1535 1534 1533 1532 1530 1529 1526 1524 1521 1520 1518 1517 1515 1513 1513 1512 1512 1512 1512 1512 1512 1511 1511 1511 1510 1510 1510 1509 1508 1507 1507 1505 1505 1503 1503 1500 1497 1495 1493 1490 1488 1487 1486 1484 1481 1477 1474 1473 1472 1471 1471 1470 1470 1469 1469 1467 1466 1465 1465 1463 1463 1463 1462 1462 1461 1460 1460 1460 1460 1459 1458 1455 1454 1453 1451 1449 1449 1449 1448 1448 1446 1446 1446 1444 1443 1441 1439 1437 1435 1435 1435 1435 1436 1436 1437 1437 1437 1439 1440 1440 1440 1440 1440 1439 1439 1439 1438 1437 1437 1436 1434 1432 1431 1431 1429 1427 1425 1425 1423 1422 1419 1417 1416 1415 1414 1413 1412 1410 1409 1409 1408 1408 1408 1408 1408 1407 1407 1407 1407 1407 1406 1406 1406 1405 1405 1405 1403 1403 1403 1402 1402 1401 1401 1399 1399 1397 1396 1394 1393 1390 1389 1386 1384 1382 1378 1373 1371 1367 1364 1364 1364 1365 1365 1365 1365 1366 1366 1367 1367 1367 1367 1367 1367 1368 1368 1368 1367 1367 1367 1368 1368 1368 1368 1368 1368 1368 1368 1368 1368 1367 1367 1367 1367 1367 1366 1366 1366 1366 1366 1366 1365 1365 1365 1364 1364 1364 1364 1364 1368 1368 1368 1368 1373 1379 0 0 0 0 1728 1743 1746 1747 1767 1773 1780 1789 1790 1790 1790 1790 1790 1790 1791 1792 1793 1794 1794 1795 1795 1797 1798 1801 1801 1803 1803 1803 1805 1807 1808 1808
0 0 0 0 0 0 0 0 0 0 0 0 0 0 0 0 0 0 0 0 0 0 0 0 0 0 0 0 0 0 0 0 0 0 0 0 0 0 0 0 0 0 0 0 0 0 0 0 0 0 0 0 0 0 0 0 0 0 0 0 0 0 0 0 0 0 0 2422 2432 2433 2433 2433 2432 2429 2425 2424 2422 2421 2416 2411 2408 2401 2400 2399 2369 2359 2328 2328 2328 2350 2397 2428 2442 2447 2455 2457 2484 2486 2499 2499 2499 2488 2487 2487 2487 2506 2506 2506 2506 2506 2506 2520 2521 2523 2526 2529 2529 2529 2526 2516 2516 2502 2500 0 0 0 0 0 0 0 0 0 0 2683 2711 2738 2775 2775 2775 2750 2746 2746 2746 2752 2790 2790 2790 2792 2792 2782 2777 0 0 0 0 0 0 0 0 0 0 0 0 0 0 0 0 0 0 0 0 0 0 0 0 0 0 0 0 0 0 0 0 0 0 0 0 0 0 0 0 0 0 0 0 0 0 0 0 0 0 0 0 0 0 0 0 0 0 0 0 0 0 0 0 0 0 0 0 0 0 0 0 0 0 0 0 0 0 0 0 0 0 0 0 0 3143 3174 3174 3178 3199 3215 3215 3252 3363 3435 3495 3495 3495 3411 3235 3235 3235 3286 3419 3455 3455 3455 3402 3387 3387 3387 3387 3453 3472 3490 3492 3495 3536 3589 3637 3736 3778 3816 3816 3819 3829 3819 3819 3819 3813 3811 3796 3790 3714 3650 3498 3215 0 0 0 0 0 0 0 0 2798 3036 3584 3849 3849 3869 3869 3869 3854 3845 3838 3824 3817 3812 3812 3799 3768 3398 0 2595 0 0 0 0 0 0 0 0 0 0 0 0 0 0 0 0 0 0 0 0 0 1583 1572 1568 1564 1564 1563 1562 1560 1559 1558 1558 1557 1556 1555 1554 1554 1553 1552 1551 1550 1549 1548 1548 1546 1545 1544 1543 1542 1542 1540 1540 1539 1539 1537 1537 1536 1534 1533 1531 1531 1529 1528 1526 1523 1521 1519 1518 1518 1516 1514 1513 1513 1512 1512 1512 1512 1512 1511 1511 1510 1510 1510 1509 1508 1507 1506 1505 1505 1503 1503 1501 1499 1497 1495 1493 1491 1489 1487 1486 1484 1481 1477 1475 1473 1472 1472 1471 1470 1470 1469 1468 1467 1465 1464 1463 1463 1463 1463 1463 1462 1461 1461 1460 1460 1459 1459 1457 1454 1453 1450 1449 1448 1448 1446 1446 1446 1445 1445 1443 1441 1439 1438 1438 1435 1434 1434 1434 1435 1435 1435 1435 1436 1436 1438 1438 1438 1438 1438 1438 1438 1438 1438 1437 1436 1436 1434 1432 1431 1430 1429 1428 1426 1424 1423 1422 1420 1417 1416 1415 1414 1413 1410 1409 1408 1407 1406 1406 1406 1407 1406 1407 1407 1406 1406 1406 1406 1406 1406 1405 1405 1405 1403 1403 1402 1402 1402 1401 1401 1399 1399 1398 1397 1395 1394 1393 1390 1388 1386 1384 1382 1378 1373 1371 1367 1364 1364 1364 1364 1365 1365 1367 1368 1368 1368 1368 1367 1367 1367 1367 1368 1368 1368 1368 1367 1367 1367 1367 1367 1367 1367 1367 1367 1367 1367 1367 1367 1367 1366 1366 1365 1365 1365 1365 1365 1365 1365 1364 1364 1364 1364 1364 1363 1363 1363 1364 1365 1368 1368 1372 1378 1383 0 0 0 0 1722 1737 1745 1752 1771 1780 1789 1789 1789 1789 1789 1789 1790 1791 1792 1793 1793 1794 1794 1795 1797 1798 1801 1801 1803 1804 1804 1805 1808 1808 1808
0 0 0 0 0 0 0 0 0 0 0 0 0 0 0 0 0 0 0 0 0 0 0 0 0 0 0 0 0 0 0 0 0 0 0 0 0 0 0 0 0 0 0 0 0 0 0 0 0 0 0 0 0 0 0 0 0 0 0 0 0 0 0 0 0 0 0 2428 2432 2432 2432 2431 2429 2429 2426 2424 2423 2421 2413 2411 2410 2410 2407 2407 2370 2367 2354 2343 2343 2343 2389 2401 2404 2407 2412 2434 2452 2455 2458 2458 2458 2451 2451 2451 2459 2464 2470 2471 2471 2479 2482 2486 2491 2492 2492 2492 2493 2494 2496 2496 2500 2507 2500 0 0 0 0 0 0 0 0 0 0 0 0 0 0 0 0 0 0 0 0 0 0 0 0 0 0 0 0 0 0 0 0 0 0 0 0 0 0 0 0 0 0 0 0 0 0 0 0 0 0 0 0 0 0 0 0 0 0 0 0 0 0 0 0 0 0 0 0 0 0 0 0 0 0 0 0 0 0 0 0 0 0 0 0 0 0 0 0 0 0 0 0 0 0 0 0 0 0 0 0 0 0 0 0 0 0 0 0 0 0 0 0 0 0 0 0 0 0 2985 2991 3001 3128 3325 3462 3462 3462 3411 3300 3300 3300 3310 3419 3437 3437 3437 3396 3384 3384 3384 3384 3423 3423 3423 3423 3423 3417 3438 3440 3509 3648 3708 3777 3808 3808 3819 3819 3819 3772 3719 3702 3696 3696 3650 3498 3447 3263 0 0 0 0 0 0 0 2798 3036 3610 3829 3849 3849 3854 3854 3849 3845 3838 3817 3812 3803 3800 3799 3768 3398 2945 2881 2881 2880 2880 2880 2831 2765 2651 2557 0 0 0 0 0 0 0 0 0 0 0 0 0 1583 1572 1568 1564 1563 1562 1562 1560 1559 1558 1556 1556 1555 1554 1553 1553 1552 1551 1550 1550 1549 1547 1546 1545 1544 1543 1542 1541 1540 1540 1539 1538 1537 1537 1536 1534 1533 1532 1530 1529 1528 1527 1526 1523 1521 1518 1518 1518 1516 1514 1513 1513 1512 1512 1512 1512 1512 1511 1511 1510 1510 1509 1508 1508 1507 1505 1505 1504 1503 1502 1500 1498 1497 1494 1493 1491 1489 1486 1486 1483 1480 1477 1475 1473 1473 1472 1471 1470 1470 1470 1468 1465 1463 1463 1463 1463 1463 1463 1463 1463 1463 1462 1461 1460 1458 1458 1457 1454 1451 1448 1447 1447 1446 1445 1445 1444 1443 1442 1442 1440 1438 1437 1436 1434 1432 1432 1432 1433 1434 1434 1435 1435 1435 1435 1435 1435 1436 1436 1436 1436 1436 1435 1435 1434 1433 1432 1431 1430 1428 1427 1426 1424 1423 1421 1420 1419 1417 1415 1415 1413 1409 1408 1406 1403 1403 1403 1403 1404 1404 1406 1406 1406 1405 1405 1405 1405 1405 1404 1404 1403 1402 1402 1402 1401 1401 1400 1400 1399 1398 1398 1397 1396 1394 1393 1393 1390 1388 1386 1384 1382 1379 1376 1375 1373 1368 1364 1364 1364 1365 1365 1369 1369 1369 1368 1368 1368 1368 1369 1370 1370 1369 1369 1368 1368 1368 1368 1367 1367 1367 1367 1367 1367 1367 1367 1367 1366 1366 1366 1365 1365 1365 1364 1364 1364 1363 1363 1363 1363 1363 1363 1363 1362 1362 1362 1362 1363 1364 1367 1370 1375 1376 1387 0 0 0 0 1728 1743 1748 1768 1780 1785 1785 1785 1785 1785 1787 1790 1791 1792 1792 1793 1794 1794 1795 1797 1798 1799 1801 1805 1805 1805 1807 1808 1808 1808
0 0 0 0 0 0 0 0 0 0 0 0 0 0 0 0 0 0 0 0 0 0 0 0 0 0 0 0 0 0 0 0 0 0 0 0 0 0 0 0 0 0 0 0 0 0 0 0 0 0 0 0 0 0 0 0 0 0 0 0 0 0 0 0 0 0 0 2436 2436 2436 2432 2429 2428 2426 2426 2425 2423 2421 2416 2411 2411 2411 2410 2410 2387 2370 2354 2343 2343 2343 2382 2387 2389 2390 2398 2407 2408 2410 2410 2414 2420 2424 2432 2439 2446 2453 2460 2461 2463 2466 2472 2480 2488 2491 2492 2492 2493 2494 2496 2496 2503 2507 2503 0 0 0 0 0 0 0 0 0 0 0 0 0 0 0 0 0 0 0 0 0 0 0 0 0 0 0 0 0 0 0 0 0 0 0 0 0 0 0 0 0 0 0 0 0 0 0 0 0 3180 3210 3210 3210 3164 3129 3118 3118 3118 3118 3108 3128 3128 3128 3143 3168 3168 3168 3168 0 0 0 0 0 0 0 0 0 0 0 0 0 0 0 0 0 0 0 0 0 0 0 0 0 0 0 0 0 0 0 0 0 0 0 0 0 0 0 0 0 0 0 0 0 0 0 0 0 0 0 2985 2991 3128 3277 3300 3320 3320 3320 3308 3308 3308 3361 3419 3422 3422 3422 3396 3366 3366 3366 3382 3382 3382 3400 3400 3396 3400 3405 3410 3414 3433 3501 3603 3664 3675 3709 3709 3709 3685 3623 3595 3595 3577 3561 3498 3447 3415 3303 3264 3185 3185 3182 3182 3185 3227 3314 3642 3849 3849 3849 3853 3853 3849 3845 3838 3812 3808 3806 3803 3800 3768 3667 3454 3272 3272 3272 3363 3379 3518 3518 3518 3453 2886 0 0 0 0 0 0 0 0 0 0 0 0 1589 1572 1568 1563 1561 1561 1561 1560 1559 1557 1555 1555 1554 1553 1552 1551 1550 1550 1549 1549 1547 1546 1545 1544 1544 1542 1541 1540 1540 1539 1538 1537 1536 1535 1535 1533 1532 1530 1528 1528 1526 1525 1524 1522 1519 1518 1518 1518 1516 1514 1513 1513 1512 1512 1512 1511 1511 1511 1510 1509 1509 1508 1508 1507 1506 1505 1504 1503 1502 1500 1500 1498 1495 1493 1492 1490 1488 1486 1486 1483 1480 1478 1477 1475 1473 1473 1471 1471 1470 1470 1468 1465 1463 1463 1463 1463 1463 1463 1463 1463 1463 1462 1461 1459 1458 1457 1455 1454 1451 1448 1446 1446 1445 1444 1444 1442 1442 1441 1440 1439 1437 1436 1433 1432 1432 1432 1432 1433 1433 1433 1434 1434 1435 1435 1434 1435 1435 1434 1434 1434 1434 1433 1432 1432 1431 1430 1429 1428 1426 1426 1424 1423 1421 1420 1419 1416 1414 1414 1412 1408 1401 1401 1400 1400 1398 1398 1398 1400 1402 1402 1404 1404 1404 1404 1404 1404 1404 1403 1403 1402 1402 1401 1400 1400 1400 1399 1399 1398 1398 1396 1396 1395 1394 1393 1392 1390 1388 1385 1383 1382 1379 1377 1375 1374 1371 1365 1365 1365 1365 1366 1369 1369 1369 1370 1370 1370 1370 1371 1370 1370 1370 1369 1369 1368 1368 1367 1367 1367 1367 1366 1366 1366 1366 1366 1366 1365 1365 1365 1364 1364 1364 1364 1363 1363 1362 1362 1362 1362 1362 1362 1361 1361 1360 1360 1360 1363 1363 1367 1370 1372 1374 1375 0 0 0 0 0 1737 1748 1762 1778 1778 1778 1778 1778 1778 1781 1786 1788 1790 1791 1792 1793 1794 1795 1796 1798 1798 1801 1805 1805 1805 1807 1808 1808 1808
0 0 0 0 0 0 0 0 0 0 0 0 0 0 0 0 0 0 0 0 0 0 0 0 0 0 0 0 0 0 0 0 0 0 0 0 0 0 0 0 0 0 0 0 0 0 0 0 0 0 0 0 0 0 0 0 0 0 0 0 0 0 0 0 0 0 0 2436 2436 2436 2430 2427 2426 2426 2425 2424 2423 2421 2416 2410 2410 2410 2410 2410 2387 2371 2354 2350 2350 2350 2367 2376 2381 2383 2395 2402 2403 2404 2406 2413 2419 2424 2430 2438 2444 2451 2455 2455 2456 2458 2466 2478 2487 2491 2492 2492 2493 2494 2496 2496 2503 2507 2503 0 0 0 0 0 0 0 0 0 0 0 0 0 0 0 0 0 0 0 0 0 0 0 0 0 0 0 0 0 0 0 0 0 0 0 0 0 0 0 0 0 0 0 0 0 0 0 0 3190 3273 3273 3273 3227 3175 3149 3149 3149 3170 3174 3187 3192 3203 3234 3264 3290 3295 3337 3343 3343 3343 3322 3304 0 0 0 0 0 0 0 0 0 0 0 0 0 0 0 0 0 0 0 0 0 0 0 0 0 0 0 0 0 0 0 0 0 0 0 0 0 0 0 0 0 0 0 0 0 0 0 2985 2991 3128 3277 3300 3320 3320 3320 3314 3314 3314 3385 3419 3419 3419 3417 3393 3366 3366 3366 3367 3372 3382 3393 3399 3392 3400 3405 3410 3410 3432 3433 3453 3495 3515 3526 3550 3550 3550 3486 3392 3392 3392 3427 3427 3433 3453 3462 3499 3656 3794 3802 3820 3820 3827 3832 3849 3849 3849 3824 3821 3815 3813 3812 3812 3808 3808 3809 3810 3810 3810 3810 3792 3586 3464 3379 3379 3379 3518 3518 3518 3453 2991 0 0 0 0 0 0 0 0 0 0 0 0 1589 1582 1571 1562 1561 1560 1560 1560 1558 1555 1554 1552 1552 1551 1551 1550 1549 1548 1548 1547 1546 1545 1544 1543 1543 1541 1540 1539 1538 1538 1537 1535 1535 1534 1533 1532 1531 1528 1527 1525 1525 1524 1521 1519 1517 1516 1514 1514 1514 1513 1513 1512 1512 1511 1511 1511 1510 1510 1510 1509 1508 1507 1507 1506 1505 1504 1503 1502 1501 1500 1499 1497 1494 1493 1491 1490 1488 1486 1485 1483 1480 1478 1477 1475 1473 1473 1472 1471 1471 1469 1466 1464 1463 1463 1463 1464 1464 1464 1464 1463 1463 1462 1461 1459 1457 1456 1455 1453 1449 1448 1446 1445 1445 1443 1443 1441 1441 1441 1439 1438 1437 1435 1433 1431 1431 1431 1431 1433 1433 1433 1433 1434 1434 1434 1434 1434 1434 1434 1434 1433 1432 1432 1431 1431 1429 1428 1427 1426 1424 1423 1422 1420 1420 1417 1416 1413 1413 1412 1410 1404 1399 1396 1396 1396 1395 1396 1396 1398 1401 1401 1402 1402 1402 1403 1402 1402 1402 1402 1402 1401 1401 1400 1399 1399 1398 1398 1398 1397 1396 1396 1395 1394 1393 1392 1391 1390 1388 1385 1383 1381 1379 1377 1375 1374 1372 1372 1366 1366 1366 1367 1369 1371 1371 1371 1371 1371 1371 1371 1371 1371 1370 1369 1369 1368 1368 1367 1367 1366 1366 1366 1365 1365 1365 1365 1365 1364 1364 1364 1363 1363 1362 1362 1362 1362 1362 1361 1361 1361 1360 1360 1360 1359 1358 1358 1358 1361 1361 1364 1366 1369 1370 1373 1383 0 0 0 0 0 1736 1739 1764 1764 1765 1765 1767 1773 1776 1782 1787 1789 1789 1790 1792 1794 1795 1796 1798 1798 1801 1804 1805 1805 1807 1808 1808 1808
0 0 0 0 0 0 0 0 0 0 0 0 0 0 0 0 0 0 0 0 0 0 0 0 0 0 0 0 0 0 0 0 0 0 0 0 0 0 0 0 0 0 0 0 0 0 0 0 0 0 0 0 0 0 0 0 0 0 0 0 0 0 0 0 0 0 2432 2436 2436 2436 2430 2426 2426 2426 2425 2424 2423 2421 2416 2413 2413 2410 2408 2408 2403 2375 2351 2351 2351 2352 2367 2376 2381 2383 2395 2400 2401 2404 2406 2412 2418 2424 2430 2438 2442 2443 2444 2445 2448 2452 2462 2470 2481 2490 2493 2495 2499 2503 2511 2513 2513 2515 2515 0 0 0 0 0 0 0 0 0 0 0 0 0 0 0 0 0 0 0 0 0 0 0 0 0 0 0 0 0 0 0 0 0 0 0 0 0 0 0 0 0 0 0 0 0 0 0 3228 3297 3297 3297 3288 3248 3192 3192 3192 3205 3224 3232 3239 3253 3259 3275 3290 3295 3298 3337 3350 3350 3350 3322 3304 3304 3302 3298 3298 3274 3245 3241 3233 3231 3231 3224 3168 3112 3103 0 0 0 0 0 0 0 0 0 0 0 0 0 0 0 0 0 0 0 0 0 0 0 0 0 0 0 0 0 0 0 0 0 2999 3102 3230 3277 3300 3315 3319 3321 3321 3334 3351 3396 3419 3419 3419 3393 3355 3347 3347 3347 3348 3368 3372 3375 3382 3392 3400 3401 3410 3410 3421 3421 3422 3422 3429 3444 3444 3444 3433 3345 3345 3345 3392 3427 3453 3453 3513 3529 3596 3794 3802 3838 3841 3841 3847 3847 3859 3859 3859 3824 3807 3805 3805 3805 3806 3806 3806 3806 3806 3811 3817 3817 3817 3798 3638 3460 3460 3460 3518 3518 3518 3453 3130 0 0 0 0 0 0 0 0 0 0 0 0 1598 1582 1571 1564 1561 1560 1560 1558 1556 1554 1552 1551 1550 1549 1549 1548 1548 1547 1546 1545 1545 1544 1543 1542 1541 1540 1539 1538 1537 1537 1536 1534 1534 1533 1531 1530 1529 1527 1526 1524 1522 1522 1519 1516 1515 1514 1513 1512 1512 1512 1511 1511 1511 1511 1510 1510 1509 1509 1509 1508 1507 1506 1506 1506 1504 1503 1502 1501 1500 1498 1496 1495 1494 1492 1491 1490 1487 1486 1485 1482 1480 1478 1477 1475 1473 1473 1472 1471 1471 1467 1466 1464 1464 1464 1464 1464 1464 1464 1464 1463 1462 1461 1460 1459 1456 1455 1455 1452 1449 1447 1445 1444 1443 1442 1442 1441 1441 1440 1437 1437 1436 1434 1433 1431 1431 1431 1431 1432 1432 1432 1432 1432 1434 1434 1434 1434 1433 1433 1433 1432 1430 1430 1429 1428 1428 1428 1426 1425 1422 1420 1418 1418 1416 1413 1412 1412 1412 1411 1406 1402 1398 1396 1394 1394 1394 1394 1394 1397 1401 1401 1401 1401 1401 1401 1401 1401 1401 1401 1400 1400 1399 1399 1399 1397 1397 1396 1396 1396 1395 1395 1394 1393 1392 1391 1390 1388 1386 1385 1383 1381 1379 1377 1375 1374 1373 1372 1370 1367 1367 1367 1369 1372 1372 1372 1371 1371 1371 1371 1371 1371 1370 1369 1368 1368 1367 1367 1367 1366 1365 1365 1364 1364 1364 1364 1364 1364 1363 1362 1362 1361 1361 1361 1361 1361 1361 1360 1360 1359 1359 1359 1359 1359 1358 1358 1358 1359 1359 1360 1360 1361 1368 1369 1379 1387 0 0 0 0 1696 1718 1734 1749 1749 1753 1761 1768 1776 1782 1787 1789 1789 1789 1792 1794 1794 1795 1798 1798 1801 1804 1804 1804 1804 1803 1803 1802
0 0 0 0 0 0 0 0 0 0 0 0 0 0 0 0 0 0 0 0 0 0 0 0 0 0 0 0 0 0 0 0 0 0 0 0 0 0 0 0 0 0 0 0 0 0 0 0 0 0 0 0 0 0 0 0 0 0 0 0 0 0 0 0 0 0 2446 2446 2446 2439 2432 2428 2426 2426 2426 2424 2423 2421 2417 2415 2415 2410 2408 2408 2403 2375 2337 2337 2337 2358 2367 2376 2381 2383 2395 2399 2400 2403 2406 2411 2418 2424 2430 2433 2436 2439 2440 2441 2443 2451 2461 2470 2479 2488 2493 2504 2505 2507 2515 2525 2531 2535 2535 2531 0 0 0 0 0 0 0 0 0 0 0 0 0 0 0 0 0 0 0 0 0 0 0 0 2970 2970 2970 0 0 0 0 0 0 0 0 0 0 0 0 0 0 0 0 0 3262 3291 3321 3332 3332 3332 3322 3287 3231 3231 3231 3269 3284 3284 3288 3304 3305 3305 3305 3305 3305 3339 3363 3363 3363 3348 3330 3330 3327 3323 3321 3274 3245 3241 3241 3241 3299 3299 3299 3279 3233 3227 3163 0 0 0 0 0 0 0 0 0 0 0 0 0 0 0 0 0 0 0 0 0 0 0 0 0 0 0 0 0 0 3155 3175 3262 3294 3306 3313 3318 3319 3320 3344 3363 3373 3396 3406 3406 3406 3352 3301 3301 3301 3321 3348 3368 3370 3372 3391 3396 3396 3397 3410 3414 3414 3414 3413 3392 3390 3390 3390 3390 3388 3345 3345 3345 3392 3427 3453 3567 3728 3794 3803 3821 3826 3839 3841 3847 3850 3850 3859 3859 3859 3824 3807 3800 3800 3800 3804 3804 3804 3804 3804 3809 3819 3819 3819 3802 3753 3581 3449 3449 3449 3379 3350 3350 3153 0 0 0 0 0 0 0 0 0 0 0 0 0 1596 1574 1567 1560 1558 1557 1555 1553 1552 1551 1550 1548 1548 1548 1547 1546 1546 1546 1544 1543 1543 1541 1541 1539 1539 1538 1537 1536 1535 1535 1533 1532 1531 1530 1529 1526 1525 1524 1523 1521 1519 1518 1515 1514 1513 1513 1511 1510 1510 1510 1510 1509 1509 1509 1509 1509 1508 1507 1507 1507 1506 1505 1504 1503 1502 1501 1500 1499 1497 1495 1494 1492 1491 1489 1488 1487 1485 1484 1482 1480 1478 1476 1475 1473 1473 1472 1471 1471 1467 1466 1464 1464 1464 1465 1465 1465 1464 1463 1463 1462 1461 1460 1458 1456 1455 1454 1452 1450 1447 1445 1443 1442 1441 1440 1440 1438 1437 1437 1437 1435 1433 1430 1429 1429 1429 1431 1432 1432 1432 1431 1431 1431 1431 1431 1431 1432 1432 1432 1430 1429 1428 1427 1427 1427 1425 1423 1421 1420 1419 1417 1416 1413 1410 1409 1406 1406 1406 1404 1401 1398 1395 1394 1393 1393 1393 1393 1393 1393 1396 1398 1398 1399 1400 1400 1400 1400 1400 1399 1399 1399 1398 1398 1397 1396 1395 1395 1394 1394 1393 1393 1393 1391 1391 1389 1388 1386 1384 1382 1381 1379 1378 1375 1373 1372 1372 1371 1371 1371 1371 1372 1372 1372 1372 1371 1371 1371 1371 1371 1371 1370 1369 1368 1368 1367 1367 1366 1365 1365 1364 1364 1364 1364 1364 1363 1363 1362 1361 1360 1360 1360 1360 1360 1360 1359 1359 1359 1358 1357 1357 1357 1357 1357 1357 1357 1356 1356 1357 1357 1357 1366 1368 1379 1383 1386 0 0 0 0 1693 1717 1737 1738 1751 1761 1768 1776 1782 1787 1789 1789 1789 1792 1794 1794 1795 1796 1798 1800 1802 1802 1802 1802 1799 1799 1795
0 0 0 0 0 0 0 0 0 0 0 0 0 0 0 0 0 0 0 0 0 0 0 0 0 0 0 0 0 0 0 0 0 0 0 0 0 0 0 0 0 0 0 0 0 0 0 0 0 0 0 0 0 0 0 0 0 0 0 0 0 0 0 0 0 2436 2444 2444 2444 2437 2430 2429 2427 2426 2426 2425 2425 2424 2422 2417 2417 2417 2416 2406 2403 2375 2344 2344 2344 2358 2373 2378 2383 2386 2395 2399 2401 2404 2407 2411 2418 2424 2424 2424 2421 2419 2419 2419 2426 2434 2439 2452 2467 2478 2489 2505 2506 2507 2515 2531 2540 2545 2605 2605 2605 0 0 0 0 0 0 0 0 0 0 0 0 0 0 0 0 0 0 0 0 0 2893 2922 3005 3080 3122 3122 3122 3088 3080 0 3054 0 3160 3171 3207 3219 3219 3219 0 0 3171 3294 3390 3422 3422 3422 3403 3394 3367 3328 3277 3277 3277 3325 3335 3342 3346 3345 3345 3345 3315 3315 3315 3347 3384 3384 3384 3348 3330 3330 3329 3325 3325 3290 3245 3241 3241 3241 3299 3337 3337 3337 3302 3237 3237 3237 3259 3259 3259 0 0 0 0 0 0 0 0 0 0 0 0 0 0 0 0 0 0 0 0 0 0 0 0 0 3191 3298 3346 3346 3346 3333 3325 3325 3325 3335 3357 3373 3375 3396 3396 3396 3378 3321 3284 3284 3284 3321 3348 3368 3368 3372 3392 3396 3397 3405 3416 3416 3416 3413 3401 3384 3384 3384 3384 3384 3383 3345 3345 3345 3455 3530 3657 3703 3829 3846 3846 3846 3864 3841 3841 3847 3857 3857 3857 3857 3857 3828 3807 3800 3800 3800 3804 3804 3809 3809 3809 3809 3819 3819 3819 3818 3758 3648 3481 3379 3350 3350 3331 3331 3153 3068 2946 2808 0 0 0 0 0 0 0 0 0 0 0 1586 1569 1561 1557 1554 1553 1553 1551 1549 1548 1547 1547 1547 1546 1545 1545 1544 1543 1542 1542 1540 1539 1538 1537 1536 1535 1535 1534 1532 1532 1532 1530 1529 1527 1525 1523 1521 1520 1518 1517 1515 1514 1514 1512 1509 1508 1508 1508 1508 1508 1508 1508 1507 1507 1507 1506 1506 1506 1505 1505 1504 1503 1503 1500 1500 1498 1497 1496 1495 1493 1491 1489 1488 1487 1486 1485 1483 1480 1478 1477 1476 1474 1473 1472 1472 1471 1470 1467 1467 1467 1466 1466 1466 1465 1465 1464 1463 1462 1461 1460 1459 1458 1456 1455 1454 1452 1450 1447 1445 1443 1441 1440 1439 1438 1438 1437 1437 1435 1434 1432 1430 1429 1429 1429 1431 1431 1431 1431 1430 1429 1429 1428 1428 1428 1429 1429 1429 1428 1427 1425 1425 1425 1423 1422 1419 1418 1417 1416 1416 1413 1409 1406 1404 1403 1401 1401 1400 1400 1397 1395 1393 1392 1391 1391 1391 1391 1393 1396 1396 1397 1397 1398 1398 1399 1399 1399 1398 1398 1397 1397 1396 1395 1394 1394 1394 1393 1393 1393 1392 1391 1391 1390 1389 1387 1386 1384 1382 1381 1379 1378 1375 1372 1372 1372 1371 1372 1372 1372 1373 1373 1373 1372 1371 1371 1371 1371 1371 1370 1369 1369 1368 1367 1367 1366 1365 1365 1364 1363 1363 1363 1363 1362 1362 1362 1361 1360 1360 1359 1359 1359 1359 1359 1358 1358 1357 1357 1357 1357 1356 1356 1356 1356 1355 1355 1355 1355 1356 1356 1360 1365 1371 1372 1372 1392 0 0 0 0 1701 1702 1729 1751 1761 1768 1778 1784 1789 1789 1790 1791 1793 1794 1794 1795 1796 1798 1800 1802 1802 1802 1796 1796 1796 1795
0 0 0 0 0 0 0 0 0 0 0 0 0 0 0 0 0 0 0 0 0 0 0 0 0 0 0 0 0 0 0 0 0 0 0 0 0 0 0 0 0 0 0 0 0 0 0 0 0 0 0 0 0 0 0 0 0 0 0 0 0 0 0 0 0 2436 2444 2444 2444 2437 2429 2429 2427 2427 2426 2426 2426 2424 2422 2417 2417 2416 2407 2403 2383 2338 2338 2338 2360 2368 2373 2379 2384 2393 2399 2400 2401 2404 2408 2411 2416 2420 2420 2420 2416 2416 2416 2419 2426 2430 2433 2434 2436 2447 2489 2505 2507 2508 2516 2534 2548 2566 2642 2642 2642 0 0 0 0 0 0 0 0 0 0 0 0 0 0 0 0 0 0 0 0 3153 3154 3167 3173 3173 3192 3192 3192 3186 3186 3186 3197 3221 3227 3233 3276 3323 3372 3401 3404 3410 3430 3473 3538 3565 3565 3565 3510 3470 3440 3402 3392 3392 3392 3449 3461 3461 3461 3454 3447 3415 3366 3348 3348 3348 3396 3396 3396 3356 3330 3330 3329 3329 3326 3300 3250 3250 3250 3286 3311 3358 3358 3358 3319 3265 3263 3263 3263 3286 3286 3286 3244 3240 3218 3203 3186 0 0 0 0 0 0 0 0 0 0 0 0 0 0 0 0 0 3207 3215 3241 3306 3377 3379 3379 3379 3338 3338 3338 3347 3376 3376 3381 3381 3378 3378 3378 3321 3284 3284 3284 3321 3348 3359 3374 3391 3392 3392 3399 3412 3418 3418 3418 3401 3390 3381 3380 3379 3378 3377 3368 3368 3368 3504 3801 3803 3809 3822 3839 3899 3931 3931 3931 3906 3867 3859 3857 3857 3857 3857 3852 3834 3807 3800 3800 3800 3806 3806 3812 3809 3809 3812 3827 3827 3827 3824 3762 3667 3564 3379 3350 3350 3335 3350 3335 3335 3312 3232 3116 2654 0 0 0 0 0 0 0 0 0 0 0 1570 1558 1554 1550 1550 1549 1548 1547 1547 1546 1546 1545 1544 1543 1543 1542 1541 1540 1539 1537 1536 1535 1535 1534 1533 1532 1531 1530 1530 1528 1528 1525 1523 1522 1520 1518 1514 1511 1511 1511 1510 1510 1509 1507 1507 1507 1507 1507 1506 1506 1506 1505 1505 1505 1505 1505 1504 1504 1502 1501 1501 1500 1499 1498 1496 1495 1493 1492 1490 1489 1487 1486 1485 1484 1482 1480 1477 1476 1475 1474 1473 1472 1471 1471 1470 1469 1468 1468 1467 1466 1466 1465 1465 1464 1463 1462 1461 1460 1459 1458 1456 1455 1454 1452 1450 1447 1445 1442 1441 1440 1438 1437 1436 1436 1435 1434 1433 1429 1429 1429 1429 1429 1431 1431 1431 1431 1429 1428 1427 1426 1426 1426 1426 1426 1426 1425 1425 1423 1422 1422 1422 1420 1419 1414 1413 1412 1410 1407 1406 1403 1402 1401 1399 1399 1398 1397 1396 1394 1392 1390 1390 1390 1390 1390 1390 1393 1395 1396 1396 1396 1397 1397 1397 1397 1397 1396 1396 1395 1395 1393 1393 1393 1392 1392 1392 1392 1391 1390 1390 1389 1387 1386 1385 1384 1382 1381 1379 1377 1375 1372 1372 1372 1372 1372 1372 1372 1373 1373 1373 1372 1371 1371 1371 1371 1370 1370 1369 1368 1367 1366 1366 1365 1364 1364 1364 1363 1363 1362 1362 1361 1361 1361 1360 1359 1359 1358 1358 1357 1357 1357 1357 1356 1356 1355 1355 1355 1355 1355 1355 1354 1354 1354 1354 1354 1354 1354 1354 1356 1360 1362 1364 1377 0 0 0 0 0 1694 1724 1750 1761 1769 1782 1784 1790 1790 1791 1791 1793 1794 1794 1795 1795 1796 1800 1800 1800 1796 1795 1795 1795 1795
