1707 1708 1709 1715 1730 1730 1730 1727 1727 1727 1730 1747 1760 1764 1765 1766 1767 1767 1768 1779 1798 1824 1855 1877 1891 1896 1907 1933 1938 0 2048 2077 2091 2121 2151 2191 2225 2256 2285 2309 2332 2345 2353 2359 2364 2370 2376 2386 2397 2405 2411 2417 2423 2425 2427 2427 2427 2425 2421 2419 2418 2416 2412 2411 2407 2395 2390 2365 0 0 0 0 0 0 0 1402 1385 1384 1384 1384 1384 1384 1385 1385 1388 1388 1390 1390 1391 1393 1395 1397 1399 1401 1403 1405 1407 1409 1411 1413 1415 1416 1417 1418 1420 1421 1421 1421 1421 1421 1420 1420 1420 1418 1415 1411 1408 1408 1408 1409 1412 1415 1416 1417 1418 1419 1421 1423 1426 1429 1432 1435 1438 1443 1448 1453 1457 1469 1481 1483 1487 1492 1495 1498 1501 1504 1507 1510 1513 1515 1517 1518 1520 1521 1523 1525 1526 1526 1526 1526 1526 1526 1525 1524 1524 1523 1521 1520 1520 1520 1522 1523 1525 1527 1530 1533 1540 1546 1554 1559 1565 1568 1572 1576 1590 1597 1601 1604 1608 1610 1612 1614 1617 1621 1624 1627 1629 1632 1634 1637 1638 1642 1644 1646 1647 1649 1653 1657 1657 1661 1663 1663 1664 1668 1671 1676 1679 1682 1684 1685 1688 1690 1693 1695 1698 1701 1703 1703 1703 1703 1704 1706 1707 1708 1712 1716 1719 1722 1723 1729 1737 1743 1747 1752 1764 1768 1773 1778 1780 1784 1786 1789 1792 1795 1798 1801 1803 1805 1808 1810 1811 1813 1813 1814 1814 1814 1814 1814 1814 1816 1819 1824 1827 1831 1834 1835 1838 1840 1845 1856 1868 1877 1883 1888 1889 1890 1894 1899 1903 1907 1909 1910 1913 1915 1918 1922 1925 1926 1926 1926 1926 1926 1928 1934 1949 1950 1953 1954 1955 1964 1969 1972 1973 1977 1980 1982 1982 1983 1985 1987 1990 1992 1997 1997 1997 2001 2007 2022 2040 2041 2043 2043 2042 2042 2038 2034 2030 2029 2028 2027 2027 2026 2026 2026 2024 2022 2021 2020 2018 2008 1997 1986 1976 1947 1937 1928 1918 1904 1896 1891 1888 1888 1887 1886 1882 1879 1875 1871 1868 1864 1861 1859 1858 1857 1854 1851 1848 1843 1839 1836 1835 1830 1829 1827 1824 1821 1819 1813 1811 1810 1810 1809 1809 1809 1809 1809 1809 1806 1802 1798 1795 1795 1795 1795 1797 1797 1797 1796 1796 1795 1794 1794 1793 1791 1790 1790 1788 1788 1787 1787 1785 1784 1784 1782 1782 1782 1781 1780 1777 1775 1774 1773 1772 1769 1768 1766 1764 1763 1761 1761 1760 1759 1759 1759 1758 1758 1758 1759 1759 1759 1759 1759 1759 1759 1758 1758 1757 1757 1757 1757 1757 1757 1757 1757 1757 1757 1756 1756 1756 1755 1755 1755 1754 1753 1753 1752 1752 1752 1752 1752 1752 1751 1751 1750 1750 1749 1749 1748 1748 1748 1748 1748 1748 1748 1748 1749 1750 1751 1751 1752 1753 1754 1755 1756 1756 1756 1756 1755 1754 1754 1754 1754 1753 1753 1753 1752 1752 1751 1751 1751 1750 1750 1749 1748 1747 1747 1747 1747 1747 1748 1748 1750 1750 1751 1752 1753 1753 1753 1753 1752 1752 1752 1752 1752 1751 1751 1750 1750 1749 1749 1749 1748 1748 1748 1748 1748 1748 1748 1748 1748 1747 1747 1747 1747 1748 1748 1747 1747 1747 1747 1747 1748 1748 1749 1749 1750 1751 1751 1752 1753 1753 1754 1755 1756 1756 1756 1756 1756 1756 1756 1756 1756 1756 1756 1756 1756 1756 1757 1758 1759 1761 1762 1763 1765 1766 1767 1770 1771 1773 1774 1774 1774 1775 1776 1776 1777 1778 1781 1782 1784 1786 1789 1789 1792 1792 1794 1796 1797 1798 1803 1803 1804 1804 1804 1807 1807 0
1721 1723 1723 1730 1738 1738 1738 1738 1738 1738 1741 1750 1762 1768 1771 1771 1773 1773 1774 1779 1798 1822 1845 1863 1877 1892 1907 1933 1938 1974 2043 2072 2091 2115 2150 2184 2220 2249 2277 2296 2315 2325 2346 2354 2359 2368 2375 2385 2396 2403 2404 2409 2413 2419 2420 2422 2422 2422 2423 2423 2422 2422 2422 2420 2408 2408 2394 2368 0 0 0 0 0 0 0 0 1400 1384 1384 1384 1384 1384 1385 1385 1388 1388 1390 1390 1391 1393 1395 1397 1399 1401 1403 1405 1407 1409 1411 1413 1415 1416 1418 1418 1420 1421 1422 1422 1422 1421 1421 1421 1420 1419 1417 1410 1408 1408 1408 1410 1413 1417 1417 1420 1420 1421 1422 1424 1427 1429 1432 1435 1439 1444 1448 1453 1457 1470 1481 1483 1489 1492 1495 1498 1501 1504 1507 1510 1513 1514 1517 1518 1520 1521 1523 1525 1526 1526 1526 1526 1526 1526 1525 1524 1523 1520 1519 1519 1519 1519 1520 1522 1525 1527 1530 1533 1539 1542 1549 1555 1561 1567 1572 1576 1589 1597 1601 1605 1608 1610 1613 1616 1619 1622 1624 1627 1630 1632 1635 1637 1639 1642 1644 1646 1647 1649 1653 1654 1654 1655 1658 1658 1659 1662 1666 1672 1677 1682 1684 1684 1685 1690 1693 1694 1698 1701 1702 1703 1705 1706 1706 1708 1709 1709 1712 1716 1719 1722 1724 1731 1740 1748 1754 1759 1767 1769 1772 1777 1780 1783 1786 1789 1793 1796 1798 1801 1803 1805 1807 1809 1811 1812 1812 1813 1814 1814 1814 1814 1814 1815 1817 1821 1825 1830 1831 1835 1838 1840 1845 1857 1868 1879 1883 1888 1889 1892 1895 1900 1903 1907 1909 1911 1913 1915 1918 1922 1925 1925 1925 1923 1923 1923 1923 1932 1939 1939 1942 1944 1944 1957 1962 1970 1972 1976 1979 1981 1981 1982 1985 1985 1987 1990 1994 1995 1997 2001 2007 2020 2030 2032 2034 2036 2037 2037 2037 2031 2025 2024 2024 2022 2020 2020 2020 2019 2017 2013 2013 2010 2008 1993 1983 1962 1941 1930 1920 1912 1902 1891 1885 1880 1880 1879 1879 1878 1875 1871 1867 1862 1858 1856 1853 1853 1852 1851 1851 1850 1844 1839 1835 1832 1828 1825 1823 1820 1816 1814 1812 1809 1808 1806 1804 1801 1801 1801 1801 1801 1799 1797 1796 1793 1791 1791 1791 1791 1791 1791 1791 1791 1789 1789 1788 1789 1789 1789 1788 1788 1788 1787 1786 1785 1784 1782 1782 1782 1781 1781 1780 1779 1777 1775 1774 1773 1772 1770 1769 1766 1764 1763 1761 1761 1760 1759 1759 1759 1758 1758 1758 1759 1759 1759 1759 1759 1759 1759 1758 1758 1757 1757 1757 1757 1757 1757 1757 1757 1757 1757 1756 1756 1756 1755 1755 1755 1754 1753 1753 1753 1752 1752 1752 1752 1751 1751 1751 1750 1749 1749 1749 1748 1748 1748 1748 1748 1748 1748 1748 1749 1750 1750 1751 1752 1753 1754 1755 1755 1755 1755 1755 1754 1754 1754 1753 1753 1752 1752 1752 1751 1750 1750 1749 1749 1749 1748 1748 1748 1747 1747 1747 1747 1748 1748 1749 1750 1751 1751 1752 1753 1753 1753 1753 1753 1753 1752 1752 1752 1752 1751 1750 1750 1750 1749 1749 1748 1748 1748 1748 1748 1748 1748 1748 1748 1748 1748 1748 1748 1748 1748 1748 1748 1748 1748 1748 1748 1748 1749 1750 1750 1751 1751 1752 1753 1753 1755 1755 1757 1757 1757 1757 1757 1757 1757 1757 1757 1757 1757 1757 1758 1758 1758 1760 1761 1763 1764 1765 1766 1769 1771 1772 1773 1774 1774 1776 1777 1777 1777 1779 1779 1781 1782 1784 1786 1787 1789 1790 1792 1793 1794 1796 1797 1798 1802 1802 1802 1803 1804 1807 1807 0
1739 1740 1745 1746 1746 1746 1746 1746 1748 1751 1754 1760 1768 1775 1779 1779 1779 1779 1779 1779 1798 1813 1830 1845 1869 1892 1907 1933 1938 1969 2042 2072 2091 2115 2147 2184 2218 2249 2267 2284 2298 2309 2331 2350 2355 2368 2372 2381 2396 2401 2402 2403 2406 2414 2420 2422 2422 2422 2423 2424 2425 2429 2429 2429 2421 2409 2406 2392 0 0 0 0 0 0 0 0 0 1402 1392 1384 1384 1384 1384 1386 1388 1388 1389 1390 1391 1393 1394 1396 1399 1401 1404 1405 1408 1409 1411 1413 1415 1416 1418 1418 1420 1421 1423 1423 1423 1423 1422 1421 1421 1420 1417 1410 1408 1408 1408 1411 1414 1417 1418 1420 1422 1424 1424 1425 1427 1430 1432 1436 1439 1444 1448 1455 1460 1471 1480 1483 1489 1492 1495 1498 1501 1504 1507 1510 1513 1514 1517 1518 1520 1521 1523 1525 1526 1526 1526 1526 1526 1526 1524 1523 1523 1520 1519 1519 1519 1519 1520 1522 1526 1530 1534 1536 1539 1542 1549 1555 1561 1567 1572 1576 1590 1598 1602 1605 1608 1611 1614 1617 1620 1622 1625 1628 1630 1632 1635 1637 1639 1642 1644 1646 1647 1649 1652 1652 1652 1652 1652 1652 1654 1657 1659 1663 1670 1677 1682 1684 1684 1688 1693 1694 1696 1697 1701 1703 1705 1707 1708 1711 1713 1714 1716 1716 1719 1722 1724 1731 1740 1748 1755 1761 1769 1769 1771 1777 1780 1782 1786 1790 1793 1796 1798 1801 1803 1805 1807 1809 1811 1812 1812 1812 1814 1814 1814 1814 1814 1814 1815 1818 1823 1827 1831 1834 1838 1842 1846 1858 1867 1877 1885 1890 1891 1894 1898 1902 1904 1907 1909 1911 1913 1915 1917 1921 1923 1923 1923 1919 1919 1919 1921 1931 1933 1933 1933 1933 1933 1935 1949 1964 1970 1973 1976 1979 1980 1982 1984 1985 1987 1990 1993 1994 1997 2001 2007 2020 2021 2024 2025 2025 2025 2025 2025 2023 2021 2020 2019 2016 2013 2012 2011 2011 2010 2005 2001 1996 1991 1974 1956 1938 1928 1916 1903 1899 1892 1884 1879 1877 1875 1875 1875 1874 1870 1864 1860 1856 1851 1849 1846 1846 1845 1845 1845 1842 1837 1830 1824 1822 1820 1816 1816 1815 1811 1808 1806 1804 1801 1799 1798 1798 1798 1797 1796 1793 1793 1793 1793 1791 1790 1788 1788 1787 1787 1786 1786 1785 1784 1784 1784 1784 1784 1786 1787 1787 1787 1786 1784 1784 1784 1782 1782 1782 1781 1781 1780 1779 1777 1776 1774 1774 1772 1771 1769 1766 1764 1763 1762 1761 1760 1759 1759 1759 1759 1759 1759 1759 1759 1759 1759 1759 1759 1759 1758 1758 1758 1758 1758 1758 1758 1757 1757 1757 1757 1757 1756 1756 1756 1755 1755 1755 1754 1753 1753 1753 1753 1752 1752 1752 1751 1751 1751 1750 1749 1749 1749 1748 1748 1748 1748 1748 1748 1748 1748 1749 1750 1750 1751 1752 1753 1754 1754 1755 1755 1755 1754 1754 1754 1753 1752 1752 1752 1751 1751 1750 1750 1750 1748 1748 1748 1748 1748 1747 1748 1748 1748 1748 1749 1750 1750 1751 1752 1752 1753 1753 1753 1753 1753 1753 1753 1752 1752 1752 1752 1751 1751 1750 1749 1749 1749 1748 1748 1748 1748 1748 1748 1748 1748 1748 1748 1749 1749 1749 1749 1749 1749 1749 1749 1749 1748 1748 1749 1750 1750 1750 1751 1751 1752 1753 1754 1756 1756 1757 1758 1758 1758 1759 1759 1759 1759 1760 1760 1760 1760 1760 1761 1761 1761 1763 1764 1765 1768 1770 1771 1773 1774 1775 1778 1778 1779 1779 1780 1780 1781 1782 1784 1786 1786 1787 1789 1790 1790 1792 1793 1794 1795 1796 1796 1798 1799 1800 1800 1804 1812 1812 0
1749 1751 1752 1752 1752 1746 1746 1746 1748 1751 1755 1767 1774 1779 1782 1782 1782 1780 1780 1780 1788 1801 1818 1844 1869 1892 1914 1935 1939 1969 2034 2060 2085 2113 2140 2176 2211 2238 2258 2270 2284 2294 2310 2344 2349 2360 2365 2379 2395 2401 2402 2403 2406 2414 2420 2422 2422 2423 2423 2424 2425 2431 2431 2431 2431 2422 2409 2404 2392 0 0 0 0 0 0 0 0 0 1400 1384 1383 1383 1384 1385 1386 1387 1388 1389 1391 1393 1394 1396 1398 1401 1404 1406 1408 1409 1411 1413 1415 1416 1418 1419 1421 1422 1423 1423 1423 1423 1422 1422 1422 1420 1417 1410 1410 1410 1410 1412 1414 1417 1418 1420 1423 1427 1427 1427 1430 1430 1432 1436 1439 1445 1450 1455 1460 1472 1481 1485 1489 1492 1495 1498 1501 1504 1507 1510 1512 1514 1517 1518 1520 1521 1523 1524 1526 1526 1526 1526 1526 1526 1524 1523 1522 1520 1520 1520 1520 1520 1520 1522 1526 1530 1534 1536 1540 1542 1549 1552 1559 1567 1574 1579 1590 1597 1602 1606 1609 1611 1615 1618 1620 1623 1625 1628 1631 1633 1635 1637 1639 1642 1644 1645 1647 1648 1648 1649 1650 1651 1651 1652 1652 1654 1656 1662 1667 1667 1672 1679 1683 1686 1692 1694 1695 1697 1701 1704 1707 1711 1714 1718 1719 1720 1722 1725 1728 1728 1731 1734 1741 1749 1755 1761 1769 1769 1771 1777 1780 1782 1786 1790 1793 1796 1798 1800 1802 1805 1807 1808 1811 1811 1811 1811 1811 1812 1813 1814 1814 1815 1815 1818 1822 1825 1829 1834 1839 1843 1849 1863 1868 1878 1886 1891 1893 1896 1900 1904 1906 1907 1909 1911 1913 1915 1917 1918 1918 1918 1915 1915 1915 1917 1921 1926 1927 1928 1928 1928 1928 1934 1941 1954 1963 1970 1976 1978 1980 1982 1983 1985 1987 1989 1993 1994 1997 2001 2011 2020 2020 2020 2019 2018 2018 2018 2018 2016 2016 2016 2014 2013 2008 2004 2003 2002 2000 1996 1990 1984 1975 1963 1940 1928 1911 1902 1897 1887 1879 1875 1873 1873 1872 1872 1870 1868 1863 1860 1854 1850 1847 1845 1844 1840 1840 1837 1835 1833 1826 1820 1817 1815 1814 1811 1809 1808 1806 1803 1801 1800 1797 1797 1797 1796 1795 1793 1792 1789 1789 1788 1788 1788 1788 1786 1785 1785 1784 1783 1783 1782 1782 1782 1782 1782 1782 1783 1784 1784 1784 1784 1784 1784 1784 1783 1782 1782 1781 1781 1780 1779 1778 1777 1776 1774 1773 1771 1770 1766 1765 1764 1763 1761 1760 1759 1759 1759 1759 1759 1759 1759 1759 1759 1759 1759 1759 1759 1759 1758 1758 1758 1758 1758 1758 1758 1758 1758 1757 1757 1756 1756 1756 1755 1755 1755 1754 1753 1753 1753 1753 1752 1752 1752 1752 1752 1751 1750 1750 1749 1749 1749 1748 1748 1748 1748 1748 1748 1748 1749 1750 1750 1751 1752 1753 1753 1754 1755 1755 1755 1754 1753 1753 1753 1752 1751 1751 1751 1750 1750 1749 1748 1748 1748 1748 1748 1747 1747 1748 1748 1748 1750 1750 1750 1752 1753 1753 1753 1753 1753 1753 1753 1754 1754 1754 1754 1752 1752 1752 1751 1751 1750 1750 1749 1749 1748 1748 1748 1748 1748 1748 1748 1748 1749 1749 1749 1749 1749 1750 1750 1750 1750 1750 1750 1750 1750 1750 1750 1750 1751 1752 1752 1753 1754 1755 1756 1758 1759 1759 1760 1761 1761 1762 1762 1762 1762 1763 1763 1763 1763 1763 1763 1763 1764 1766 1767 1768 1770 1772 1774 1776 1780 1781 1782 1782 1782 1782 1782 1784 1786 1786 1787 1788 1788 1789 1791 1791 1792 1793 1794 1795 1796 1796 1797 1797 1798 1800 1804 1813 1813 0
1750 1751 1755 1755 1755 1749 1748 1748 1748 1751 1755 1769 1776 1782 1785 1785 1785 1780 1780 1780 1788 1801 1818 1844 1869 1895 1915 1935 1940 1964 2013 2037 2065 2097 2122 2157 2190 2215 2234 2257 2276 2286 2301 2322 2327 2354 2362 2378 2392 2401 2402 2403 2406 2414 2420 2422 2422 2423 2425 2427 2429 2433 2435 2435 2435 2434 2420 2405 2399 2378 2329 2280 0 0 0 0 0 0 0 1384 1382 1382 1384 1385 1386 1387 1388 1389 1391 1393 1394 1396 1398 1401 1403 1406 1408 1409 1412 1414 1415 1417 1418 1420 1422 1422 1423 1424 1424 1424 1425 1425 1425 1422 1419 1419 1419 1418 1416 1416 1416 1418 1419 1421 1427 1432 1434 1434 1434 1434 1436 1436 1442 1447 1451 1456 1462 1472 1480 1484 1489 1492 1495 1497 1500 1502 1506 1509 1511 1513 1516 1518 1519 1521 1522 1524 1525 1526 1526 1526 1525 1525 1524 1522 1520 1520 1520 1520 1520 1520 1520 1523 1528 1534 1539 1541 1544 1545 1549 1552 1559 1567 1574 1582 1589 1597 1602 1607 1609 1612 1615 1618 1621 1623 1626 1628 1631 1633 1636 1638 1639 1641 1643 1643 1645 1647 1648 1648 1649 1649 1650 1652 1652 1653 1655 1660 1663 1665 1666 1672 1678 1686 1691 1692 1695 1697 1701 1706 1709 1711 1717 1720 1722 1723 1725 1726 1728 1735 1736 1738 1744 1750 1756 1761 1768 1769 1770 1777 1779 1782 1785 1790 1793 1796 1798 1799 1801 1803 1805 1807 1809 1811 1811 1811 1811 1812 1813 1815 1815 1815 1815 1818 1821 1825 1828 1833 1839 1843 1855 1870 1871 1880 1888 1893 1894 1899 1902 1905 1907 1908 1909 1911 1913 1915 1917 1917 1917 1917 1915 1912 1912 1912 1918 1921 1923 1923 1926 1927 1928 1933 1941 1954 1962 1970 1976 1978 1980 1981 1982 1984 1985 1989 1992 1994 2000 2007 2018 2024 2024 2024 2018 2018 2015 2014 2014 2014 2013 2013 2013 2011 2006 2002 1997 1993 1991 1985 1981 1970 1959 1942 1927 1912 1904 1900 1891 1881 1876 1871 1870 1870 1868 1867 1866 1863 1858 1854 1850 1846 1844 1843 1841 1838 1834 1832 1830 1827 1820 1816 1813 1811 1809 1808 1806 1805 1804 1803 1800 1798 1797 1797 1795 1794 1791 1791 1789 1787 1786 1786 1785 1785 1784 1783 1783 1782 1781 1781 1781 1780 1780 1780 1781 1781 1781 1782 1783 1784 1784 1784 1784 1784 1784 1784 1783 1783 1782 1781 1780 1780 1779 1777 1777 1775 1773 1771 1770 1768 1767 1766 1765 1762 1761 1761 1760 1760 1760 1760 1760 1760 1760 1760 1759 1759 1759 1759 1759 1759 1759 1759 1759 1759 1759 1758 1758 1758 1757 1757 1757 1756 1756 1756 1756 1755 1755 1755 1754 1753 1753 1753 1753 1752 1752 1752 1752 1751 1751 1750 1750 1749 1748 1748 1748 1748 1748 1748 1748 1749 1750 1750 1751 1752 1753 1754 1754 1755 1755 1755 1754 1753 1753 1752 1751 1751 1750 1750 1750 1749 1749 1748 1748 1748 1748 1748 1748 1748 1748 1748 1749 1751 1751 1752 1752 1753 1754 1754 1754 1754 1755 1755 1755 1754 1754 1754 1753 1752 1752 1751 1751 1750 1750 1749 1749 1748 1748 1748 1748 1748 1748 1749 1749 1749 1749 1750 1750 1751 1751 1751 1751 1751 1751 1751 1751 1751 1751 1751 1752 1752 1753 1754 1756 1756 1757 1758 1759 1760 1762 1762 1763 1764 1764 1764 1764 1764 1764 1764 1765 1765 1765 1765 1765 1765 1767 1768 1769 1770 1773 1775 1781 1783 1784 1784 1784 1784 1785 1785 1787 1788 1789 1789 1790 1790 1791 1792 1793 1794 1794 1794 1795 1796 1796 1796 1797 1798 1800 1806 1813 1813 0
1750 1751 1757 1757 1757 1750 1746 1746 1746 1748 1755 1769 1781 1789 1789 1789 1786 1780 1780 1780 1788 1801 1818 1844 1869 1895 1915 1935 1940 1960 1990 2026 2054 2084 2107 2140 2162 2179 2208 2240 2267 2282 2295 2311 2317 2341 2359 2373 2388 2400 2404 2408 2409 2415 2420 2422 2422 2423 2428 2431 2436 2440 2441 2441 2440 2435 2429 2416 2405 2382 2345 2298 2260 0 0 0 0 0 0 0 0 1386 1386 1386 1386 1387 1388 1389 1391 1393 1394 1396 1398 1401 1403 1406 1408 1410 1412 1414 1416 1417 1419 1420 1422 1423 1423 1424 1425 1425 1425 1425 1425 1424 1424 1424 1422 1422 1423 1421 1421 1421 1423 1425 1430 1434 1436 1436 1436 1436 1436 1438 1445 1447 1451 1457 1462 1472 1479 1483 1488 1492 1495 1497 1499 1502 1505 1508 1510 1512 1514 1517 1519 1520 1522 1523 1524 1525 1525 1525 1525 1525 1524 1522 1520 1520 1520 1520 1520 1521 1521 1524 1528 1534 1539 1541 1546 1549 1550 1552 1559 1566 1574 1583 1591 1597 1602 1607 1609 1612 1616 1618 1621 1623 1626 1628 1631 1633 1636 1638 1639 1641 1642 1643 1644 1646 1646 1646 1646 1648 1649 1650 1651 1653 1655 1658 1661 1662 1665 1670 1678 1686 1691 1692 1694 1695 1701 1706 1711 1712 1717 1722 1723 1724 1726 1728 1734 1736 1738 1739 1744 1752 1756 1761 1767 1768 1769 1777 1779 1782 1785 1790 1793 1795 1797 1799 1801 1802 1803 1806 1809 1811 1811 1811 1812 1812 1813 1816 1816 1816 1816 1818 1821 1825 1827 1831 1839 1843 1855 1870 1875 1880 1886 1893 1897 1900 1903 1905 1907 1908 1910 1911 1913 1915 1915 1916 1916 1915 1914 1908 1908 1908 1915 1917 1917 1922 1924 1925 1927 1932 1941 1954 1962 1970 1975 1978 1980 1981 1982 1983 1985 1989 1992 1994 2000 2008 2022 2027 2027 2027 2018 2018 2015 2013 2012 2012 2012 2012 2009 2008 2004 1998 1991 1987 1980 1976 1967 1955 1941 1926 1914 1907 1901 1895 1887 1878 1873 1870 1868 1866 1865 1864 1864 1857 1852 1849 1847 1844 1842 1840 1836 1832 1829 1826 1825 1822 1819 1814 1811 1809 1808 1807 1806 1803 1802 1800 1798 1796 1796 1796 1793 1791 1789 1788 1786 1785 1784 1784 1784 1783 1782 1781 1781 1780 1780 1780 1780 1780 1780 1780 1780 1781 1781 1782 1783 1784 1784 1784 1784 1784 1784 1784 1784 1783 1782 1781 1781 1780 1779 1779 1777 1775 1774 1771 1770 1769 1768 1768 1766 1764 1763 1762 1762 1761 1761 1761 1761 1761 1761 1761 1761 1761 1760 1760 1760 1760 1760 1760 1760 1760 1760 1759 1758 1758 1758 1758 1758 1757 1757 1757 1756 1756 1756 1755 1754 1754 1753 1753 1753 1753 1753 1752 1752 1751 1751 1750 1750 1749 1748 1748 1748 1748 1748 1748 1748 1749 1750 1750 1752 1752 1753 1754 1754 1754 1754 1754 1753 1753 1752 1752 1751 1750 1750 1750 1749 1749 1748 1748 1748 1748 1748 1748 1748 1748 1749 1750 1751 1751 1751 1752 1753 1754 1755 1755 1755 1755 1755 1755 1755 1755 1754 1754 1753 1752 1752 1751 1751 1751 1750 1750 1749 1749 1749 1749 1749 1749 1749 1749 1750 1750 1750 1751 1752 1752 1752 1752 1752 1753 1753 1753 1753 1753 1753 1753 1753 1754 1754 1755 1757 1759 1760 1761 1761 1762 1764 1764 1764 1766 1766 1766 1766 1766 1766 1766 1767 1767 1767 1768 1768 1768 1769 1770 1770 1771 1773 1777 1782 1784 1785 1786 1786 1786 1788 1788 1790 1790 1791 1792 1792 1792 1793 1794 1795 1795 1795 1796 1797 1797 1797 1797 1798 1798 1800 1806 1813 1813 0
1750 1751 1757 1757 1757 1754 1748 1748 1748 1748 1755 1770 1783 1792 1796 1796 1796 1796 1796 1796 1805 1816 1833 1850 1869 1895 1915 1933 1940 1960 1983 2015 2046 2076 2099 2117 2142 2161 2191 2229 2256 2273 2289 2307 2312 2337 2351 2363 2380 2395 2404 2410 2411 2415 2420 2422 2422 2423 2428 2436 2441 2446 2446 2446 2446 2441 2432 2425 2411 2384 2346 2301 2261 2245 0 0 0 0 0 0 0 1392 1387 1387 1387 1387 1388 1389 1392 1393 1395 1396 1399 1401 1403 1405 1408 1410 1412 1414 1416 1417 1419 1421 1422 1423 1424 1425 1425 1425 1426 1428 1428 1428 1429 1429 1427 1429 1429 1429 1430 1430 1431 1431 1432 1434 1437 1437 1437 1438 1439 1440 1445 1448 1451 1460 1472 1476 1479 1483 1487 1491 1493 1496 1498 1502 1504 1508 1510 1511 1514 1516 1518 1519 1521 1522 1523 1524 1524 1524 1524 1524 1524 1521 1520 1520 1520 1520 1520 1521 1521 1524 1528 1534 1539 1542 1548 1553 1555 1557 1560 1566 1574 1583 1591 1597 1602 1607 1609 1612 1616 1618 1621 1624 1626 1628 1631 1633 1636 1638 1639 1641 1642 1643 1644 1644 1644 1644 1645 1646 1647 1647 1648 1652 1655 1658 1661 1661 1664 1670 1678 1685 1688 1692 1692 1694 1703 1708 1712 1716 1717 1722 1723 1724 1730 1734 1734 1738 1740 1741 1745 1752 1755 1760 1766 1767 1769 1774 1776 1780 1784 1787 1791 1795 1796 1799 1800 1801 1803 1806 1809 1811 1812 1812 1812 1813 1813 1816 1816 1817 1817 1819 1821 1825 1827 1831 1835 1843 1855 1870 1875 1880 1886 1893 1897 1900 1903 1906 1907 1909 1910 1911 1913 1913 1914 1915 1914 1912 1910 1907 1907 1907 1912 1914 1915 1918 1923 1924 1925 1932 1941 1956 1962 1967 1975 1978 1980 1981 1981 1981 1984 1989 1992 1994 2001 2012 2027 2040 2040 2040 2023 2017 2015 2013 2011 2009 2009 2007 2002 1998 1996 1992 1988 1983 1976 1967 1954 1940 1927 1916 1908 1903 1895 1889 1881 1874 1871 1868 1867 1863 1862 1861 1860 1856 1851 1847 1846 1844 1839 1837 1834 1829 1826 1822 1820 1818 1815 1813 1810 1806 1804 1802 1801 1799 1798 1797 1796 1794 1793 1792 1790 1789 1788 1787 1785 1783 1783 1783 1782 1781 1781 1780 1779 1779 1779 1779 1779 1779 1780 1780 1780 1781 1782 1782 1783 1784 1785 1785 1785 1784 1784 1784 1784 1783 1783 1782 1782 1781 1781 1779 1777 1776 1774 1773 1771 1770 1770 1768 1767 1766 1764 1763 1763 1763 1763 1763 1762 1762 1762 1762 1762 1762 1762 1761 1761 1761 1761 1760 1760 1760 1760 1760 1759 1759 1759 1759 1758 1758 1758 1757 1757 1756 1756 1755 1755 1754 1754 1754 1754 1753 1753 1753 1753 1752 1751 1751 1750 1750 1750 1749 1748 1748 1748 1748 1748 1748 1750 1750 1752 1752 1753 1753 1754 1754 1753 1753 1753 1752 1752 1752 1751 1750 1749 1749 1749 1749 1748 1748 1748 1748 1748 1748 1748 1748 1751 1751 1751 1752 1753 1754 1754 1755 1755 1755 1756 1756 1756 1756 1756 1755 1754 1754 1754 1752 1752 1752 1751 1751 1750 1750 1750 1749 1749 1749 1749 1749 1749 1750 1751 1751 1752 1753 1753 1753 1753 1754 1754 1754 1754 1754 1754 1754 1755 1755 1755 1755 1756 1757 1758 1760 1762 1763 1763 1763 1764 1765 1766 1767 1768 1768 1768 1768 1768 1768 1768 1768 1769 1770 1771 1772 1772 1773 1773 1774 1777 1779 1784 1784 1785 1786 1787 1788 1790 1791 1792 1792 1793 1793 1794 1795 1796 1796 1797 1797 1797 1798 1799 1799 1799 1799 1799 1799 1801 1807 1813 1813 0
1749 1751 1758 1758 1758 1755 1752 1748 1748 1748 1755 1770 1785 1794 1797 1797 1797 1796 1796 1796 1805 1832 1848 1854 1869 1887 1911 1933 1938 1957 1980 2008 2042 2073 2099 2117 2135 2160 2191 2220 2247 2265 2275 2293 2299 2325 2337 2353 2372 2391 2406 2410 2412 2416 2420 2422 2422 2423 2429 2437 2445 2448 2449 2449 2449 2441 2435 2428 2412 2385 2351 2310 2285 2254 2231 0 0 0 0 0 0 1395 1387 1387 1387 1387 1389 1390 1392 1394 1395 1396 1398 1400 1403 1405 1408 1410 1412 1414 1416 1417 1419 1421 1423 1424 1425 1425 1426 1426 1427 1428 1430 1430 1432 1432 1433 1433 1435 1437 1438 1439 1439 1439 1440 1440 1442 1442 1442 1444 1445 1446 1446 1451 1452 1464 1472 1476 1479 1480 1486 1490 1492 1495 1498 1500 1503 1506 1509 1510 1512 1515 1517 1518 1520 1522 1523 1524 1524 1524 1524 1523 1523 1520 1519 1519 1519 1520 1520 1521 1521 1524 1527 1531 1535 1541 1548 1553 1555 1558 1560 1566 1571 1584 1594 1597 1602 1607 1609 1613 1616 1619 1621 1624 1626 1628 1631 1633 1635 1637 1638 1640 1642 1642 1642 1643 1643 1644 1644 1645 1645 1646 1647 1651 1655 1658 1661 1661 1664 1670 1678 1685 1685 1687 1687 1695 1703 1712 1713 1717 1720 1722 1725 1730 1733 1738 1740 1740 1741 1743 1749 1754 1756 1759 1762 1765 1767 1773 1776 1778 1782 1786 1790 1793 1796 1797 1799 1800 1803 1806 1809 1811 1813 1813 1813 1814 1814 1816 1816 1817 1817 1819 1822 1825 1827 1831 1832 1838 1852 1868 1877 1883 1886 1893 1897 1900 1903 1906 1907 1909 1910 1911 1912 1912 1912 1912 1912 1912 1909 1905 1905 1905 1908 1911 1911 1914 1915 1920 1924 1928 1941 1956 1962 1965 1972 1975 1978 1980 1980 1981 1983 1989 1993 1994 2001 2020 2045 2045 2045 2040 2026 2018 2014 2013 2010 2006 2004 2002 1999 1993 1987 1985 1985 1981 1972 1961 1944 1934 1924 1915 1908 1898 1892 1886 1881 1874 1871 1867 1865 1861 1860 1858 1857 1855 1851 1846 1844 1841 1837 1834 1831 1828 1823 1819 1817 1814 1812 1811 1807 1804 1801 1800 1798 1796 1795 1793 1792 1791 1790 1789 1788 1788 1786 1785 1784 1783 1782 1781 1781 1781 1780 1780 1779 1779 1779 1779 1779 1779 1780 1780 1780 1782 1782 1783 1783 1784 1785 1785 1785 1785 1785 1785 1785 1785 1784 1784 1783 1783 1781 1780 1778 1777 1776 1775 1773 1772 1771 1769 1769 1767 1767 1766 1765 1764 1764 1764 1764 1764 1764 1764 1763 1763 1763 1762 1762 1762 1761 1761 1761 1761 1760 1760 1760 1760 1760 1760 1760 1760 1759 1758 1757 1757 1757 1756 1756 1756 1755 1755 1755 1754 1754 1754 1754 1753 1752 1751 1751 1751 1750 1750 1749 1749 1748 1748 1748 1748 1750 1750 1751 1752 1753 1753 1753 1753 1753 1753 1753 1752 1752 1751 1751 1750 1749 1749 1749 1749 1748 1748 1748 1749 1749 1749 1749 1750 1751 1751 1752 1754 1754 1755 1755 1756 1756 1756 1757 1756 1756 1756 1756 1755 1755 1754 1754 1753 1753 1752 1752 1751 1751 1751 1751 1750 1750 1750 1750 1750 1750 1751 1752 1753 1753 1754 1754 1755 1755 1755 1755 1755 1755 1756 1756 1756 1756 1756 1756 1756 1758 1759 1759 1761 1763 1764 1764 1765 1765 1766 1767 1768 1769 1770 1771 1771 1770 1770 1770 1770 1772 1772 1773 1774 1776 1776 1777 1779 1781 1783 1784 1785 1785 1787 1788 1790 1792 1794 1795 1795 1795 1796 1797 1797 1797 1798 1798 1799 1799 1800 1800 1800 1801 1801 1801 1801 1802 1807 1811 1811 0
1749 1751 1757 1757 1757 1755 1753 1753 1753 1753 1762 1775 1787 1795 1799 1799 1799 1799 1799 1799 1812 1834 1848 1858 1869 1887 1910 1932 1937 1955 1974 2001 2034 2071 2099 2116 2134 2160 2186 2213 2230 2242 2257 2280 2286 2312 2329 2344 2364 2389 2407 2413 2415 2419 2420 2422 2422 2423 2429 2439 2445 2448 2449 2449 2449 2445 2440 2429 2413 2387 2354 2323 2297 2264 2254 0 0 0 0 0 0 1395 1389 1388 1388 1389 1389 1390 1392 1394 1395 1397 1399 1400 1403 1405 1408 1410 1412 1414 1416 1418 1419 1421 1423 1424 1425 1426 1427 1428 1429 1430 1431 1433 1434 1434 1435 1437 1439 1444 1444 1445 1445 1446 1447 1449 1449 1449 1452 1452 1452 1452 1452 1454 1454 1464 1472 1476 1478 1479 1485 1489 1491 1494 1497 1500 1502 1505 1507 1508 1511 1513 1516 1518 1519 1521 1522 1523 1523 1524 1524 1523 1523 1520 1516 1516 1516 1516 1517 1518 1520 1521 1527 1531 1535 1541 1548 1553 1555 1558 1562 1566 1571 1586 1595 1597 1602 1607 1609 1613 1616 1619 1621 1624 1626 1628 1631 1633 1634 1636 1638 1640 1641 1642 1642 1642 1642 1643 1643 1644 1644 1645 1646 1651 1654 1658 1661 1661 1664 1670 1678 1684 1684 1685 1687 1695 1703 1712 1716 1720 1721 1724 1729 1732 1735 1738 1740 1742 1744 1747 1749 1754 1756 1758 1760 1761 1766 1771 1776 1778 1780 1782 1787 1791 1791 1792 1796 1800 1802 1805 1809 1811 1813 1814 1815 1816 1816 1817 1817 1818 1818 1821 1826 1829 1831 1832 1832 1834 1847 1868 1878 1883 1886 1892 1897 1900 1903 1906 1907 1908 1910 1911 1912 1912 1912 1912 1912 1909 1906 1904 1903 1903 1903 1904 1909 1910 1914 1918 1924 1928 1942 1956 1962 1965 1970 1974 1977 1979 1980 1980 1983 1989 1996 2001 2006 2023 2045 2045 2045 2040 2026 2018 2006 2002 1999 1998 1997 1996 1995 1992 1980 1978 1977 1968 1956 1947 1939 1932 1924 1914 1906 1896 1889 1885 1881 1874 1871 1867 1865 1861 1860 1858 1856 1854 1850 1845 1842 1838 1835 1833 1829 1826 1820 1816 1814 1812 1810 1807 1804 1802 1800 1798 1796 1794 1792 1791 1791 1790 1789 1788 1787 1786 1785 1784 1783 1782 1781 1780 1780 1780 1780 1780 1779 1779 1779 1779 1779 1780 1780 1781 1782 1783 1783 1784 1785 1786 1786 1786 1786 1786 1786 1786 1786 1786 1786 1785 1784 1783 1782 1780 1780 1778 1777 1776 1774 1772 1771 1770 1770 1769 1768 1768 1766 1766 1766 1765 1765 1765 1765 1765 1765 1765 1765 1764 1764 1763 1763 1762 1762 1762 1762 1762 1761 1761 1761 1761 1761 1761 1761 1760 1759 1758 1758 1757 1757 1757 1756 1756 1756 1755 1755 1755 1754 1754 1753 1753 1752 1751 1751 1750 1750 1749 1749 1749 1749 1749 1750 1750 1751 1752 1753 1753 1753 1753 1753 1753 1753 1752 1752 1751 1750 1750 1749 1749 1749 1749 1749 1749 1749 1749 1750 1750 1751 1751 1752 1753 1754 1754 1756 1756 1756 1757 1757 1757 1757 1757 1757 1757 1756 1756 1755 1755 1754 1753 1753 1752 1752 1751 1751 1751 1751 1751 1751 1751 1751 1752 1752 1752 1753 1753 1755 1755 1756 1757 1757 1757 1757 1758 1758 1758 1758 1758 1757 1757 1757 1757 1758 1760 1760 1762 1763 1765 1766 1766 1767 1768 1768 1771 1772 1772 1772 1772 1772 1772 1772 1773 1773 1774 1775 1777 1777 1779 1781 1782 1784 1784 1785 1786 1787 1788 1790 1792 1795 1796 1797 1797 1797 1798 1799 1800 1800 1800 1800 1800 1801 1802 1802 1802 1802 1802 1802 1806 1808 1809 1809 1809 0
1749 1751 1752 1755 1755 1755 1756 1756 1762 1765 1773 1779 1792 1798 1800 1800 1800 1800 1800 1802 1817 1835 1848 1859 1869 1887 1909 1924 1930 1952 1970 1998 2032 2066 2095 2115 2132 2156 2183 2205 2213 2225 2255 2280 2286 2312 2329 2344 2364 2389 2408 2421 2425 2425 2425 2425 2426 2429 2436 2442 2445 2450 2450 2450 2449 2445 2441 2434 2414 2389 2360 2354 2299 2264 2254 0 0 0 0 0 0 1395 1389 1388 1388 1389 1389 1390 1392 1394 1396 1397 1399 1401 1403 1406 1408 1410 1412 1414 1416 1418 1419 1421 1423 1424 1425 1427 1428 1429 1431 1432 1434 1435 1435 1437 1439 1441 1443 1446 1446 1447 1448 1449 1450 1451 1451 1452 1454 1454 1455 1458 1460 1462 1463 1465 1473 1475 1475 1479 1482 1487 1491 1494 1496 1500 1502 1503 1505 1508 1509 1513 1515 1516 1518 1520 1520 1522 1522 1522 1523 1523 1523 1520 1516 1516 1515 1515 1515 1515 1518 1521 1527 1531 1535 1542 1549 1554 1555 1559 1562 1566 1571 1586 1595 1599 1603 1607 1609 1613 1616 1619 1621 1624 1626 1628 1631 1633 1634 1636 1637 1639 1640 1642 1642 1642 1642 1642 1643 1643 1643 1644 1645 1650 1654 1658 1661 1661 1663 1669 1677 1684 1684 1685 1687 1695 1705 1712 1717 1720 1722 1726 1729 1732 1736 1738 1740 1743 1746 1749 1752 1754 1756 1758 1760 1761 1762 1763 1763 1767 1775 1782 1784 1788 1789 1792 1794 1798 1802 1804 1809 1811 1814 1814 1816 1816 1817 1818 1821 1821 1821 1824 1828 1830 1832 1832 1834 1834 1847 1867 1877 1880 1886 1891 1896 1899 1903 1905 1907 1908 1910 1911 1911 1911 1911 1911 1911 1908 1905 1902 1901 1900 1899 1899 1899 1907 1913 1918 1923 1925 1944 1958 1963 1965 1969 1971 1975 1979 1979 1979 1983 1989 1996 2001 2006 2023 2041 2041 2041 2033 2026 2017 2006 1999 1996 1994 1991 1991 1990 1988 1980 1970 1959 1952 1946 1938 1932 1926 1920 1914 1905 1894 1887 1885 1881 1875 1871 1867 1865 1861 1859 1858 1855 1853 1848 1843 1839 1836 1833 1830 1828 1823 1818 1814 1811 1809 1806 1804 1801 1799 1798 1797 1795 1792 1791 1790 1790 1789 1787 1787 1786 1785 1785 1783 1782 1782 1781 1780 1780 1780 1780 1780 1779 1779 1779 1779 1780 1780 1781 1781 1782 1783 1785 1785 1786 1787 1787 1787 1787 1788 1788 1788 1788 1788 1787 1786 1786 1785 1783 1783 1781 1780 1778 1777 1775 1774 1773 1771 1771 1771 1770 1769 1769 1769 1768 1768 1767 1767 1767 1767 1767 1767 1766 1766 1765 1765 1764 1764 1764 1764 1764 1764 1764 1764 1763 1763 1762 1762 1762 1761 1760 1760 1759 1759 1759 1758 1758 1757 1757 1757 1757 1756 1755 1755 1755 1754 1753 1752 1751 1750 1750 1750 1750 1750 1750 1750 1750 1750 1751 1752 1753 1753 1753 1753 1752 1752 1752 1751 1751 1751 1750 1750 1750 1749 1749 1749 1749 1749 1749 1750 1750 1751 1752 1753 1754 1754 1755 1755 1757 1757 1758 1758 1758 1758 1758 1758 1758 1757 1757 1756 1755 1755 1754 1753 1753 1753 1753 1752 1752 1752 1752 1752 1752 1752 1752 1753 1753 1754 1755 1755 1755 1758 1758 1758 1760 1761 1761 1761 1761 1761 1761 1760 1759 1759 1759 1759 1761 1762 1762 1763 1764 1766 1767 1768 1769 1770 1770 1772 1772 1773 1773 1773 1774 1774 1774 1774 1774 1775 1776 1778 1779 1780 1783 1784 1785 1786 1788 1788 1791 1792 1793 1795 1797 1797 1799 1799 1800 1800 1802 1802 1802 1802 1803 1803 1804 1804 1804 1804 1803 1803 1803 1806 1809 1809 1809 1809 0
1751 1751 1752 1755 1755 1756 1757 1765 1770 1775 1780 1792 1803 1807 1807 1807 1804 1804 1804 1817 1823 1835 1854 1862 1875 1890 1907 1923 1927 1944 1969 1996 2029 2062 2085 2107 2127 2154 2176 2195 2203 2222 2255 2280 2286 2312 2329 2344 2364 2386 2408 2421 2425 2428 2432 2435 2435 2439 2443 2446 2446 2450 2450 2450 2446 2445 2441 2434 2418 2398 2378 2361 2299 2264 2254 0 0 0 0 0 0 1392 1389 1388 1388 1389 1389 1391 1393 1394 1396 1397 1399 1401 1403 1406 1408 1410 1412 1414 1416 1418 1419 1422 1424 1425 1426 1427 1428 1430 1432 1433 1435 1437 1437 1438 1440 1442 1445 1447 1448 1449 1450 1451 1453 1456 1456 1458 1460 1461 1462 1463 1465 1466 1467 1469 1472 1474 1475 1477 1482 1484 1488 1491 1494 1498 1500 1502 1504 1505 1508 1511 1514 1515 1518 1520 1520 1520 1522 1522 1523 1523 1523 1520 1516 1516 1515 1515 1515 1515 1518 1521 1527 1531 1535 1542 1549 1554 1556 1560 1562 1567 1575 1585 1594 1599 1603 1607 1610 1613 1616 1619 1621 1624 1626 1629 1631 1633 1634 1636 1637 1638 1639 1640 1641 1641 1642 1642 1642 1643 1643 1643 1644 1647 1651 1656 1661 1661 1662 1668 1676 1683 1684 1685 1691 1701 1705 1712 1717 1722 1725 1728 1731 1734 1736 1738 1741 1744 1746 1749 1753 1754 1756 1758 1759 1760 1760 1760 1761 1767 1770 1774 1775 1777 1788 1791 1792 1794 1797 1802 1809 1811 1814 1815 1816 1817 1817 1820 1821 1822 1822 1829 1830 1832 1832 1834 1834 1834 1847 1866 1875 1880 1886 1891 1894 1897 1901 1905 1906 1908 1909 1910 1910 1911 1911 1911 1911 1908 1902 1902 1901 1900 1898 1898 1898 1902 1913 1917 1922 1925 1944 1958 1965 1968 1968 1968 1973 1978 1979 1979 1981 1987 1996 2001 2006 2023 2026 2027 2027 2027 2021 2015 2002 1996 1991 1988 1986 1984 1981 1976 1967 1956 1949 1944 1939 1932 1926 1921 1917 1910 1902 1893 1887 1884 1881 1877 1871 1867 1865 1862 1859 1857 1854 1851 1845 1841 1836 1833 1829 1827 1823 1820 1816 1811 1808 1806 1803 1801 1799 1797 1796 1795 1792 1791 1790 1788 1788 1787 1786 1786 1784 1784 1783 1783 1782 1782 1781 1780 1780 1780 1780 1780 1780 1780 1780 1780 1780 1780 1781 1783 1783 1784 1785 1786 1787 1788 1788 1789 1789 1789 1790 1790 1790 1789 1789 1789 1789 1787 1786 1785 1784 1783 1780 1778 1777 1776 1775 1773 1773 1773 1772 1771 1770 1770 1770 1769 1768 1768 1768 1768 1768 1768 1768 1768 1767 1767 1766 1766 1766 1766 1766 1766 1766 1765 1765 1765 1764 1764 1764 1763 1762 1762 1761 1761 1760 1760 1760 1759 1759 1759 1759 1758 1758 1758 1757 1756 1754 1753 1752 1751 1751 1751 1751 1750 1750 1750 1750 1750 1751 1752 1753 1753 1753 1752 1752 1752 1751 1751 1751 1751 1750 1750 1750 1750 1750 1750 1750 1750 1750 1751 1751 1753 1753 1754 1755 1755 1756 1757 1758 1758 1759 1759 1759 1759 1758 1758 1758 1758 1758 1757 1756 1755 1755 1754 1754 1754 1753 1753 1753 1753 1753 1753 1753 1753 1753 1754 1755 1756 1757 1757 1758 1759 1759 1760 1761 1762 1763 1763 1763 1763 1763 1762 1761 1761 1761 1761 1763 1763 1764 1765 1766 1767 1769 1769 1771 1772 1772 1773 1775 1775 1776 1776 1776 1776 1776 1776 1777 1777 1778 1780 1781 1781 1784 1786 1786 1787 1788 1791 1794 1796 1797 1799 1799 1799 1800 1801 1803 1804 1805 1805 1805 1805 1805 1804 1804 1805 1805 1804 1803 1803 1803 1807 1809 1809 1810 1809 0
1751 1751 1752 1753 1758 1758 1766 1773 1777 1780 1785 1795 1808 1813 1813 1813 1815 1815 1817 1830 1842 1847 1856 1862 1875 1890 1905 1922 1927 1942 1966 1993 2020 2041 2065 2090 2114 2146 2166 2175 2192 2222 2255 2288 2291 2316 2331 2346 2364 2386 2408 2421 2425 2428 2436 2443 2446 2447 2447 2450 2451 2451 2451 2450 2444 2441 2441 2434 2420 2406 2395 2361 2297 2264 0 0 0 0 0 0 1404 1390 1389 1389 1389 1389 1390 1391 1393 1394 1396 1397 1399 1401 1403 1406 1408 1410 1412 1414 1416 1418 1420 1422 1424 1425 1426 1427 1429 1430 1432 1434 1435 1438 1439 1441 1442 1444 1446 1447 1449 1452 1453 1454 1454 1457 1458 1459 1460 1461 1463 1465 1466 1466 1467 1469 1470 1473 1475 1476 1479 1482 1486 1487 1489 1491 1496 1499 1500 1501 1505 1508 1512 1515 1517 1519 1519 1520 1520 1521 1523 1523 1523 1520 1516 1516 1515 1515 1515 1515 1518 1523 1529 1534 1538 1543 1549 1554 1560 1560 1563 1568 1575 1585 1594 1599 1604 1607 1610 1613 1616 1619 1622 1625 1626 1629 1631 1633 1634 1636 1637 1638 1638 1640 1640 1641 1641 1641 1642 1642 1642 1642 1644 1646 1650 1652 1657 1661 1662 1667 1675 1683 1684 1685 1691 1701 1705 1711 1717 1723 1727 1729 1731 1734 1736 1739 1742 1744 1747 1750 1753 1754 1756 1758 1758 1759 1759 1759 1761 1764 1764 1765 1768 1768 1783 1788 1791 1792 1797 1802 1810 1812 1815 1817 1817 1819 1819 1823 1823 1824 1827 1829 1836 1838 1838 1840 1840 1840 1853 1866 1874 1880 1886 1890 1894 1897 1899 1903 1905 1907 1908 1910 1910 1910 1910 1910 1910 1907 1902 1901 1900 1900 1898 1898 1898 1902 1911 1916 1922 1925 1947 1958 1965 1967 1968 1968 1971 1978 1979 1979 1981 1987 1992 1998 2001 2010 2013 2013 2013 2013 2008 2003 1996 1987 1981 1976 1971 1965 1959 1954 1948 1944 1942 1939 1934 1929 1924 1919 1914 1909 1902 1893 1887 1884 1881 1877 1873 1868 1865 1862 1859 1857 1853 1849 1844 1840 1834 1830 1827 1824 1820 1816 1812 1809 1806 1803 1800 1798 1797 1794 1794 1792 1791 1789 1788 1787 1787 1786 1785 1785 1784 1783 1783 1783 1782 1782 1781 1780 1780 1780 1780 1780 1780 1780 1780 1781 1781 1781 1783 1783 1784 1785 1787 1787 1788 1789 1790 1791 1792 1792 1792 1791 1791 1791 1791 1791 1790 1789 1789 1787 1787 1785 1783 1780 1778 1777 1777 1776 1775 1775 1774 1773 1772 1772 1772 1772 1770 1770 1770 1770 1770 1770 1770 1770 1770 1770 1769 1769 1769 1769 1769 1767 1767 1767 1767 1767 1767 1767 1766 1766 1765 1764 1764 1763 1763 1762 1761 1761 1761 1761 1761 1761 1760 1759 1758 1758 1756 1755 1753 1753 1752 1752 1751 1751 1751 1750 1750 1750 1750 1752 1752 1752 1752 1752 1752 1752 1751 1751 1751 1751 1751 1750 1750 1750 1750 1750 1751 1751 1751 1752 1753 1754 1755 1755 1756 1757 1757 1759 1759 1760 1760 1760 1760 1759 1759 1759 1759 1758 1758 1757 1756 1755 1755 1754 1754 1754 1754 1754 1754 1754 1754 1754 1755 1755 1755 1755 1757 1757 1758 1759 1760 1761 1762 1762 1764 1765 1765 1765 1766 1766 1765 1764 1763 1763 1763 1764 1765 1765 1766 1767 1767 1769 1770 1771 1771 1773 1774 1775 1777 1779 1779 1779 1779 1779 1779 1779 1780 1780 1780 1782 1782 1783 1786 1788 1788 1789 1791 1794 1797 1800 1800 1801 1801 1802 1803 1805 1807 1807 1808 1808 1808 1808 1807 1806 1806 1807 1807 1806 1806 1806 1806 1807 1810 1811 1811 1811 0
1751 1751 1753 1753 1762 1778 1784 1787 1789 1790 1790 1799 1812 1813 1817 1819 1819 1821 1829 1836 1847 1862 1864 1869 1875 1890 1905 1916 1921 1933 1959 1985 2009 2032 2055 2076 2104 2134 2148 2164 2188 2222 2260 2289 2296 2322 2340 2353 2369 2384 2396 2409 2420 2428 2437 2443 2446 2447 2447 2450 2451 2451 2451 2449 2443 2436 2432 2432 2420 2406 2400 2361 2293 0 0 0 0 0 0 0 1403 1390 1389 1389 1389 1389 1390 1391 1394 1395 1396 1398 1399 1401 1404 1406 1408 1410 1412 1414 1416 1418 1420 1422 1424 1425 1426 1429 1429 1431 1433 1434 1436 1438 1439 1441 1442 1444 1447 1449 1451 1452 1454 1455 1456 1458 1460 1461 1462 1463 1464 1466 1466 1467 1467 1469 1470 1471 1471 1471 1471 1477 1478 1479 1481 1483 1487 1491 1492 1496 1499 1501 1508 1515 1516 1516 1516 1518 1518 1520 1523 1523 1523 1522 1517 1516 1516 1516 1516 1518 1522 1528 1532 1538 1541 1545 1551 1556 1562 1564 1564 1570 1577 1586 1593 1599 1603 1607 1610 1613 1616 1619 1622 1625 1627 1629 1631 1633 1634 1636 1637 1638 1638 1640 1640 1640 1640 1640 1640 1640 1640 1642 1643 1646 1647 1650 1653 1658 1662 1667 1671 1679 1685 1686 1692 1701 1706 1710 1717 1723 1727 1729 1732 1735 1737 1739 1742 1745 1748 1750 1753 1754 1756 1757 1758 1758 1759 1759 1759 1763 1763 1763 1766 1767 1777 1782 1786 1792 1797 1802 1810 1812 1815 1818 1819 1821 1822 1825 1829 1832 1833 1837 1839 1843 1843 1844 1844 1844 1854 1867 1873 1880 1885 1890 1892 1895 1898 1900 1903 1906 1906 1908 1909 1909 1910 1909 1909 1907 1902 1902 1900 1900 1898 1898 1898 1900 1908 1916 1922 1928 1949 1960 1965 1967 1968 1968 1971 1975 1976 1978 1978 1984 1987 1990 1992 1996 1996 1996 1993 1992 1991 1988 1982 1977 1973 1967 1962 1956 1950 1946 1942 1939 1938 1937 1934 1929 1923 1919 1914 1909 1902 1893 1889 1885 1881 1877 1874 1870 1865 1863 1860 1856 1852 1848 1844 1839 1834 1829 1825 1820 1816 1811 1808 1804 1802 1800 1797 1796 1793 1793 1791 1790 1789 1788 1787 1786 1786 1785 1784 1784 1784 1783 1783 1783 1782 1782 1781 1781 1781 1781 1781 1781 1781 1782 1782 1782 1782 1783 1784 1785 1785 1786 1787 1789 1790 1791 1792 1793 1794 1794 1794 1794 1794 1793 1793 1793 1792 1792 1791 1791 1789 1786 1785 1783 1780 1779 1779 1778 1778 1778 1776 1776 1775 1775 1774 1774 1774 1774 1774 1774 1774 1773 1773 1773 1773 1772 1771 1771 1771 1771 1770 1770 1770 1769 1769 1769 1769 1769 1768 1767 1767 1767 1765 1765 1765 1764 1764 1764 1764 1763 1762 1762 1761 1761 1760 1760 1759 1757 1755 1754 1753 1753 1752 1752 1751 1751 1751 1751 1751 1751 1752 1752 1752 1752 1752 1752 1751 1751 1751 1751 1751 1751 1751 1751 1751 1751 1752 1752 1753 1754 1754 1756 1756 1757 1758 1758 1758 1759 1760 1760 1761 1761 1760 1760 1760 1760 1759 1759 1758 1758 1756 1756 1755 1755 1755 1754 1754 1754 1754 1754 1755 1755 1755 1756 1757 1758 1759 1760 1761 1761 1762 1763 1764 1765 1766 1767 1767 1767 1767 1767 1767 1766 1766 1766 1766 1767 1768 1768 1769 1770 1770 1771 1771 1772 1773 1775 1776 1778 1779 1780 1780 1781 1781 1781 1781 1781 1781 1781 1782 1785 1785 1787 1789 1789 1790 1791 1793 1797 1799 1801 1802 1804 1804 1805 1805 1808 1810 1811 1811 1812 1812 1812 1810 1810 1810 1810 1811 1811 1811 1811 1811 1811 1811 1812 1816 1816 0
1747 1750 1753 1762 1788 1803 1803 1803 1803 1803 1803 1805 1812 1813 1817 1822 1830 1837 1843 1848 1856 1870 1871 1872 1875 1883 1897 1905 1910 1924 1945 1973 1999 2020 2042 2062 2098 2123 2142 2159 2188 2223 2260 2289 2296 2322 2340 2353 2369 2377 2384 2396 2410 2425 2437 2443 2447 2447 2448 2450 2451 2451 2451 2449 2442 2436 2432 2431 2418 2406 2400 2360 0 0 0 0 0 0 0 0 1399 1387 1387 1387 1389 1390 1392 1392 1394 1395 1396 1398 1400 1402 1404 1406 1408 1410 1412 1414 1416 1418 1420 1422 1424 1425 1427 1429 1430 1431 1433 1435 1436 1438 1439 1441 1444 1445 1448 1450 1452 1454 1455 1456 1458 1459 1461 1463 1464 1465 1466 1466 1466 1467 1468 1468 1468 1468 1468 1468 1468 1469 1469 1470 1473 1474 1480 1484 1488 1489 1490 1492 1500 1509 1513 1513 1515 1517 1517 1519 1523 1523 1523 1522 1518 1518 1517 1517 1517 1524 1530 1535 1539 1544 1546 1548 1551 1556 1564 1569 1572 1574 1580 1586 1592 1598 1603 1607 1610 1612 1615 1618 1622 1625 1627 1629 1631 1633 1634 1636 1637 1638 1638 1639 1640 1640 1640 1639 1639 1639 1639 1640 1642 1644 1644 1648 1652 1657 1661 1664 1667 1671 1676 1686 1692 1701 1706 1710 1717 1723 1727 1729 1732 1735 1737 1740 1742 1745 1748 1751 1753 1754 1755 1755 1755 1756 1756 1757 1758 1759 1759 1759 1760 1764 1773 1780 1786 1792 1797 1805 1811 1812 1815 1818 1821 1824 1828 1828 1832 1835 1838 1843 1846 1847 1847 1848 1850 1851 1856 1866 1872 1880 1885 1889 1891 1895 1897 1899 1902 1904 1906 1907 1907 1907 1907 1907 1907 1906 1904 1902 1901 1901 1898 1898 1898 1900 1908 1916 1922 1937 1952 1961 1965 1966 1967 1968 1970 1973 1974 1975 1975 1980 1981 1984 1984 1984 1984 1984 1984 1983 1983 1979 1975 1971 1966 1963 1961 1955 1949 1945 1941 1937 1936 1934 1932 1927 1922 1917 1913 1909 1904 1898 1892 1888 1884 1880 1876 1872 1868 1864 1860 1856 1852 1848 1844 1839 1834 1827 1824 1819 1814 1810 1806 1802 1799 1797 1795 1794 1791 1791 1790 1788 1788 1787 1785 1785 1785 1784 1784 1784 1783 1783 1783 1783 1783 1782 1782 1782 1782 1782 1782 1782 1782 1782 1783 1783 1783 1784 1785 1787 1787 1788 1790 1791 1792 1793 1794 1795 1796 1796 1796 1796 1796 1795 1794 1794 1794 1794 1793 1793 1791 1789 1787 1784 1782 1782 1782 1781 1780 1779 1779 1779 1779 1779 1779 1779 1778 1778 1778 1777 1777 1777 1776 1776 1775 1775 1774 1774 1773 1773 1773 1773 1772 1772 1772 1771 1771 1771 1771 1770 1769 1769 1768 1768 1767 1767 1767 1766 1766 1766 1765 1765 1764 1763 1762 1761 1760 1759 1757 1755 1755 1754 1754 1753 1751 1751 1751 1751 1751 1751 1752 1752 1752 1752 1752 1752 1751 1751 1751 1751 1751 1751 1752 1752 1752 1753 1754 1754 1755 1755 1756 1757 1758 1759 1759 1760 1760 1761 1761 1761 1761 1761 1761 1761 1761 1760 1760 1759 1759 1758 1757 1756 1756 1755 1755 1755 1755 1755 1756 1756 1756 1757 1758 1759 1759 1760 1762 1762 1763 1763 1764 1765 1766 1767 1767 1768 1769 1769 1769 1769 1769 1769 1769 1769 1769 1770 1770 1771 1771 1772 1772 1772 1772 1773 1775 1777 1779 1780 1781 1783 1783 1784 1784 1784 1784 1784 1784 1785 1785 1786 1788 1789 1791 1791 1793 1793 1796 1799 1802 1803 1804 1806 1807 1807 1808 1811 1812 1813 1813 1814 1815 1815 1815 1814 1814 1814 1814 1814 1814 1814 1814 1815 1816 1817 1819 1819 0
1747 1750 1769 1783 1799 1815 1815 1815 1808 1808 1808 1812 1812 1813 1817 1828 1841 1850 1858 1860 1866 1871 1871 1872 1872 1876 1886 1895 1899 1923 1944 1973 1998 2019 2042 2062 2097 2122 2141 2158 2187 2223 2260 2289 2296 2322 2340 2353 2369 2376 2384 2395 2409 2424 2437 2443 2447 2447 2447 2445 2445 2445 2445 2445 2440 2432 2427 2424 2412 2402 2395 0 0 0 0 0 0 0 0 0 1393 1386 1386 1386 1390 1392 1392 1393 1395 1395 1396 1398 1400 1402 1404 1406 1408 1410 1412 1414 1416 1418 1420 1422 1424 1425 1427 1429 1430 1431 1433 1435 1436 1439 1440 1442 1444 1446 1448 1451 1452 1454 1456 1458 1460 1461 1462 1464 1464 1466 1466 1466 1467 1468 1468 1468 1468 1467 1465 1465 1465 1465 1465 1468 1469 1470 1470 1476 1481 1484 1485 1489 1499 1507 1508 1509 1510 1513 1516 1519 1520 1523 1523 1523 1521 1521 1521 1523 1524 1531 1546 1546 1547 1548 1548 1548 1552 1559 1565 1572 1574 1574 1582 1588 1591 1598 1603 1606 1609 1612 1615 1618 1622 1625 1626 1629 1630 1632 1634 1636 1637 1638 1638 1639 1639 1639 1639 1637 1637 1637 1637 1638 1639 1640 1642 1646 1650 1655 1660 1664 1666 1669 1674 1686 1694 1701 1707 1710 1717 1723 1726 1729 1732 1735 1737 1740 1743 1745 1748 1751 1753 1753 1753 1754 1754 1754 1754 1754 1754 1754 1757 1757 1757 1761 1770 1780 1786 1790 1797 1805 1812 1814 1816 1818 1822 1827 1828 1831 1833 1836 1839 1844 1848 1848 1848 1849 1855 1857 1860 1864 1869 1876 1882 1886 1889 1893 1896 1898 1902 1903 1905 1906 1906 1907 1907 1907 1907 1905 1904 1903 1903 1903 1899 1899 1899 1900 1908 1918 1931 1945 1954 1962 1965 1966 1967 1968 1970 1972 1973 1974 1974 1974 1976 1977 1980 1980 1980 1980 1980 1979 1977 1972 1967 1963 1960 1958 1956 1953 1949 1945 1941 1937 1935 1932 1929 1924 1920 1917 1913 1910 1906 1901 1896 1891 1889 1884 1880 1876 1872 1866 1860 1856 1852 1848 1844 1838 1833 1827 1823 1818 1812 1808 1803 1799 1797 1796 1794 1792 1790 1788 1787 1787 1785 1785 1784 1784 1783 1783 1783 1783 1783 1783 1783 1784 1784 1784 1784 1784 1783 1783 1783 1783 1783 1783 1784 1785 1785 1787 1788 1789 1790 1790 1792 1793 1794 1796 1797 1797 1798 1798 1798 1798 1798 1797 1797 1797 1796 1796 1795 1794 1792 1791 1789 1787 1785 1784 1784 1783 1783 1783 1782 1782 1782 1782 1782 1782 1782 1782 1781 1781 1780 1779 1779 1779 1777 1777 1776 1776 1776 1775 1775 1774 1774 1774 1774 1774 1774 1773 1773 1773 1772 1771 1771 1771 1770 1770 1770 1769 1769 1769 1768 1768 1767 1765 1764 1763 1762 1760 1759 1757 1755 1755 1754 1753 1752 1752 1751 1751 1751 1751 1752 1752 1752 1752 1752 1752 1752 1752 1752 1752 1753 1753 1753 1753 1754 1755 1756 1756 1757 1757 1759 1759 1760 1761 1761 1761 1762 1762 1762 1762 1762 1762 1762 1761 1761 1761 1760 1760 1759 1758 1758 1757 1757 1757 1757 1757 1757 1757 1757 1757 1759 1760 1761 1761 1761 1762 1763 1764 1765 1765 1766 1767 1767 1769 1769 1770 1771 1772 1772 1773 1773 1773 1772 1772 1772 1773 1773 1773 1774 1774 1774 1774 1775 1776 1778 1779 1779 1781 1782 1783 1785 1785 1786 1786 1787 1787 1788 1788 1789 1790 1792 1793 1793 1794 1794 1795 1797 1801 1803 1806 1806 1809 1810 1811 1812 1813 1814 1816 1818 1818 1818 1818 1818 1816 1816 1816 1816 1816 1816 1816 1816 1816 1817 1818 1820 1820 0
1747 1750 1769 1783 1799 1815 1815 1815 1810 1810 1810 1812 1812 1812 1815 1828 1842 1851 1859 1862 1868 1871 1871 1874 1874 1876 1886 1895 1898 1912 1931 1955 1984 2016 2040 2057 2084 2111 2133 2153 2185 2223 2256 2282 2287 2316 2333 2349 2363 2375 2384 2395 2406 2420 2435 2443 2447 2447 2447 2445 2445 2445 2445 2443 2439 2432 2423 2415 2408 2398 2386 0 0 0 0 0 0 0 0 1408 1392 1387 1387 1387 1390 1392 1393 1394 1395 1395 1396 1398 1400 1402 1404 1406 1408 1410 1412 1414 1416 1418 1420 1422 1423 1425 1427 1428 1430 1432 1433 1435 1437 1439 1441 1442 1445 1446 1448 1451 1453 1455 1456 1458 1460 1462 1463 1465 1466 1466 1467 1467 1467 1468 1468 1468 1466 1465 1465 1465 1464 1464 1464 1465 1464 1465 1465 1467 1473 1477 1480 1481 1487 1495 1495 1496 1503 1503 1512 1519 1520 1524 1525 1528 1530 1532 1534 1542 1547 1549 1550 1550 1550 1550 1550 1550 1553 1559 1567 1572 1575 1575 1585 1588 1591 1598 1602 1606 1608 1611 1614 1618 1621 1624 1626 1628 1630 1632 1634 1636 1637 1638 1638 1639 1639 1639 1639 1637 1637 1637 1637 1637 1638 1639 1642 1645 1649 1653 1658 1662 1666 1669 1673 1684 1696 1703 1707 1711 1717 1722 1726 1729 1732 1735 1738 1741 1743 1746 1748 1751 1752 1752 1753 1753 1753 1753 1753 1750 1749 1749 1749 1752 1753 1758 1767 1779 1786 1790 1797 1805 1812 1817 1819 1822 1825 1828 1829 1832 1834 1837 1839 1844 1848 1849 1849 1852 1856 1857 1860 1864 1864 1871 1876 1883 1888 1893 1896 1897 1898 1900 1901 1906 1906 1907 1907 1907 1907 1905 1904 1904 1904 1904 1899 1899 1899 1902 1910 1922 1931 1945 1955 1962 1964 1965 1967 1968 1970 1972 1972 1972 1973 1973 1973 1973 1974 1975 1975 1975 1973 1971 1967 1963 1959 1957 1956 1955 1953 1952 1949 1945 1941 1937 1935 1932 1928 1924 1920 1917 1913 1911 1907 1904 1900 1895 1891 1887 1883 1878 1872 1866 1860 1856 1851 1847 1842 1838 1833 1826 1821 1817 1811 1806 1800 1797 1796 1794 1793 1791 1788 1787 1786 1785 1784 1784 1783 1783 1783 1783 1783 1783 1783 1783 1784 1784 1784 1784 1784 1784 1785 1785 1785 1785 1785 1786 1786 1787 1788 1789 1789 1790 1792 1792 1793 1794 1796 1798 1799 1800 1800 1801 1801 1801 1800 1799 1799 1799 1799 1798 1797 1796 1794 1793 1790 1790 1789 1788 1787 1787 1787 1787 1787 1787 1787 1786 1786 1786 1786 1785 1784 1784 1784 1782 1782 1781 1781 1781 1780 1779 1779 1779 1778 1778 1778 1778 1778 1778 1777 1777 1776 1776 1775 1774 1774 1774 1773 1773 1773 1773 1773 1772 1772 1771 1769 1767 1766 1766 1765 1762 1760 1758 1756 1756 1755 1754 1753 1753 1753 1752 1752 1752 1752 1752 1752 1752 1752 1752 1752 1752 1753 1753 1753 1753 1754 1755 1757 1757 1758 1759 1759 1761 1762 1763 1763 1763 1763 1763 1763 1763 1763 1763 1763 1763 1763 1762 1762 1762 1761 1761 1760 1760 1759 1759 1758 1758 1758 1758 1758 1758 1759 1760 1763 1763 1763 1764 1764 1765 1766 1767 1768 1770 1770 1770 1770 1771 1772 1774 1775 1776 1776 1776 1776 1776 1776 1776 1776 1776 1776 1776 1777 1777 1777 1778 1779 1780 1781 1781 1782 1782 1784 1786 1788 1788 1788 1789 1791 1791 1791 1792 1794 1794 1796 1796 1796 1796 1796 1796 1800 1802 1810 1813 1813 1814 1815 1815 1816 1816 1816 1819 1821 1822 1823 1823 1823 1823 1822 1822 1822 1821 1820 1818 1818 1818 1822 1822 1824 1824 0
1753 1755 1769 1783 1799 1815 1815 1815 1810 1810 1810 1810 1812 1812 1815 1828 1842 1852 1860 1867 1875 1875 1875 1875 1875 1876 1883 1891 1894 1902 1920 1948 1984 2016 2039 2052 2077 2093 2112 2136 2174 2212 2244 2272 2277 2300 2325 2343 2360 2371 2384 2395 2404 2415 2428 2441 2447 2447 2447 2445 2445 2444 2443 2441 2436 2427 2412 2400 2395 2394 2377 0 0 0 0 0 0 0 0 1408 1392 1390 1390 1390 1391 1392 1393 1394 1395 1395 1396 1398 1400 1402 1404 1406 1408 1410 1412 1414 1416 1418 1420 1422 1423 1425 1427 1428 1430 1432 1433 1436 1437 1440 1441 1442 1445 1446 1448 1451 1453 1455 1457 1459 1461 1462 1464 1465 1466 1467 1467 1467 1467 1468 1468 1468 1465 1463 1463 1463 1461 1460 1460 1460 1460 1460 1460 1463 1466 1471 1474 1478 1485 1489 1489 1492 1493 1503 1512 1519 1520 1524 1532 1536 1541 1543 1544 1545 1548 1549 1550 1552 1555 1556 1558 1558 1562 1568 1575 1576 1576 1580 1585 1588 1591 1597 1601 1604 1607 1611 1614 1618 1620 1623 1624 1627 1630 1631 1632 1635 1637 1638 1638 1638 1639 1639 1639 1636 1636 1636 1636 1637 1637 1639 1642 1645 1648 1652 1656 1661 1664 1667 1673 1684 1696 1703 1707 1712 1717 1722 1725 1729 1731 1735 1738 1741 1744 1746 1748 1749 1751 1752 1752 1752 1752 1752 1752 1747 1746 1746 1746 1749 1750 1752 1763 1777 1784 1790 1795 1802 1812 1818 1820 1822 1827 1829 1832 1835 1837 1839 1842 1844 1848 1850 1852 1854 1856 1857 1860 1863 1863 1864 1872 1880 1884 1892 1895 1895 1896 1898 1900 1905 1905 1905 1905 1905 1905 1905 1904 1904 1904 1904 1902 1902 1902 1910 1920 1926 1932 1946 1959 1962 1965 1966 1966 1966 1967 1967 1970 1972 1972 1972 1970 1970 1970 1970 1970 1969 1965 1961 1959 1956 1954 1953 1953 1952 1951 1951 1949 1945 1942 1937 1935 1932 1928 1924 1920 1917 1916 1914 1910 1908 1905 1900 1894 1891 1886 1880 1873 1867 1861 1856 1851 1846 1841 1837 1832 1826 1821 1816 1810 1803 1799 1796 1794 1792 1791 1789 1787 1786 1785 1784 1783 1783 1783 1783 1783 1783 1783 1783 1783 1783 1784 1785 1785 1785 1786 1786 1786 1786 1786 1786 1786 1787 1788 1789 1789 1789 1791 1791 1793 1793 1795 1797 1799 1800 1802 1802 1803 1804 1804 1804 1802 1802 1801 1801 1801 1800 1799 1797 1796 1794 1794 1794 1793 1791 1791 1791 1791 1791 1791 1792 1792 1792 1790 1790 1789 1789 1788 1787 1787 1787 1787 1786 1786 1785 1784 1783 1782 1782 1782 1782 1782 1782 1781 1781 1781 1780 1780 1779 1778 1778 1778 1777 1777 1777 1777 1777 1776 1774 1774 1774 1771 1770 1769 1768 1766 1764 1763 1761 1758 1757 1757 1755 1755 1755 1754 1754 1753 1753 1752 1752 1752 1753 1753 1753 1753 1754 1754 1754 1754 1754 1756 1758 1759 1760 1762 1762 1764 1765 1765 1765 1765 1765 1765 1765 1765 1765 1765 1765 1764 1764 1764 1764 1763 1763 1762 1762 1761 1761 1761 1760 1760 1760 1760 1760 1760 1760 1761 1763 1765 1765 1765 1765 1766 1768 1769 1771 1771 1772 1772 1773 1775 1776 1776 1777 1777 1777 1777 1778 1778 1778 1778 1778 1779 1779 1779 1780 1780 1780 1780 1781 1782 1782 1783 1783 1784 1786 1786 1790 1793 1795 1795 1795 1795 1796 1796 1796 1798 1799 1799 1800 1801 1801 1804 1807 1810 1815 1818 1818 1819 1819 1819 1819 1819 1820 1821 1821 1824 1827 1828 1828 1828 1828 1828 1828 1828 1827 1825 1821 1821 1821 1823 1825 1825 1825 0
1758 1761 1766 1779 1791 1805 1805 1806 1808 1808 1810 1810 1812 1814 1817 1829 1842 1852 1861 1868 1876 1876 1876 1876 1876 1876 1882 1891 1894 1902 1920 1946 1983 2015 2039 2052 2066 2077 2097 2123 2163 2204 2227 2258 2262 2287 2309 2329 2348 2369 2380 2393 2400 2408 2422 2439 2447 2447 2447 2445 2442 2441 2441 2440 2428 2416 2402 2387 2385 2382 2360 0 0 0 0 0 0 0 0 1402 1392 1390 1390 1390 1391 1392 1393 1394 1395 1395 1396 1398 1400 1402 1404 1406 1408 1410 1412 1414 1416 1418 1420 1422 1423 1425 1426 1428 1429 1432 1433 1436 1438 1440 1441 1443 1445 1446 1449 1451 1453 1455 1457 1459 1461 1462 1464 1465 1466 1467 1467 1467 1467 1467 1467 1467 1464 1462 1460 1459 1459 1459 1458 1458 1456 1456 1456 1458 1462 1466 1470 1476 1479 1485 1485 1488 1491 1503 1512 1522 1527 1529 1533 1537 1543 1545 1545 1546 1550 1550 1555 1556 1559 1560 1560 1562 1564 1569 1575 1579 1581 1581 1585 1588 1591 1595 1600 1603 1607 1610 1614 1617 1619 1621 1624 1627 1629 1631 1632 1635 1637 1638 1638 1638 1638 1638 1637 1636 1636 1636 1636 1636 1637 1639 1642 1645 1648 1651 1656 1660 1664 1667 1674 1684 1698 1703 1707 1712 1717 1721 1725 1728 1731 1735 1738 1741 1744 1746 1748 1749 1750 1750 1750 1751 1751 1750 1748 1743 1743 1743 1746 1748 1749 1751 1762 1773 1783 1790 1794 1802 1813 1818 1820 1823 1828 1832 1834 1836 1839 1842 1844 1846 1848 1851 1852 1854 1856 1856 1857 1858 1860 1861 1868 1879 1880 1887 1894 1894 1895 1897 1899 1902 1904 1905 1905 1908 1908 1908 1909 1907 1906 1907 1911 1913 1918 1924 1926 1927 1932 1947 1960 1964 1965 1966 1966 1966 1967 1967 1969 1969 1969 1969 1969 1968 1967 1967 1967 1965 1961 1958 1957 1955 1953 1951 1949 1949 1949 1949 1948 1946 1942 1939 1935 1932 1928 1927 1922 1920 1919 1917 1915 1912 1909 1904 1898 1893 1888 1882 1875 1867 1861 1856 1851 1845 1840 1837 1830 1823 1818 1813 1806 1801 1796 1795 1794 1791 1789 1787 1786 1784 1784 1783 1783 1782 1782 1782 1782 1783 1783 1783 1784 1784 1785 1787 1787 1787 1787 1787 1787 1788 1788 1788 1788 1789 1790 1790 1791 1791 1793 1794 1795 1796 1797 1800 1802 1804 1805 1806 1807 1807 1807 1807 1806 1805 1804 1804 1804 1804 1804 1804 1802 1798 1798 1798 1797 1797 1796 1795 1795 1795 1795 1795 1795 1794 1794 1794 1793 1792 1792 1791 1791 1791 1791 1790 1790 1789 1788 1788 1786 1786 1785 1785 1785 1785 1785 1785 1784 1783 1783 1782 1781 1781 1781 1781 1781 1781 1781 1780 1778 1777 1777 1776 1773 1773 1772 1770 1769 1767 1765 1762 1760 1759 1758 1757 1757 1756 1755 1755 1755 1754 1754 1753 1753 1753 1753 1753 1755 1755 1755 1755 1756 1757 1759 1760 1760 1762 1763 1766 1766 1767 1767 1767 1767 1767 1767 1767 1766 1766 1766 1766 1765 1765 1765 1764 1764 1764 1764 1764 1764 1763 1762 1762 1762 1761 1762 1762 1762 1763 1764 1765 1767 1767 1768 1768 1769 1771 1773 1773 1774 1774 1776 1777 1779 1779 1779 1780 1780 1780 1780 1780 1781 1782 1782 1783 1783 1783 1783 1783 1783 1783 1783 1784 1785 1786 1788 1789 1791 1791 1792 1796 1799 1799 1799 1799 1799 1801 1801 1801 1801 1802 1802 1804 1806 1807 1811 1816 1818 1820 1821 1821 1821 1821 1821 1821 1821 1821 1822 1823 1826 1829 1831 1832 1833 1833 1834 1834 1833 1833 1832 1826 1825 1825 1825 1827 1830 1830 0
1760 1762 1766 1773 1785 1788 1792 1797 1798 1802 1810 1811 1812 1814 1817 1829 1842 1852 1861 1869 1876 1881 1881 1881 1881 1881 1881 1891 1894 1902 1920 1943 1979 2010 2029 2046 2054 2065 2089 2116 2156 2187 2218 2239 2243 2265 2284 2309 2333 2363 2380 2393 2398 2404 2422 2439 2449 2449 2449 2445 2442 2441 2440 2432 2419 2410 2397 2382 2371 2369 2335 0 0 0 0 0 0 0 0 1401 1391 1390 1390 1390 1391 1392 1393 1394 1394 1395 1397 1398 1400 1402 1404 1406 1408 1410 1412 1414 1416 1418 1420 1421 1423 1424 1426 1428 1429 1432 1434 1436 1438 1440 1441 1443 1445 1446 1449 1451 1453 1455 1457 1459 1461 1462 1464 1465 1466 1467 1467 1467 1467 1467 1466 1466 1464 1462 1459 1459 1458 1458 1458 1457 1456 1455 1455 1455 1459 1462 1467 1471 1475 1482 1485 1487 1491 1506 1518 1522 1528 1534 1536 1540 1543 1546 1546 1548 1553 1558 1560 1562 1564 1565 1566 1569 1570 1572 1578 1580 1582 1582 1585 1587 1590 1594 1598 1602 1606 1608 1611 1613 1614 1618 1622 1627 1628 1631 1632 1635 1637 1638 1638 1638 1638 1638 1637 1637 1636 1636 1636 1636 1636 1639 1643 1646 1648 1651 1656 1660 1664 1667 1679 1691 1698 1703 1707 1712 1716 1721 1725 1728 1731 1735 1737 1741 1744 1746 1748 1749 1750 1750 1750 1748 1747 1746 1741 1741 1741 1743 1745 1748 1749 1751 1757 1769 1779 1787 1792 1802 1813 1820 1822 1826 1830 1834 1834 1837 1841 1844 1846 1848 1849 1851 1852 1855 1855 1856 1856 1858 1859 1861 1861 1868 1873 1878 1880 1880 1880 1880 1884 1893 1896 1897 1903 1909 1910 1911 1911 1911 1915 1915 1917 1927 1928 1933 1933 1937 1938 1947 1960 1962 1965 1966 1966 1966 1966 1967 1968 1968 1968 1968 1968 1968 1967 1966 1966 1963 1960 1958 1957 1955 1953 1951 1949 1949 1949 1949 1948 1946 1944 1940 1937 1933 1930 1928 1926 1923 1922 1919 1917 1915 1912 1906 1900 1893 1888 1883 1875 1868 1861 1856 1850 1845 1840 1835 1827 1819 1813 1808 1803 1797 1795 1794 1792 1790 1788 1786 1785 1784 1784 1783 1782 1782 1782 1782 1782 1783 1783 1784 1785 1786 1786 1787 1788 1788 1789 1789 1789 1789 1790 1790 1791 1791 1792 1792 1793 1793 1795 1796 1799 1799 1801 1804 1806 1808 1808 1809 1810 1810 1813 1813 1813 1812 1810 1810 1810 1809 1809 1809 1806 1803 1803 1803 1802 1802 1801 1801 1801 1800 1800 1799 1798 1798 1798 1796 1796 1796 1795 1795 1794 1794 1794 1794 1794 1793 1793 1792 1791 1790 1790 1790 1789 1789 1789 1788 1787 1787 1787 1786 1785 1785 1785 1786 1786 1786 1785 1783 1781 1780 1779 1778 1777 1776 1774 1773 1771 1769 1767 1764 1762 1760 1760 1759 1759 1759 1757 1756 1756 1756 1756 1755 1754 1754 1754 1755 1756 1757 1758 1759 1759 1761 1762 1762 1763 1765 1766 1768 1768 1768 1769 1769 1769 1769 1769 1768 1768 1768 1767 1767 1767 1766 1766 1766 1766 1766 1765 1765 1765 1764 1764 1764 1764 1764 1764 1764 1766 1766 1768 1768 1768 1770 1771 1772 1774 1774 1776 1776 1776 1776 1778 1779 1781 1782 1782 1782 1782 1783 1784 1785 1785 1785 1786 1786 1786 1786 1786 1786 1786 1786 1786 1788 1788 1790 1793 1794 1797 1797 1799 1801 1803 1804 1804 1805 1805 1805 1806 1806 1806 1806 1807 1808 1812 1816 1820 1822 1823 1825 1825 1825 1824 1823 1823 1823 1823 1823 1823 1824 1827 1830 1832 1833 1834 1836 1837 1838 1838 1838 1838 1833 1833 1833 1835 1835 1837 1837 0
1760 1762 1766 1773 1785 1788 1789 1792 1792 1802 1812 1813 1814 1822 1826 1833 1842 1852 1861 1871 1877 1881 1884 1884 1884 1884 1884 1893 1897 1909 1921 1940 1969 1996 2017 2035 2042 2052 2069 2101 2143 2175 2207 2225 2229 2251 2271 2295 2321 2348 2374 2387 2392 2404 2422 2439 2444 2444 2444 2439 2439 2435 2434 2422 2411 2402 2393 2382 2367 2366 2319 0 0 0 0 0 0 0 0 1400 1391 1390 1390 1390 1391 1392 1392 1393 1394 1395 1397 1398 1400 1402 1404 1406 1408 1410 1412 1414 1416 1418 1419 1421 1422 1424 1426 1428 1429 1431 1433 1436 1438 1439 1441 1443 1445 1446 1449 1451 1454 1455 1457 1459 1461 1462 1464 1465 1466 1467 1467 1467 1467 1467 1465 1465 1464 1462 1458 1456 1456 1456 1456 1456 1456 1455 1455 1455 1459 1462 1467 1470 1475 1482 1485 1487 1493 1506 1519 1522 1528 1535 1539 1541 1545 1546 1548 1551 1555 1559 1562 1564 1565 1567 1570 1573 1574 1576 1578 1580 1582 1582 1585 1586 1588 1592 1598 1600 1601 1604 1609 1612 1613 1613 1617 1622 1627 1630 1631 1636 1636 1637 1638 1638 1638 1637 1637 1636 1636 1636 1636 1636 1636 1639 1646 1648 1649 1651 1656 1660 1666 1673 1685 1691 1698 1703 1707 1712 1716 1721 1724 1728 1731 1735 1737 1741 1742 1746 1747 1749 1750 1750 1750 1748 1746 1744 1740 1740 1740 1743 1745 1747 1748 1751 1757 1769 1776 1785 1790 1803 1813 1820 1825 1827 1831 1834 1835 1838 1841 1844 1846 1848 1850 1851 1853 1855 1855 1856 1856 1856 1857 1857 1861 1865 1872 1875 1875 1876 1876 1877 1884 1893 1896 1897 1903 1909 1913 1913 1914 1915 1920 1926 1931 1931 1932 1940 1943 1943 1948 1951 1961 1963 1966 1966 1966 1966 1966 1967 1967 1968 1968 1968 1968 1967 1967 1966 1964 1961 1959 1957 1956 1955 1954 1951 1949 1949 1949 1949 1948 1946 1944 1942 1939 1935 1932 1929 1927 1927 1924 1922 1919 1916 1913 1911 1907 1899 1890 1884 1876 1869 1861 1855 1850 1844 1838 1833 1823 1814 1808 1804 1800 1796 1794 1792 1791 1789 1787 1785 1784 1783 1782 1782 1782 1781 1781 1781 1782 1783 1783 1784 1785 1786 1787 1788 1789 1789 1790 1790 1790 1792 1792 1793 1793 1794 1794 1795 1795 1796 1797 1799 1801 1803 1806 1809 1810 1812 1813 1813 1814 1815 1818 1818 1818 1818 1818 1818 1818 1818 1815 1811 1809 1809 1808 1806 1806 1806 1805 1805 1804 1803 1803 1802 1802 1801 1801 1800 1800 1799 1799 1799 1799 1798 1798 1798 1798 1797 1796 1796 1795 1795 1795 1794 1794 1794 1794 1793 1793 1792 1791 1789 1788 1788 1788 1788 1788 1788 1788 1786 1784 1783 1782 1781 1780 1779 1777 1775 1773 1771 1768 1767 1764 1763 1762 1762 1762 1761 1760 1758 1758 1758 1758 1757 1757 1757 1757 1758 1759 1759 1760 1762 1764 1766 1766 1767 1767 1768 1770 1770 1770 1771 1772 1771 1771 1771 1771 1770 1769 1769 1769 1768 1767 1767 1767 1767 1767 1767 1767 1767 1767 1767 1767 1766 1766 1766 1767 1767 1767 1768 1771 1772 1774 1774 1774 1776 1777 1779 1780 1780 1780 1780 1781 1784 1787 1787 1787 1787 1788 1788 1788 1788 1788 1788 1788 1789 1790 1790 1790 1788 1788 1788 1790 1790 1791 1793 1795 1798 1800 1801 1803 1805 1808 1809 1810 1810 1810 1810 1810 1811 1812 1813 1814 1818 1818 1821 1824 1827 1828 1828 1828 1826 1826 1824 1823 1823 1823 1825 1826 1826 1828 1833 1833 1834 1834 1838 1843 1843 1846 1846 1846 1844 1844 1844 1844 1845 1846 1845 0
1765 1768 1768 1773 1785 1788 1789 1792 1792 1802 1813 1814 1821 1828 1832 1845 1848 1853 1862 1871 1878 1881 1886 1886 1886 1886 1887 1895 1898 1909 1921 1937 1963 1985 2002 2016 2028 2030 2049 2075 2123 2163 2200 2220 2224 2240 2264 2285 2309 2336 2362 2381 2392 2404 2422 2439 2439 2439 2437 2434 2433 2428 2427 2417 2403 2396 2391 2377 2364 2358 2317 0 0 0 0 0 0 0 1427 1400 1389 1389 1389 1390 1391 1392 1392 1393 1394 1395 1396 1398 1400 1402 1404 1406 1408 1410 1412 1414 1416 1417 1419 1421 1422 1424 1426 1427 1429 1431 1433 1436 1437 1439 1441 1443 1445 1447 1449 1451 1454 1455 1457 1459 1460 1462 1463 1465 1466 1466 1466 1466 1466 1466 1465 1464 1464 1461 1457 1455 1455 1455 1455 1455 1455 1455 1455 1455 1459 1462 1467 1470 1475 1482 1485 1487 1493 1508 1521 1524 1530 1536 1539 1544 1547 1548 1551 1554 1557 1560 1563 1565 1567 1569 1572 1575 1576 1577 1579 1580 1582 1582 1585 1586 1587 1591 1592 1594 1594 1600 1603 1603 1604 1605 1608 1616 1625 1629 1631 1636 1636 1637 1638 1638 1639 1639 1639 1638 1636 1636 1636 1636 1636 1642 1649 1651 1652 1653 1657 1663 1668 1674 1687 1691 1698 1703 1706 1712 1715 1719 1723 1726 1731 1734 1737 1739 1742 1744 1746 1749 1749 1749 1748 1748 1746 1742 1740 1740 1740 1743 1745 1745 1747 1750 1757 1769 1775 1781 1789 1807 1813 1821 1826 1829 1833 1835 1836 1839 1841 1844 1847 1848 1850 1852 1853 1855 1855 1856 1856 1856 1856 1857 1859 1860 1869 1874 1874 1875 1875 1877 1884 1893 1896 1897 1903 1909 1917 1922 1922 1922 1925 1931 1933 1934 1935 1940 1944 1953 1957 1960 1962 1964 1966 1966 1966 1966 1966 1967 1967 1968 1968 1968 1967 1967 1965 1965 1963 1960 1958 1957 1957 1956 1954 1952 1950 1950 1949 1948 1947 1946 1944 1942 1940 1937 1933 1930 1928 1928 1928 1928 1925 1921 1917 1913 1912 1904 1894 1886 1878 1869 1861 1855 1850 1843 1835 1826 1817 1809 1805 1801 1797 1794 1793 1790 1790 1788 1786 1785 1784 1782 1782 1782 1781 1781 1781 1781 1782 1783 1784 1785 1786 1787 1788 1789 1790 1790 1791 1792 1793 1794 1794 1795 1796 1796 1797 1797 1799 1799 1800 1800 1803 1805 1810 1812 1814 1815 1818 1820 1820 1821 1826 1826 1826 1826 1826 1826 1826 1824 1821 1815 1815 1812 1812 1810 1810 1809 1809 1809 1808 1808 1808 1808 1808 1807 1806 1804 1803 1802 1802 1802 1802 1802 1802 1802 1801 1800 1800 1800 1800 1800 1800 1800 1799 1799 1799 1799 1798 1797 1796 1793 1792 1792 1792 1792 1792 1792 1792 1790 1788 1786 1784 1784 1782 1781 1781 1780 1776 1775 1771 1770 1768 1766 1765 1765 1765 1764 1763 1762 1760 1760 1759 1759 1759 1760 1761 1761 1761 1762 1765 1767 1767 1768 1768 1771 1774 1774 1774 1774 1774 1774 1774 1774 1774 1772 1772 1772 1771 1771 1770 1770 1770 1770 1770 1769 1770 1769 1769 1770 1770 1770 1770 1770 1769 1769 1769 1769 1771 1774 1775 1776 1776 1777 1778 1779 1781 1782 1783 1783 1784 1785 1786 1788 1790 1792 1792 1792 1792 1792 1792 1792 1792 1792 1793 1795 1795 1795 1794 1793 1793 1793 1794 1795 1795 1796 1797 1799 1801 1803 1806 1807 1810 1814 1814 1815 1815 1815 1816 1816 1816 1817 1817 1821 1823 1825 1829 1830 1830 1830 1829 1827 1826 1825 1825 1825 1825 1828 1829 1831 1834 1836 1836 1836 1838 1844 1852 1852 1852 1852 1850 1850 1850 1847 1847 1852 1850 1847 0
1765 1768 1772 1776 1786 1789 1789 1795 1798 1807 1813 1814 1821 1831 1835 1848 1856 1859 1864 1871 1878 1881 1886 1886 1886 1886 1887 1895 1898 1909 1921 1937 1955 1977 1993 1998 2003 2017 2028 2055 2097 2143 2178 2204 2208 2221 2235 2261 2293 2319 2348 2375 2392 2403 2422 2439 2439 2439 2433 2432 2429 2428 2427 2417 2403 2396 2388 2373 2364 2350 2298 2248 0 0 0 0 0 0 1409 1393 1389 1389 1389 1391 1391 1392 1392 1392 1393 1395 1396 1398 1400 1402 1404 1406 1407 1410 1411 1414 1415 1417 1418 1420 1422 1424 1426 1427 1429 1431 1433 1435 1437 1439 1441 1443 1444 1447 1449 1451 1454 1455 1457 1459 1460 1462 1463 1464 1465 1465 1465 1465 1464 1464 1464 1464 1462 1459 1456 1453 1453 1453 1454 1454 1454 1454 1454 1455 1459 1463 1467 1470 1479 1487 1492 1493 1499 1512 1521 1524 1530 1536 1544 1548 1549 1551 1553 1555 1557 1560 1564 1567 1569 1570 1573 1575 1577 1578 1579 1580 1580 1582 1584 1585 1586 1586 1586 1587 1587 1591 1594 1595 1597 1602 1608 1614 1622 1624 1628 1635 1636 1636 1637 1638 1640 1640 1640 1640 1640 1640 1641 1641 1644 1644 1650 1653 1654 1658 1661 1664 1669 1675 1687 1689 1698 1703 1706 1712 1714 1718 1721 1725 1728 1732 1735 1738 1741 1744 1746 1749 1749 1749 1748 1747 1745 1742 1740 1740 1740 1742 1742 1743 1747 1751 1759 1769 1775 1781 1789 1807 1814 1825 1828 1831 1834 1836 1837 1839 1842 1845 1847 1849 1851 1853 1854 1855 1856 1856 1857 1856 1856 1857 1859 1859 1864 1870 1873 1874 1875 1877 1886 1894 1901 1902 1905 1910 1918 1923 1926 1928 1931 1933 1935 1937 1942 1945 1949 1955 1959 1960 1962 1964 1966 1966 1966 1966 1966 1967 1967 1967 1967 1967 1967 1967 1966 1965 1963 1960 1958 1957 1957 1956 1955 1953 1951 1950 1948 1947 1947 1945 1944 1943 1941 1937 1934 1932 1932 1932 1932 1932 1932 1929 1924 1916 1912 1907 1899 1889 1878 1869 1861 1855 1846 1842 1832 1822 1813 1806 1804 1799 1797 1794 1792 1790 1788 1786 1785 1784 1783 1782 1782 1782 1782 1782 1782 1782 1783 1783 1785 1786 1788 1789 1790 1790 1791 1792 1793 1794 1795 1796 1796 1797 1799 1799 1800 1802 1802 1803 1803 1805 1808 1811 1814 1816 1817 1821 1826 1832 1834 1835 1836 1838 1838 1838 1838 1835 1834 1832 1830 1823 1820 1818 1818 1818 1816 1816 1816 1815 1814 1813 1813 1813 1813 1812 1810 1808 1807 1806 1806 1806 1806 1805 1805 1805 1804 1804 1804 1804 1804 1804 1804 1804 1804 1804 1804 1804 1803 1802 1800 1800 1799 1796 1795 1795 1795 1795 1795 1793 1792 1790 1788 1786 1786 1784 1784 1782 1779 1777 1774 1772 1771 1770 1768 1768 1768 1766 1766 1763 1762 1762 1762 1762 1762 1763 1764 1764 1765 1767 1770 1770 1771 1771 1774 1780 1780 1780 1779 1778 1778 1778 1777 1777 1776 1776 1774 1774 1774 1773 1773 1772 1771 1771 1771 1771 1771 1771 1771 1771 1771 1772 1772 1772 1772 1772 1772 1774 1778 1779 1780 1780 1780 1781 1782 1782 1783 1784 1787 1787 1788 1789 1791 1792 1794 1796 1796 1796 1796 1796 1796 1797 1797 1798 1799 1799 1799 1799 1799 1798 1798 1798 1798 1798 1799 1800 1800 1802 1804 1806 1808 1811 1815 1819 1819 1822 1822 1822 1820 1820 1820 1820 1824 1827 1829 1831 1831 1831 1831 1831 1831 1830 1829 1829 1829 1830 1831 1834 1835 1837 1839 1840 1840 1843 1846 1853 1855 1855 1855 1853 1851 1851 1851 1851 1854 1854 1854 1851 0
1765 1768 1772 1782 1794 1797 1802 1804 1810 1812 1813 1815 1821 1833 1837 1848 1857 1863 1869 1876 1878 1881 1886 1886 1886 1886 1887 1895 1898 1909 1918 1928 1947 1969 1979 1985 1985 1997 2019 2046 2084 2124 2156 2175 2179 2193 2210 2229 2257 2297 2334 2360 2385 2399 2415 2429 2429 2429 2432 2427 2427 2427 2427 2417 2403 2396 2386 2372 2364 2350 2294 2246 0 0 0 0 0 0 1409 1391 1389 1389 1389 1390 1391 1391 1391 1392 1393 1394 1396 1398 1400 1402 1403 1405 1407 1409 1411 1413 1414 1416 1418 1420 1422 1424 1425 1427 1429 1431 1433 1435 1437 1439 1441 1443 1445 1447 1448 1451 1454 1455 1457 1459 1460 1462 1463 1464 1464 1464 1464 1464 1464 1464 1463 1463 1461 1459 1452 1452 1452 1453 1454 1454 1454 1454 1454 1455 1459 1464 1470 1476 1483 1490 1495 1497 1501 1513 1523 1524 1530 1538 1546 1549 1551 1553 1555 1556 1559 1562 1565 1568 1570 1571 1573 1575 1577 1578 1579 1579 1580 1581 1584 1584 1584 1584 1584 1584 1587 1588 1588 1589 1590 1593 1602 1607 1609 1610 1616 1630 1631 1633 1637 1637 1640 1640 1640 1642 1642 1642 1646 1646 1648 1648 1651 1655 1655 1658 1662 1666 1674 1680 1687 1689 1698 1704 1707 1710 1713 1716 1720 1724 1728 1731 1734 1738 1741 1743 1746 1749 1749 1749 1748 1747 1745 1742 1740 1738 1738 1738 1738 1740 1746 1751 1759 1769 1775 1781 1789 1807 1814 1825 1828 1831 1834 1836 1839 1841 1843 1846 1848 1850 1852 1854 1855 1856 1857 1857 1857 1857 1857 1858 1858 1858 1863 1867 1871 1872 1873 1879 1891 1901 1902 1904 1905 1912 1918 1923 1926 1930 1933 1935 1937 1939 1943 1948 1952 1957 1959 1961 1962 1964 1966 1966 1966 1966 1966 1968 1968 1968 1968 1968 1967 1967 1966 1965 1963 1960 1958 1957 1957 1957 1956 1954 1951 1950 1948 1947 1946 1945 1944 1943 1941 1938 1935 1934 1934 1934 1934 1934 1934 1934 1929 1923 1916 1907 1900 1889 1878 1869 1861 1851 1844 1838 1829 1818 1811 1805 1803 1798 1795 1793 1791 1789 1787 1786 1784 1784 1782 1782 1782 1782 1782 1782 1782 1782 1783 1784 1786 1787 1788 1790 1791 1792 1793 1794 1796 1797 1797 1798 1798 1799 1801 1802 1803 1804 1806 1808 1811 1814 1816 1818 1820 1821 1824 1828 1835 1839 1845 1847 1847 1848 1848 1848 1847 1846 1844 1843 1839 1829 1826 1824 1823 1823 1821 1821 1821 1820 1819 1819 1818 1818 1817 1816 1815 1811 1811 1810 1810 1810 1809 1809 1809 1809 1809 1809 1809 1809 1809 1809 1809 1809 1809 1810 1810 1810 1810 1807 1806 1805 1804 1802 1800 1799 1799 1797 1797 1796 1795 1793 1791 1790 1789 1789 1788 1785 1782 1779 1778 1776 1774 1773 1772 1771 1770 1770 1769 1768 1768 1767 1767 1767 1766 1766 1767 1769 1771 1772 1776 1776 1777 1778 1783 1784 1784 1784 1782 1782 1780 1780 1779 1778 1778 1778 1777 1776 1776 1775 1775 1774 1774 1774 1774 1773 1773 1773 1773 1773 1774 1774 1774 1774 1775 1775 1778 1782 1782 1783 1783 1783 1784 1785 1786 1786 1786 1788 1790 1790 1792 1793 1794 1795 1798 1799 1801 1801 1801 1802 1802 1804 1804 1806 1806 1806 1804 1803 1803 1803 1803 1803 1803 1803 1803 1805 1805 1807 1809 1810 1812 1817 1819 1823 1823 1825 1825 1825 1822 1822 1822 1825 1830 1832 1835 1835 1835 1834 1834 1834 1835 1835 1835 1835 1835 1835 1837 1839 1841 1843 1844 1846 1847 1847 1852 1861 1861 1861 1856 1853 1853 1853 1858 1866 1866 1866 1859 1856 0
1763 1765 1772 1782 1795 1805 1820 1820 1820 1820 1820 1820 1822 1833 1837 1849 1857 1864 1873 1878 1878 1878 1878 1878 1878 1882 1882 1889 1894 1901 1905 1914 1932 1966 1972 1973 1977 1988 2014 2046 2078 2106 2132 2144 2148 2157 2186 2210 2240 2276 2319 2349 2362 2374 2400 2418 2419 2422 2426 2426 2428 2428 2428 2425 2413 2396 2383 2372 2364 2336 2293 2226 0 0 0 0 0 0 1405 1391 1391 1391 1391 1391 1391 1391 1391 1391 1392 1394 1396 1398 1400 1401 1403 1405 1407 1409 1411 1413 1414 1416 1418 1420 1421 1423 1425 1427 1429 1431 1433 1435 1436 1439 1441 1443 1444 1447 1448 1450 1452 1454 1456 1459 1460 1462 1462 1464 1464 1464 1464 1464 1464 1464 1462 1461 1460 1457 1451 1451 1451 1452 1453 1454 1454 1454 1455 1457 1462 1467 1471 1476 1484 1490 1495 1497 1504 1515 1523 1528 1533 1539 1546 1549 1551 1554 1555 1558 1561 1564 1566 1568 1570 1571 1573 1575 1577 1578 1579 1579 1580 1581 1583 1583 1583 1583 1583 1584 1584 1584 1585 1585 1588 1588 1589 1589 1590 1595 1613 1628 1628 1630 1631 1631 1639 1642 1645 1650 1650 1650 1650 1650 1650 1651 1655 1663 1668 1670 1677 1680 1683 1685 1687 1689 1699 1704 1707 1710 1712 1716 1720 1724 1727 1730 1733 1737 1739 1743 1745 1748 1748 1748 1748 1746 1744 1742 1740 1738 1738 1738 1738 1740 1744 1750 1759 1769 1775 1786 1796 1807 1817 1825 1828 1831 1834 1836 1839 1841 1843 1846 1849 1851 1853 1855 1856 1856 1857 1857 1857 1857 1857 1857 1857 1857 1859 1862 1866 1871 1874 1882 1892 1901 1902 1904 1905 1913 1920 1924 1928 1931 1934 1936 1939 1942 1946 1950 1953 1957 1959 1961 1963 1964 1966 1966 1966 1967 1967 1968 1968 1968 1968 1968 1967 1967 1966 1966 1965 1962 1961 1960 1959 1957 1956 1955 1952 1950 1948 1947 1946 1945 1944 1943 1941 1939 1938 1937 1936 1936 1936 1935 1935 1935 1929 1924 1916 1908 1900 1889 1877 1866 1856 1847 1841 1835 1823 1816 1809 1804 1801 1798 1795 1792 1789 1789 1787 1786 1784 1783 1782 1782 1782 1782 1782 1782 1783 1783 1784 1785 1786 1788 1790 1791 1793 1793 1794 1796 1797 1798 1799 1800 1801 1801 1804 1804 1805 1808 1810 1814 1817 1819 1821 1824 1826 1828 1831 1837 1844 1848 1850 1851 1854 1856 1856 1856 1855 1853 1853 1849 1845 1835 1829 1829 1828 1827 1827 1826 1826 1825 1825 1824 1823 1823 1822 1822 1819 1818 1817 1817 1816 1816 1816 1816 1816 1816 1815 1815 1815 1814 1813 1813 1813 1813 1813 1814 1815 1815 1815 1813 1811 1811 1810 1807 1806 1805 1803 1802 1801 1800 1798 1798 1796 1795 1795 1793 1790 1789 1786 1783 1780 1779 1777 1776 1775 1775 1775 1774 1774 1774 1773 1773 1771 1771 1771 1772 1772 1773 1774 1777 1781 1783 1783 1786 1788 1788 1788 1786 1784 1783 1782 1781 1781 1780 1780 1780 1779 1778 1777 1776 1776 1776 1776 1776 1776 1776 1776 1776 1776 1776 1777 1778 1778 1778 1778 1779 1784 1785 1786 1787 1789 1789 1790 1790 1790 1790 1791 1792 1794 1795 1796 1796 1798 1799 1800 1801 1805 1806 1809 1809 1810 1810 1810 1811 1811 1811 1809 1808 1807 1807 1807 1806 1806 1806 1809 1812 1812 1817 1817 1821 1822 1822 1824 1826 1826 1828 1828 1828 1828 1828 1828 1830 1834 1837 1839 1839 1839 1838 1838 1838 1841 1842 1842 1842 1842 1843 1844 1845 1847 1849 1853 1853 1853 1854 1859 1861 1861 1861 1856 1853 1853 1853 1858 1868 1868 1868 1859 1856 0
1748 1751 1763 1783 1804 1821 1830 1830 1830 1821 1821 1821 1822 1833 1837 1849 1857 1864 1873 1878 1878 1878 1876 1872 1872 1872 1878 1884 1886 1892 1896 1897 1912 1944 1964 1972 1973 1982 2011 2036 2066 2092 2105 2115 2122 2135 2165 2196 2223 2261 2305 2333 2350 2367 2393 2412 2412 2418 2419 2419 2428 2428 2428 2426 2414 2396 2381 2360 2354 2333 2283 2226 0 0 0 0 0 0 1403 1391 1391 1391 1391 1391 1391 1391 1391 1391 1392 1394 1396 1397 1399 1401 1403 1405 1407 1409 1411 1413 1414 1416 1418 1420 1421 1423 1425 1426 1428 1430 1432 1434 1436 1439 1441 1442 1444 1446 1448 1450 1452 1454 1456 1458 1460 1461 1462 1463 1463 1463 1463 1463 1463 1463 1461 1458 1457 1453 1450 1450 1450 1452 1452 1453 1453 1454 1455 1460 1464 1467 1471 1476 1484 1490 1495 1497 1504 1515 1524 1530 1535 1539 1546 1549 1551 1554 1556 1559 1562 1565 1568 1569 1571 1572 1573 1575 1577 1578 1579 1579 1580 1581 1581 1581 1580 1580 1580 1581 1581 1581 1581 1581 1583 1584 1585 1587 1589 1592 1602 1611 1619 1626 1631 1631 1639 1645 1647 1652 1655 1657 1658 1661 1662 1663 1667 1671 1675 1678 1681 1681 1684 1688 1692 1698 1699 1704 1706 1709 1712 1715 1720 1722 1725 1728 1732 1735 1737 1739 1744 1747 1747 1747 1747 1746 1745 1744 1743 1738 1738 1738 1738 1740 1744 1750 1759 1768 1775 1786 1798 1806 1817 1825 1828 1829 1831 1836 1839 1842 1844 1846 1849 1851 1853 1855 1857 1857 1857 1857 1857 1857 1857 1857 1857 1857 1858 1859 1863 1868 1874 1882 1892 1901 1902 1904 1905 1915 1922 1928 1931 1934 1937 1938 1941 1943 1947 1950 1954 1957 1959 1961 1963 1964 1966 1966 1967 1967 1967 1968 1969 1969 1969 1969 1969 1968 1968 1968 1965 1964 1962 1960 1959 1958 1956 1955 1952 1950 1948 1947 1946 1945 1944 1943 1941 1939 1938 1937 1936 1936 1936 1936 1936 1935 1930 1924 1917 1908 1901 1887 1873 1862 1850 1843 1835 1827 1819 1812 1805 1802 1799 1797 1793 1790 1789 1788 1787 1786 1784 1783 1783 1782 1782 1782 1782 1783 1783 1783 1785 1786 1787 1789 1791 1793 1794 1795 1796 1797 1799 1800 1800 1802 1803 1806 1807 1807 1808 1811 1816 1819 1821 1823 1827 1829 1831 1834 1838 1844 1849 1851 1855 1858 1861 1864 1864 1864 1862 1858 1858 1855 1851 1841 1832 1831 1831 1831 1831 1831 1831 1831 1831 1830 1829 1829 1828 1827 1826 1825 1824 1824 1824 1824 1823 1822 1822 1822 1821 1821 1820 1820 1819 1818 1818 1818 1818 1819 1820 1820 1820 1820 1819 1818 1816 1814 1812 1810 1808 1807 1805 1805 1803 1803 1802 1800 1798 1796 1793 1791 1790 1788 1784 1784 1781 1780 1778 1778 1778 1779 1780 1781 1781 1780 1779 1779 1779 1779 1780 1781 1781 1782 1785 1787 1789 1790 1791 1791 1790 1789 1788 1785 1784 1784 1784 1784 1783 1783 1782 1781 1780 1779 1779 1778 1778 1778 1779 1779 1779 1780 1781 1781 1781 1781 1782 1782 1783 1785 1787 1789 1791 1793 1794 1794 1794 1794 1795 1795 1795 1796 1798 1798 1799 1799 1801 1802 1804 1805 1807 1810 1813 1813 1813 1813 1813 1816 1816 1816 1813 1812 1812 1812 1812 1812 1812 1812 1815 1818 1822 1828 1828 1828 1828 1829 1829 1829 1830 1831 1832 1832 1832 1832 1833 1835 1837 1840 1841 1841 1841 1841 1841 1841 1843 1843 1846 1849 1849 1850 1850 1851 1854 1860 1860 1860 1863 1863 1864 1864 1864 1863 1858 1853 1853 1853 1858 1868 1868 1868 1856 1846 0
1739 1742 1763 1783 1804 1821 1831 1831 1831 1822 1822 1822 1826 1835 1839 1849 1858 1864 1875 1878 1878 1878 1876 1872 1872 1872 1878 1884 1886 1890 1890 1892 1905 1929 1951 1965 1970 1979 2008 2031 2052 2075 2092 2106 2111 2134 2156 2196 2223 2258 2295 2323 2350 2365 2391 2407 2407 2410 2413 2415 2427 2427 2427 2426 2414 2394 2369 2357 2354 2328 2266 2226 0 0 0 0 0 0 1394 1386 1386 1386 1390 1390 1390 1390 1390 1391 1392 1394 1395 1397 1399 1401 1403 1405 1407 1409 1411 1413 1414 1416 1418 1420 1421 1423 1425 1426 1428 1429 1431 1433 1436 1438 1440 1442 1443 1445 1447 1449 1451 1454 1456 1457 1459 1460 1462 1463 1463 1463 1463 1463 1463 1463 1460 1456 1452 1448 1448 1448 1450 1451 1452 1452 1452 1454 1455 1460 1464 1467 1471 1476 1484 1490 1493 1497 1504 1516 1526 1531 1538 1539 1545 1548 1551 1554 1557 1559 1563 1566 1568 1570 1571 1572 1574 1575 1577 1578 1579 1579 1579 1580 1579 1579 1579 1578 1578 1578 1579 1579 1579 1579 1579 1581 1584 1587 1588 1591 1599 1611 1619 1626 1631 1631 1639 1646 1649 1652 1656 1660 1664 1668 1668 1668 1669 1672 1678 1681 1684 1685 1685 1689 1694 1698 1699 1703 1706 1709 1711 1714 1716 1718 1722 1726 1730 1734 1737 1739 1744 1746 1747 1747 1747 1747 1746 1744 1744 1742 1742 1742 1742 1742 1744 1748 1755 1768 1779 1788 1798 1802 1817 1825 1825 1827 1831 1836 1839 1842 1845 1846 1849 1852 1853 1855 1857 1857 1857 1858 1858 1857 1857 1855 1855 1855 1857 1857 1860 1866 1874 1882 1892 1900 1902 1902 1905 1916 1926 1930 1933 1936 1938 1941 1942 1945 1947 1951 1954 1957 1960 1961 1963 1964 1966 1966 1967 1968 1969 1969 1969 1969 1969 1969 1969 1969 1969 1969 1968 1964 1963 1961 1960 1959 1958 1955 1953 1950 1948 1948 1946 1945 1943 1941 1940 1939 1938 1937 1937 1937 1936 1936 1936 1935 1930 1924 1917 1909 1900 1887 1870 1860 1847 1837 1829 1819 1815 1809 1803 1802 1799 1796 1793 1790 1789 1788 1787 1786 1784 1784 1783 1783 1783 1783 1783 1783 1783 1784 1786 1787 1788 1790 1792 1794 1796 1797 1798 1800 1801 1803 1804 1806 1808 1809 1810 1812 1815 1818 1822 1824 1826 1828 1832 1834 1838 1843 1848 1852 1855 1858 1864 1869 1872 1872 1872 1872 1867 1864 1862 1861 1860 1852 1841 1836 1836 1836 1836 1836 1836 1836 1836 1835 1835 1835 1835 1835 1835 1835 1835 1833 1830 1830 1830 1829 1828 1828 1827 1826 1826 1826 1826 1826 1826 1825 1825 1825 1826 1826 1826 1825 1825 1822 1820 1818 1817 1814 1812 1811 1810 1809 1808 1807 1805 1803 1802 1799 1797 1795 1792 1789 1789 1788 1787 1784 1783 1783 1783 1786 1788 1789 1789 1789 1789 1788 1788 1788 1788 1788 1788 1791 1792 1794 1794 1794 1794 1792 1792 1792 1791 1790 1789 1788 1788 1788 1786 1786 1784 1784 1783 1782 1781 1781 1781 1781 1781 1782 1782 1784 1784 1784 1784 1784 1784 1784 1788 1790 1792 1795 1796 1797 1797 1798 1798 1798 1797 1797 1797 1799 1800 1801 1802 1803 1803 1806 1807 1807 1810 1812 1814 1817 1817 1818 1819 1819 1818 1818 1818 1818 1818 1818 1818 1818 1820 1824 1824 1826 1829 1832 1835 1835 1836 1836 1836 1837 1837 1837 1838 1839 1839 1839 1839 1839 1839 1842 1845 1845 1845 1845 1845 1844 1844 1845 1850 1853 1853 1854 1855 1860 1864 1866 1866 1866 1866 1866 1869 1869 1869 1869 1862 1853 1853 1853 1863 1870 1870 1870 1856 1846 0
1739 1742 1763 1785 1804 1821 1831 1831 1831 1826 1826 1826 1835 1844 1847 1851 1858 1864 1875 1884 1884 1884 1876 1872 1872 1872 1878 1884 1884 1886 1886 1888 1899 1923 1951 1961 1969 1977 1999 2021 2044 2066 2085 2106 2111 2128 2156 2196 2223 2258 2285 2311 2333 2354 2378 2397 2399 2400 2405 2407 2420 2423 2423 2423 2413 2390 2364 2357 2354 2323 2262 2248 0 0 0 0 0 0 1389 1386 1386 1386 1387 1387 1389 1389 1390 1391 1392 1394 1395 1397 1399 1401 1403 1405 1407 1409 1411 1413 1414 1416 1417 1420 1421 1422 1424 1425 1427 1428 1430 1433 1435 1437 1438 1440 1441 1445 1446 1449 1451 1453 1455 1456 1457 1459 1461 1461 1462 1462 1462 1462 1462 1462 1459 1455 1449 1447 1447 1447 1448 1449 1449 1449 1449 1450 1455 1460 1464 1467 1472 1477 1484 1488 1491 1496 1504 1517 1527 1534 1538 1541 1543 1548 1551 1554 1557 1560 1563 1566 1568 1570 1571 1573 1574 1575 1577 1578 1579 1579 1579 1579 1579 1579 1577 1576 1576 1576 1576 1578 1578 1578 1579 1580 1581 1585 1588 1591 1599 1606 1617 1626 1632 1637 1642 1646 1649 1653 1657 1660 1665 1668 1670 1670 1672 1675 1680 1684 1687 1688 1690 1693 1694 1697 1698 1698 1701 1705 1710 1710 1713 1716 1720 1724 1728 1732 1734 1736 1739 1743 1747 1747 1747 1747 1747 1746 1747 1748 1748 1748 1748 1748 1748 1748 1755 1768 1779 1791 1798 1801 1810 1820 1825 1827 1831 1834 1838 1841 1845 1847 1850 1852 1853 1854 1857 1857 1857 1858 1858 1857 1857 1855 1855 1855 1856 1857 1857 1858 1867 1879 1891 1900 1900 1902 1905 1921 1926 1930 1935 1937 1940 1942 1943 1946 1949 1951 1954 1958 1960 1961 1963 1965 1965 1967 1967 1968 1970 1970 1970 1970 1970 1970 1970 1970 1972 1972 1972 1971 1965 1962 1960 1959 1959 1956 1954 1951 1949 1948 1946 1944 1942 1941 1940 1939 1938 1937 1937 1937 1936 1936 1936 1935 1930 1924 1917 1909 1900 1886 1868 1854 1839 1830 1822 1817 1810 1806 1803 1801 1798 1796 1793 1790 1789 1788 1787 1786 1785 1784 1783 1783 1783 1783 1783 1784 1784 1785 1786 1788 1790 1792 1794 1796 1798 1799 1800 1802 1803 1805 1808 1811 1812 1812 1814 1817 1820 1824 1828 1830 1833 1835 1839 1844 1849 1855 1861 1865 1867 1873 1876 1880 1880 1880 1879 1876 1871 1868 1866 1864 1860 1852 1846 1842 1842 1842 1842 1843 1843 1843 1844 1844 1844 1843 1842 1842 1842 1841 1841 1841 1838 1838 1837 1836 1836 1835 1835 1834 1834 1833 1833 1832 1832 1832 1832 1832 1831 1831 1830 1829 1828 1826 1825 1823 1820 1819 1817 1816 1815 1813 1811 1811 1808 1806 1805 1802 1800 1798 1796 1794 1794 1794 1790 1789 1789 1789 1793 1795 1796 1796 1796 1796 1795 1795 1795 1796 1798 1799 1801 1801 1801 1801 1798 1795 1795 1795 1795 1795 1794 1793 1792 1792 1792 1790 1790 1789 1788 1787 1786 1785 1783 1783 1783 1785 1785 1786 1788 1788 1788 1787 1786 1786 1786 1790 1795 1798 1799 1799 1799 1799 1799 1800 1800 1800 1800 1800 1801 1804 1804 1804 1805 1806 1806 1809 1810 1811 1813 1814 1816 1819 1820 1821 1821 1821 1822 1822 1822 1822 1822 1823 1825 1826 1827 1828 1829 1829 1830 1834 1838 1842 1847 1847 1847 1845 1845 1845 1846 1846 1846 1845 1843 1843 1843 1847 1847 1847 1847 1847 1847 1847 1849 1850 1855 1855 1856 1858 1858 1862 1869 1870 1870 1871 1871 1872 1875 1882 1882 1882 1881 1873 1863 1863 1863 1870 1870 1870 1856 1848 0
1739 1742 1764 1788 1795 1802 1811 1825 1831 1835 1840 1840 1847 1850 1853 1855 1858 1864 1880 1886 1886 1886 1876 1875 1875 1875 1884 1884 1884 1884 1886 1888 1897 1921 1949 1961 1969 1977 1995 2016 2035 2057 2081 2104 2108 2122 2156 2198 2232 2256 2279 2297 2316 2337 2361 2384 2388 2388 2392 2399 2410 2416 2416 2416 2409 2386 2364 2357 2356 2303 2254 2248 0 0 0 0 0 0 1384 1384 1384 1386 1386 1387 1389 1389 1390 1390 1392 1394 1395 1397 1399 1401 1403 1405 1407 1409 1411 1412 1414 1415 1417 1418 1420 1422 1423 1425 1427 1428 1430 1431 1433 1435 1436 1439 1441 1443 1446 1448 1450 1451 1453 1455 1457 1458 1459 1460 1460 1461 1461 1462 1461 1461 1458 1453 1449 1446 1444 1444 1444 1446 1447 1449 1449 1450 1454 1460 1464 1467 1472 1477 1485 1488 1489 1494 1503 1515 1527 1534 1538 1541 1543 1547 1550 1554 1557 1560 1563 1566 1568 1570 1571 1573 1574 1575 1577 1578 1578 1578 1578 1578 1578 1577 1576 1573 1573 1573 1573 1575 1577 1578 1579 1580 1581 1584 1586 1590 1599 1606 1617 1622 1633 1643 1651 1652 1654 1656 1659 1664 1666 1668 1670 1673 1674 1677 1680 1685 1687 1689 1691 1693 1694 1694 1695 1695 1695 1697 1700 1703 1707 1713 1718 1723 1728 1732 1732 1733 1735 1739 1742 1743 1747 1747 1748 1748 1748 1751 1752 1752 1752 1749 1749 1749 1755 1768 1779 1791 1798 1801 1810 1820 1824 1827 1829 1833 1837 1840 1845 1847 1850 1852 1853 1854 1857 1857 1857 1858 1858 1857 1857 1855 1855 1855 1855 1856 1856 1858 1867 1879 1891 1899 1900 1904 1915 1922 1927 1932 1935 1938 1940 1943 1945 1947 1950 1953 1955 1958 1960 1962 1963 1964 1965 1967 1968 1970 1970 1970 1972 1972 1973 1973 1973 1975 1975 1975 1975 1974 1973 1966 1964 1963 1962 1960 1955 1951 1949 1948 1946 1944 1942 1940 1939 1938 1937 1937 1936 1936 1936 1936 1936 1934 1929 1924 1917 1908 1898 1883 1866 1848 1833 1823 1817 1812 1807 1805 1802 1800 1798 1795 1792 1790 1789 1788 1787 1786 1785 1784 1783 1783 1783 1783 1783 1785 1785 1787 1788 1791 1792 1794 1797 1798 1800 1801 1803 1805 1807 1809 1812 1815 1815 1816 1818 1821 1824 1827 1833 1837 1842 1844 1849 1853 1859 1864 1868 1873 1877 1880 1884 1886 1886 1886 1885 1880 1875 1873 1869 1865 1862 1853 1850 1850 1849 1849 1849 1849 1849 1852 1852 1852 1852 1850 1848 1848 1848 1848 1848 1847 1846 1846 1845 1843 1843 1843 1843 1843 1840 1839 1839 1838 1837 1837 1837 1837 1837 1837 1835 1834 1832 1831 1830 1828 1827 1824 1822 1822 1820 1818 1816 1813 1812 1810 1808 1806 1804 1803 1801 1799 1798 1795 1795 1795 1795 1796 1798 1800 1802 1803 1804 1804 1804 1804 1805 1805 1808 1808 1808 1807 1806 1805 1802 1799 1798 1797 1797 1797 1797 1795 1795 1795 1794 1792 1792 1791 1791 1790 1789 1787 1787 1787 1787 1788 1789 1791 1791 1791 1791 1791 1792 1792 1795 1798 1803 1804 1804 1804 1804 1803 1803 1803 1804 1805 1806 1806 1806 1808 1808 1809 1809 1810 1811 1812 1814 1814 1816 1819 1821 1822 1823 1823 1823 1826 1827 1829 1829 1829 1828 1828 1828 1829 1830 1830 1830 1831 1832 1835 1840 1848 1855 1855 1855 1855 1854 1853 1852 1852 1852 1850 1848 1848 1848 1850 1850 1850 1848 1848 1848 1849 1850 1851 1856 1858 1859 1859 1860 1866 1869 1871 1871 1874 1874 1877 1881 1882 1882 1882 1881 1874 1863 1863 1863 1872 1872 1872 1860 1853 0
1754 1756 1768 1788 1793 1793 1805 1825 1833 1846 1852 1855 1856 1857 1859 1861 1862 1870 1885 1887 1887 1887 1879 1879 1879 1880 1885 1886 1886 1886 1888 1888 1897 1921 1949 1961 1970 1977 1984 2006 2027 2045 2070 2101 2106 2122 2156 2198 2232 2254 2276 2285 2293 2313 2344 2366 2382 2383 2392 2399 2407 2410 2410 2407 2396 2376 2364 2360 2356 2294 2249 2248 0 0 0 0 0 1385 1383 1383 1383 1386 1386 1387 1388 1389 1390 1390 1392 1394 1395 1397 1399 1401 1403 1405 1407 1409 1411 1412 1413 1415 1417 1418 1420 1421 1423 1425 1426 1427 1430 1431 1433 1434 1436 1437 1439 1441 1444 1447 1448 1451 1452 1455 1456 1457 1459 1460 1460 1460 1461 1461 1461 1461 1458 1453 1449 1445 1444 1444 1444 1446 1447 1449 1449 1450 1454 1460 1464 1468 1474 1479 1485 1487 1488 1494 1502 1516 1527 1534 1536 1541 1543 1548 1550 1554 1557 1560 1563 1566 1568 1570 1571 1573 1574 1575 1577 1577 1577 1577 1577 1577 1576 1575 1574 1571 1570 1570 1570 1573 1576 1577 1578 1579 1581 1581 1581 1585 1594 1606 1612 1622 1635 1645 1651 1654 1657 1659 1663 1666 1669 1672 1672 1673 1676 1679 1682 1685 1688 1689 1691 1693 1694 1694 1694 1694 1694 1694 1695 1698 1701 1701 1711 1719 1723 1726 1731 1732 1733 1735 1740 1747 1747 1752 1752 1756 1759 1759 1759 1756 1755 1754 1754 1755 1762 1777 1786 1792 1798 1801 1810 1820 1823 1824 1829 1832 1837 1840 1844 1847 1850 1852 1854 1854 1857 1857 1857 1857 1857 1857 1856 1856 1856 1856 1856 1856 1857 1858 1867 1879 1891 1900 1900 1904 1915 1922 1928 1933 1936 1939 1942 1944 1946 1948 1951 1953 1955 1958 1960 1961 1962 1964 1965 1967 1968 1970 1971 1972 1973 1973 1977 1981 1983 1983 1983 1980 1978 1975 1975 1972 1971 1966 1964 1961 1955 1951 1949 1948 1946 1944 1941 1940 1938 1937 1934 1932 1932 1932 1933 1933 1933 1932 1928 1924 1917 1906 1890 1873 1857 1842 1830 1821 1815 1809 1807 1805 1802 1800 1797 1794 1792 1790 1789 1788 1787 1786 1785 1784 1784 1784 1784 1784 1784 1785 1787 1788 1790 1792 1794 1797 1798 1800 1803 1805 1807 1809 1810 1813 1816 1817 1817 1820 1824 1827 1831 1834 1840 1845 1850 1853 1855 1859 1869 1874 1879 1880 1885 1889 1892 1892 1892 1891 1888 1884 1882 1877 1872 1870 1866 1863 1859 1859 1859 1857 1859 1859 1859 1862 1862 1862 1862 1860 1858 1857 1857 1856 1856 1855 1854 1853 1852 1852 1852 1852 1851 1851 1850 1847 1845 1844 1844 1844 1844 1844 1843 1843 1841 1839 1837 1837 1837 1836 1835 1833 1830 1829 1827 1824 1820 1819 1816 1815 1812 1811 1811 1809 1806 1802 1800 1800 1800 1800 1800 1801 1801 1804 1807 1808 1808 1809 1812 1812 1812 1812 1812 1811 1811 1810 1808 1806 1803 1801 1801 1800 1799 1799 1798 1798 1797 1797 1796 1794 1793 1792 1792 1791 1791 1791 1791 1792 1792 1794 1796 1797 1797 1798 1798 1799 1799 1799 1803 1807 1808 1810 1810 1810 1810 1809 1809 1809 1811 1811 1811 1811 1812 1812 1813 1814 1815 1815 1817 1819 1822 1824 1827 1828 1828 1828 1828 1828 1828 1831 1833 1834 1834 1834 1833 1833 1833 1833 1833 1833 1835 1836 1836 1838 1844 1851 1858 1861 1861 1861 1859 1856 1856 1854 1854 1854 1852 1852 1854 1853 1853 1853 1853 1853 1855 1855 1855 1856 1856 1861 1861 1861 1865 1868 1869 1871 1871 1874 1875 1882 1886 1886 1886 1883 1881 1874 1869 1869 1869 1873 1873 1873 1865 1862 0
1769 1772 1779 1788 1793 1793 1805 1825 1835 1853 1863 1863 1868 1868 1868 1868 1869 1878 1891 1891 1891 1889 1887 1887 1887 1887 1887 1888 1887 1887 1888 1888 1897 1921 1949 1966 1970 1977 1984 2003 2011 2028 2053 2078 2084 2112 2156 2198 2232 2254 2260 2268 2284 2300 2326 2353 2372 2378 2392 2399 2402 2405 2405 2402 2388 2375 2362 2361 2356 2287 0 0 0 0 0 0 0 1385 1383 1383 1383 1387 1387 1387 1388 1389 1390 1390 1392 1394 1395 1397 1399 1401 1403 1405 1407 1409 1411 1412 1413 1415 1417 1418 1419 1421 1422 1424 1426 1426 1428 1429 1431 1432 1434 1436 1438 1440 1443 1445 1448 1449 1452 1453 1455 1455 1457 1459 1459 1460 1460 1461 1460 1460 1458 1453 1449 1445 1444 1444 1444 1446 1447 1450 1452 1453 1454 1460 1464 1471 1476 1480 1485 1487 1488 1494 1503 1517 1528 1535 1539 1541 1545 1548 1551 1554 1556 1560 1563 1566 1568 1570 1571 1572 1574 1575 1575 1576 1576 1576 1576 1575 1573 1573 1571 1568 1567 1567 1567 1570 1573 1577 1578 1578 1578 1579 1579 1579 1587 1596 1602 1620 1635 1645 1651 1655 1658 1662 1664 1667 1670 1673 1674 1677 1679 1680 1683 1687 1690 1691 1692 1693 1694 1694 1694 1694 1694 1694 1694 1695 1698 1700 1701 1705 1706 1709 1709 1720 1725 1732 1739 1747 1748 1753 1757 1759 1763 1763 1763 1763 1763 1768 1773 1775 1782 1790 1793 1795 1798 1801 1811 1820 1822 1824 1828 1832 1835 1839 1843 1847 1850 1852 1854 1855 1858 1858 1858 1857 1857 1856 1855 1855 1855 1856 1856 1857 1858 1859 1867 1879 1891 1900 1900 1905 1918 1925 1928 1933 1936 1939 1942 1944 1947 1948 1951 1953 1955 1957 1960 1961 1962 1964 1965 1967 1968 1970 1972 1973 1974 1974 1977 1984 1989 1994 1994 1994 1983 1975 1975 1974 1972 1966 1964 1961 1956 1951 1948 1947 1944 1940 1939 1938 1936 1934 1933 1932 1930 1930 1930 1930 1930 1927 1925 1922 1909 1893 1877 1863 1849 1838 1828 1821 1814 1809 1805 1803 1799 1797 1795 1794 1792 1790 1789 1788 1787 1786 1786 1785 1785 1784 1784 1784 1785 1786 1787 1790 1792 1794 1796 1799 1801 1803 1805 1808 1810 1813 1816 1817 1819 1821 1823 1826 1830 1834 1838 1841 1847 1853 1857 1859 1863 1870 1879 1885 1888 1890 1892 1895 1897 1897 1897 1895 1892 1888 1886 1881 1877 1874 1868 1868 1868 1867 1867 1867 1869 1870 1872 1872 1872 1872 1870 1869 1866 1866 1866 1866 1866 1864 1863 1861 1861 1861 1861 1861 1861 1861 1860 1858 1857 1857 1856 1856 1856 1856 1854 1851 1850 1848 1848 1846 1843 1841 1839 1838 1835 1834 1833 1830 1828 1825 1824 1822 1817 1817 1817 1813 1810 1805 1805 1805 1805 1805 1807 1810 1811 1813 1816 1817 1818 1822 1823 1823 1823 1820 1815 1815 1815 1813 1810 1808 1806 1805 1805 1804 1803 1801 1801 1800 1798 1797 1797 1795 1794 1794 1794 1794 1794 1795 1795 1797 1798 1799 1801 1802 1802 1802 1803 1803 1804 1804 1807 1811 1812 1812 1813 1813 1813 1813 1815 1817 1817 1817 1818 1818 1818 1818 1818 1821 1824 1827 1829 1833 1834 1834 1834 1834 1834 1834 1836 1838 1838 1842 1842 1842 1841 1838 1838 1838 1838 1838 1839 1841 1842 1844 1844 1845 1848 1854 1861 1864 1864 1864 1862 1858 1858 1855 1855 1855 1857 1857 1864 1865 1866 1866 1865 1865 1864 1864 1861 1861 1861 1861 1863 1864 1866 1866 1868 1868 1872 1881 1888 1889 1891 1889 1889 1889 1889 1874 1865 1865 1865 1873 1873 1877 1873 0 0
