0 0 0 0 0 0 0 0 0 0 0 0 0 0 0 0 0 0 2162 2175 2183 2184 2184 2188 2189 2189 2189 2189 2189 2189 2189 2192 2192 2192 2186 2175 2162 2149 2134 2079 2057 2057 2057 2087 2120 2134 2141 2145 2152 2170 2194 2203 2209 2210 2212 2213 2213 2213 2218 2228 2236 2249 2250 2257 2261 2264 2267 2275 2280 2284 2288 2293 2304 2306 2308 2310 2314 2320 2322 2322 0 0 0 0 0 0 0 0 0 0 0 0 0 0 0 0 0 0 0 0 0 0 0 0 0 0 0 0 0 0 0 0 0 0 0 0 0 0 0 0 0 0 0 0 0 0 0 0 0 0 0 0 0 0 0 0 0 0 0 0 0 0 0 0 0 0 0 0 0 2851 2873 2901 2913 2921 2989 3056 3153 3221 3246 3276 3287 3312 3368 3423 3451 3472 3477 3477 3477 3464 3463 3463 3459 3459 3459 3446 3446 3446 3463 3476 3486 3492 3492 3492 3492 3492 3497 3497 3497 3498 3501 3498 3496 3496 3496 3496 3499 3499 3499 3497 3497 3493 3491 3491 3491 3504 3519 3526 3526 3526 3526 3524 3517 3504 3484 3448 3364 0 0 0 0 0 0 3445 3788 3968 4040 4062 4070 4073 4074 4075 4075 4076 4080 4086 4090 4090 4090 4060 3964 3837 3545 3309 0 0 0 0 0 0 0 0 0 0 0 0 0 0 0 0 0 0 0 0 3415 3449 3759 3865 4028 4080 4089 4089 4089 4088 4087 4087 4085 4081 4070 4060 4048 4033 4000 3965 3825 3479 0 0 0 0 0 0 0 0 0 1625 1612 1605 1605 1605 1606 1609 1613 1616 1617 1619 1621 1623 1625 1628 1629 1631 1633 1635 1638 1640 1641 1644 1646 1648 1650 1652 1653 1654 1655 1656 1658 1659 1661 1663 1663 1664 1665 1668 1671 1671 1674 1677 1678 1680 1683 1684 1686 1686 1688 1690 1692 1695 1696 1698 1700 1704 1709 1710 1712 1713 1715 1719 1723 1726 1728 1729 1732 1735 1735 1736 1739 1742 1745 1745 1748 1749 1751 1753 1754 1757 1758 1760 1762 1764 1766 1767 1768 1770 1772 1774 1775 1776 1778 1778 1778 1782 1785 1786 1787 1789 1791 1794 1797 1800 1807 1812 1815 1816 1819 1822 1824 1825 1828 1830 1832 1834 1837 1840 1841 1843 1845 1847 1848 1850 1850 1851 1853 1854 1857 1858 1859 1862 1865 1867 1868 1870 1872 1876 1879 1882 1883 1887 1888 1892 1894 1898 1901 1903 1906 1907 1907 1909 1913 1916 1965 2003 2022 2022 2022 2022 2019 2015 2011 2008 2005 2002 1999 1997 1995 1992 1990 1988 1987 1984 1982 1980 1978 1977 1974 1973 1972 1971 1969 1967 1967 1965 1963 1960 1959 1956 1955 1953 1950 1946 1942 1938 1931 1926 1916 1901 1891 1878 1870 1863 1859 1857 1855 1854 1852 1852 1852 1852 1854 1859 1861 1862 1865 1869 1872 1875 1877 1879 1880 1881 1881 1883 1884 1884 1884 1884 1884 1883 1882 1881 1880 1878 1877 1876 1875 1874 1873 1872 1871 1870 1868 1868 1865 1864 1862 1860 1858 1856 1854 1849 1844 1841 1837 1832 1829 1825 1822 1819 1815 1812 1810 1809 1808 1808 1808 1811 1811 1814 1817 1822 1828 1831 1834 1835 1836 1837 1837 1838 1839 1839 1839 1839 1838 1838 1838 1839 1839 1839 1840 1841 1841 1842 1843 1844 1845 1847 1849 1852 1853 1854 1855 1859 1864 1867 1871 1875 1879 1881 1883 1886 1889 1893 1895 1896 1898 1899 1899 1900 1901 1904 1904 1904 1903 1902 1901 1901 1901 1907 1910 1912 1912 1912 1907
0 0 0 0 0 0 0 0 0 0 0 0 0 0 0 0 0 0 2162 2162 2162 2169 2169 2184 2189 2192 2192 2192 2192 2192 2193 2193 2193 2192 2186 2171 2160 2146 2133 2049 2049 2049 2070 2101 2134 2141 2143 2145 2152 2170 2194 2201 2205 2207 2207 2214 2217 2218 2218 2218 2205 2205 2205 2219 2220 2229 2250 2253 2275 2281 2287 2291 2292 2295 2298 2306 2309 2309 2309 2308 0 0 0 0 0 0 0 0 0 0 0 0 0 0 0 0 0 0 0 0 0 0 0 0 0 0 0 0 0 0 0 0 0 0 0 0 0 0 0 0 0 0 0 0 0 0 0 0 0 0 0 0 0 0 0 0 0 0 0 0 0 0 0 0 0 0 0 0 0 0 0 0 0 0 0 0 0 3006 3045 3103 3173 3218 3312 3408 3436 3460 3469 3469 3469 3458 3458 3458 3460 3460 3460 3446 3445 3445 3446 3452 3480 3492 3495 3495 3492 3481 3481 3481 3489 3495 3499 3499 3499 3493 3490 3490 3490 3491 3495 3495 3493 3491 3491 3491 3491 3504 3519 3526 3528 3530 3531 3531 3531 3510 3473 3412 3172 0 0 0 0 0 0 3718 3905 4001 4041 4066 4071 4074 4074 4075 4076 4076 4078 4085 4085 4085 4084 4032 3906 3811 3517 0 0 0 0 0 0 0 0 0 0 0 0 0 0 0 0 0 0 0 0 0 3333 3449 3759 3865 4028 4080 4089 4089 4089 4088 4087 4087 4085 4074 4062 4052 4035 4013 3966 3926 3755 3007 0 0 0 0 0 0 0 0 1647 1619 1610 1605 1605 1605 1607 1610 1613 1615 1619 1620 1621 1623 1625 1628 1629 1631 1633 1635 1638 1640 1641 1644 1646 1647 1650 1652 1653 1654 1655 1656 1658 1659 1661 1662 1663 1663 1664 1665 1670 1671 1672 1673 1676 1680 1683 1684 1686 1686 1687 1688 1692 1695 1696 1698 1700 1704 1709 1710 1712 1713 1716 1720 1723 1726 1728 1729 1731 1734 1735 1736 1739 1742 1745 1745 1748 1749 1750 1752 1754 1756 1758 1761 1762 1764 1766 1767 1768 1770 1773 1774 1776 1777 1780 1780 1780 1782 1786 1786 1787 1789 1791 1794 1797 1800 1807 1812 1812 1816 1819 1822 1824 1825 1828 1830 1833 1835 1837 1840 1841 1843 1844 1846 1848 1849 1850 1851 1851 1853 1855 1857 1859 1861 1864 1867 1867 1869 1871 1875 1878 1882 1885 1887 1888 1890 1894 1898 1901 1904 1907 1909 1909 1909 1911 1926 1974 2007 2024 2024 2024 2023 2018 2013 2010 2006 2004 2001 1998 1996 1993 1990 1988 1986 1984 1982 1980 1978 1976 1975 1973 1972 1970 1968 1966 1965 1963 1962 1960 1959 1957 1955 1953 1951 1948 1945 1942 1938 1932 1926 1918 1907 1895 1885 1871 1863 1859 1857 1855 1853 1852 1850 1850 1850 1852 1856 1858 1860 1862 1867 1871 1872 1875 1877 1878 1878 1880 1881 1882 1883 1883 1883 1883 1882 1881 1880 1879 1877 1877 1875 1875 1874 1873 1871 1870 1869 1867 1867 1865 1864 1862 1860 1858 1856 1854 1850 1846 1843 1839 1834 1830 1827 1822 1819 1815 1813 1811 1809 1808 1808 1808 1810 1811 1812 1816 1819 1826 1831 1833 1834 1835 1835 1836 1837 1837 1837 1837 1837 1838 1838 1838 1838 1838 1839 1840 1841 1841 1842 1843 1844 1845 1847 1849 1852 1853 1854 1855 1858 1863 1867 1871 1876 1879 1882 1883 1886 1889 1893 1895 1896 1898 1899 1899 1901 1901 1903 1903 1903 1903 1902 1901 1901 1901 1904 1910 1912 1912 1912 1904
0 0 0 0 0 0 0 0 0 0 0 0 0 0 0 0 0 0 2149 2150 2150 2151 2153 2166 2189 2192 2192 2192 2192 2192 2195 2195 2195 2194 2184 2171 2156 2127 2082 2062 2062 2062 2073 2104 2137 2147 2151 2152 2155 2171 2194 2196 2200 2203 2205 2214 2218 2218 2218 2199 2195 2195 2195 2209 2210 2212 2215 2215 2230 2239 2263 2287 2290 2292 2295 2306 2306 2306 2300 2299 0 0 0 0 0 0 0 0 0 0 0 0 0 0 0 0 0 0 0 0 0 0 0 0 0 0 0 0 0 0 0 0 0 0 0 0 0 0 0 0 0 0 0 0 0 0 0 0 0 0 0 0 0 0 0 0 0 0 0 0 0 0 0 0 0 0 0 0 0 0 0 0 0 0 0 0 0 0 0 0 0 0 0 0 3256 3344 3383 3413 3424 3432 3445 3456 3460 3460 3460 3444 3431 3431 3431 3442 3477 3488 3490 3490 3488 3473 3464 3464 3464 3480 3499 3499 3499 3493 3489 3489 3487 3487 3487 3487 3487 3486 3488 3491 3491 3504 3514 3527 3537 3539 3539 3537 3531 3510 3473 3296 3070 0 0 0 0 0 0 3792 3955 4024 4057 4066 4071 4074 4074 4074 4074 4074 4075 4077 4077 4077 4067 4007 3899 3810 3517 0 0 0 0 0 0 0 0 0 0 0 0 0 0 0 0 0 0 0 0 0 3333 3449 3778 3938 4068 4089 4089 4089 4089 4088 4082 4078 4074 4065 4052 4039 4023 4002 3924 3840 3483 2681 0 0 0 0 0 0 0 0 1642 1613 1608 1607 1607 1608 1608 1610 1613 1616 1619 1620 1621 1623 1625 1628 1629 1631 1633 1635 1638 1640 1641 1644 1645 1648 1650 1652 1652 1654 1655 1656 1657 1658 1660 1662 1663 1663 1664 1664 1665 1666 1668 1669 1675 1679 1683 1684 1685 1686 1686 1687 1691 1695 1696 1698 1701 1704 1709 1710 1712 1714 1716 1720 1723 1726 1728 1730 1731 1733 1734 1735 1739 1741 1743 1745 1747 1748 1750 1752 1753 1755 1758 1760 1762 1764 1766 1767 1768 1771 1773 1775 1777 1777 1780 1780 1781 1782 1786 1787 1789 1790 1791 1794 1797 1801 1807 1812 1812 1815 1819 1822 1824 1825 1828 1831 1833 1835 1837 1840 1841 1843 1844 1845 1848 1849 1850 1851 1851 1853 1854 1856 1859 1861 1864 1867 1867 1869 1870 1872 1874 1882 1885 1887 1889 1890 1894 1898 1901 1905 1908 1911 1911 1911 1912 1929 1983 2017 2026 2026 2026 2023 2016 2011 2008 2006 2002 2000 1997 1994 1990 1988 1986 1984 1983 1980 1978 1976 1973 1972 1970 1969 1968 1966 1964 1961 1960 1960 1958 1957 1955 1953 1951 1948 1947 1944 1941 1937 1932 1926 1918 1908 1898 1889 1876 1865 1859 1857 1854 1852 1850 1849 1849 1849 1850 1853 1856 1857 1860 1864 1868 1870 1871 1874 1876 1878 1880 1880 1880 1881 1881 1881 1881 1881 1881 1880 1878 1877 1877 1875 1874 1873 1871 1871 1869 1869 1867 1866 1865 1863 1862 1860 1858 1857 1854 1851 1848 1846 1841 1837 1833 1828 1824 1820 1816 1813 1811 1809 1808 1808 1808 1810 1810 1812 1816 1818 1824 1828 1832 1834 1834 1834 1835 1836 1836 1836 1837 1837 1837 1837 1837 1837 1838 1838 1839 1840 1841 1842 1842 1844 1845 1847 1849 1851 1853 1853 1855 1857 1860 1865 1871 1876 1879 1882 1882 1885 1889 1893 1895 1896 1899 1899 1900 1901 1902 1903 1903 1903 1903 1902 1901 1901 1901 1904 1908 1908 1908 1904 1902
0 0 0 0 0 0 0 0 0 0 0 0 0 0 0 0 0 0 0 2147 2146 2148 2150 2166 2189 2192 2192 2192 2192 2192 2197 2197 2197 2195 2184 2167 2132 2095 2043 2043 2043 2071 2084 2108 2140 2152 2153 2156 2161 2173 2191 2195 2195 2202 2205 2214 2214 2214 2214 2198 2188 2188 2188 2207 2209 2211 2213 2213 2221 2224 2235 2252 2272 2288 2295 2306 2306 2306 2299 2298 0 0 0 0 0 0 0 0 0 0 0 0 0 0 0 0 0 0 0 0 0 0 0 0 0 0 0 0 0 0 0 0 0 0 0 0 0 0 0 0 0 0 0 0 0 0 0 0 0 0 0 0 0 0 0 0 0 0 0 0 0 0 0 0 0 0 0 0 0 0 0 0 0 0 0 0 0 0 0 0 0 0 0 0 0 0 0 3150 3258 3312 3361 3392 3417 3439 3439 3439 3425 3425 3425 3427 3460 3488 3490 3490 3488 3465 3453 3453 3453 3475 3496 3496 3496 3493 3487 3487 3487 3487 3487 3487 3487 3486 3488 3491 3491 3504 3514 3527 3537 3539 3539 3537 3531 3510 3422 3277 0 0 0 0 0 0 3293 3792 3969 4024 4057 4066 4071 4072 4072 4072 4068 4068 4068 4068 4068 4060 4043 3997 3899 3807 3545 0 0 0 0 0 0 0 0 0 0 0 0 0 0 0 0 0 0 0 0 0 3333 3520 3838 4040 4090 4090 4090 4089 4089 4087 4081 4075 4067 4055 4048 4033 4012 3975 3924 3819 3110 0 0 0 0 0 0 0 0 0 1632 1612 1608 1608 1608 1608 1608 1610 1613 1616 1619 1620 1621 1624 1625 1628 1629 1631 1633 1635 1638 1640 1642 1644 1646 1648 1650 1651 1652 1654 1655 1656 1657 1658 1660 1662 1662 1663 1663 1663 1664 1664 1664 1669 1675 1679 1680 1680 1682 1684 1686 1687 1691 1695 1697 1699 1701 1704 1708 1709 1712 1715 1719 1720 1723 1725 1728 1730 1731 1733 1733 1735 1738 1739 1741 1745 1747 1748 1748 1750 1752 1755 1758 1761 1762 1764 1766 1766 1768 1771 1773 1776 1777 1778 1780 1780 1781 1782 1786 1787 1790 1791 1794 1798 1802 1805 1810 1812 1812 1816 1819 1822 1825 1825 1828 1831 1833 1835 1837 1839 1841 1842 1844 1845 1847 1848 1850 1851 1851 1852 1853 1856 1859 1861 1864 1867 1869 1869 1870 1871 1873 1879 1885 1887 1889 1890 1894 1898 1901 1905 1908 1911 1911 1911 1913 1930 1990 2024 2026 2026 2026 2023 2016 2010 2007 2005 2002 1999 1996 1991 1989 1985 1983 1982 1980 1978 1975 1973 1971 1969 1968 1966 1964 1963 1960 1958 1958 1956 1956 1955 1953 1952 1950 1947 1944 1943 1939 1935 1931 1925 1918 1913 1901 1892 1879 1866 1860 1856 1854 1851 1848 1848 1848 1848 1850 1852 1854 1855 1858 1861 1864 1865 1868 1871 1874 1876 1877 1879 1879 1880 1880 1880 1880 1879 1879 1879 1878 1877 1876 1875 1874 1873 1871 1870 1868 1867 1866 1865 1865 1863 1861 1860 1858 1857 1854 1852 1849 1846 1843 1839 1835 1830 1826 1821 1816 1814 1811 1809 1808 1808 1808 1808 1809 1812 1815 1818 1823 1828 1831 1833 1833 1833 1835 1835 1835 1836 1836 1836 1836 1836 1836 1837 1837 1837 1839 1840 1841 1842 1842 1843 1845 1846 1848 1850 1852 1853 1855 1857 1860 1865 1871 1876 1880 1882 1883 1886 1890 1894 1896 1897 1899 1900 1901 1901 1902 1902 1902 1902 1902 1901 1901 1901 1901 1904 1904 1904 1903 1900 1900
0 0 0 0 0 0 0 0 0 0 0 0 0 0 0 0 0 0 0 0 2146 2147 2148 2166 2189 2192 2193 2195 2196 2196 2197 2197 2197 2195 2178 2149 2124 2075 2020 2020 2020 2071 2097 2133 2147 2153 2154 2159 2163 2180 2191 2195 2195 2202 2205 2214 2214 2214 2206 2189 2183 2183 2183 2199 2204 2207 2207 2206 2206 2208 2210 2242 2267 2288 2301 2306 2306 2306 2299 2298 0 0 0 0 0 0 0 0 0 0 0 0 0 0 0 0 0 0 0 0 0 0 0 0 0 0 0 0 0 0 0 0 0 0 0 0 0 0 0 0 0 0 0 0 0 0 0 0 0 0 0 0 0 3013 3120 3120 3120 3096 2943 2895 2887 2820 0 0 0 0 0 0 0 0 0 0 0 0 0 0 0 0 0 0 0 0 0 0 0 0 0 0 0 0 0 0 0 0 3342 3359 3359 3362 3362 3362 3411 3456 3479 3479 3479 3465 3452 3452 3452 3467 3483 3488 3488 3488 3484 3484 3484 3484 3484 3484 3486 3486 3489 3490 3491 3504 3514 3527 3527 3527 3527 3525 3519 3502 3405 3195 0 0 0 0 0 0 3462 3792 3969 4024 4057 4062 4062 4062 4057 4055 4054 4050 4050 4046 4041 4041 4022 3991 3893 3807 3576 0 0 0 0 0 0 0 0 0 0 0 0 0 0 0 0 0 0 0 0 0 3388 3652 3900 4071 4090 4090 4090 4089 4089 4084 4078 4074 4065 4051 4046 4032 4011 3970 3883 3565 2550 0 0 0 0 0 0 0 0 0 1626 1611 1608 1608 1608 1608 1608 1610 1613 1616 1619 1621 1622 1624 1626 1628 1629 1631 1633 1636 1638 1640 1642 1644 1646 1648 1650 1651 1653 1654 1655 1656 1657 1658 1660 1661 1662 1663 1663 1663 1664 1664 1664 1669 1674 1679 1679 1680 1682 1684 1685 1687 1690 1694 1696 1699 1701 1703 1707 1710 1713 1716 1719 1720 1723 1725 1728 1730 1731 1733 1733 1735 1738 1739 1741 1744 1747 1747 1748 1750 1752 1755 1758 1761 1762 1764 1766 1766 1768 1771 1773 1776 1778 1778 1780 1781 1782 1783 1786 1788 1790 1791 1795 1800 1802 1808 1811 1812 1814 1816 1823 1824 1825 1827 1829 1831 1833 1835 1837 1838 1840 1842 1844 1845 1847 1848 1849 1850 1851 1851 1852 1856 1859 1861 1865 1868 1869 1869 1870 1871 1873 1878 1885 1887 1888 1890 1894 1898 1901 1905 1909 1913 1913 1915 1915 1931 1994 2024 2026 2026 2026 2023 2014 2010 2007 2005 2001 1997 1992 1989 1985 1983 1981 1979 1977 1975 1972 1970 1968 1966 1963 1962 1960 1959 1957 1956 1955 1954 1953 1952 1951 1949 1948 1945 1942 1941 1937 1933 1929 1925 1918 1913 1904 1893 1881 1868 1860 1856 1852 1850 1847 1846 1846 1846 1848 1850 1852 1853 1855 1858 1861 1862 1864 1870 1872 1874 1876 1876 1877 1878 1878 1878 1878 1878 1878 1878 1877 1876 1875 1874 1872 1872 1870 1868 1867 1866 1865 1864 1864 1862 1861 1859 1857 1857 1854 1852 1850 1847 1844 1840 1837 1832 1828 1823 1820 1815 1812 1809 1809 1808 1808 1808 1809 1812 1814 1818 1822 1827 1830 1833 1833 1833 1833 1835 1835 1835 1836 1836 1836 1835 1836 1836 1836 1837 1838 1839 1841 1841 1842 1843 1845 1846 1847 1849 1851 1853 1854 1857 1860 1865 1871 1877 1880 1882 1884 1886 1891 1894 1896 1898 1899 1900 1901 1902 1902 1902 1902 1902 1902 1901 1901 1901 1901 1904 1904 1904 1902 1902 1902
0 0 0 0 0 0 0 0 0 0 0 0 0 0 0 0 0 0 0 0 0 2113 2146 2166 2193 2195 2195 2196 2198 2198 2198 2198 2197 2195 2176 2143 2110 2059 2023 2023 2023 2075 2127 2138 2148 2154 2157 2163 2168 2185 2191 2195 2196 2202 2206 2214 2214 2214 2205 2185 2183 2183 2183 2199 2204 2207 2207 2206 2206 2208 2210 2242 2267 2292 2301 2306 2306 2306 2309 2300 0 0 0 0 0 0 0 0 0 0 0 0 0 0 0 0 0 0 0 0 0 0 0 0 0 0 0 0 0 0 0 0 0 0 0 0 0 0 0 0 0 0 0 0 0 0 0 0 0 0 0 0 3008 3080 3120 3122 3122 3120 3116 3102 3036 3027 3027 3036 3072 3072 3072 0 0 0 0 0 0 0 0 0 0 0 0 0 0 0 0 0 0 0 0 0 0 0 0 0 0 0 0 0 0 0 3258 3289 3352 3426 3450 3456 3456 3450 3442 3442 3442 3447 3447 3448 3448 3461 3462 3467 3476 3479 3482 3483 3485 3488 3488 3488 3482 3482 3482 3494 3496 3496 3496 3496 3491 3463 3356 3069 0 0 0 0 0 3070 3462 3769 3969 3991 3994 3998 3994 3998 3999 4008 4038 4041 4041 4041 4041 4041 4022 3975 3893 3807 3576 0 0 0 0 0 0 0 0 0 0 0 0 0 0 0 0 0 0 0 0 0 3424 3882 3977 4082 4083 4083 4085 4084 4083 4083 4077 4071 4052 4047 4043 4025 3991 3949 3867 3244 0 0 0 0 0 0 0 0 0 0 1622 1610 1607 1607 1607 1608 1609 1610 1613 1618 1619 1621 1622 1624 1627 1629 1631 1632 1634 1636 1638 1640 1642 1644 1646 1648 1650 1651 1653 1654 1655 1657 1657 1658 1660 1661 1662 1663 1663 1663 1664 1664 1664 1669 1675 1679 1679 1680 1682 1684 1684 1687 1690 1694 1696 1699 1700 1703 1707 1710 1713 1716 1719 1721 1723 1725 1728 1730 1731 1732 1733 1735 1738 1739 1741 1744 1746 1746 1747 1749 1752 1755 1758 1760 1762 1764 1766 1766 1767 1769 1772 1777 1777 1779 1779 1781 1782 1784 1786 1788 1796 1798 1799 1802 1805 1809 1811 1812 1814 1817 1820 1823 1825 1827 1829 1831 1832 1835 1836 1838 1840 1842 1844 1845 1847 1848 1848 1850 1850 1851 1851 1855 1858 1861 1865 1868 1869 1869 1870 1871 1873 1878 1885 1888 1889 1890 1894 1898 1901 1905 1909 1913 1916 1916 1927 1952 1995 2024 2024 2024 2024 2019 2013 2009 2007 2004 2001 1995 1990 1986 1982 1981 1979 1977 1974 1972 1969 1967 1965 1961 1960 1958 1957 1955 1955 1954 1952 1951 1951 1950 1948 1946 1944 1942 1941 1938 1935 1931 1928 1923 1918 1913 1906 1895 1884 1872 1860 1856 1852 1849 1846 1845 1845 1845 1845 1846 1849 1851 1852 1855 1858 1860 1862 1867 1869 1871 1873 1874 1875 1877 1877 1877 1877 1877 1877 1877 1877 1875 1874 1872 1870 1870 1869 1868 1867 1865 1864 1863 1862 1861 1860 1859 1857 1857 1854 1852 1850 1847 1845 1842 1838 1833 1829 1824 1821 1816 1813 1811 1809 1808 1808 1808 1809 1812 1814 1818 1822 1826 1830 1831 1831 1831 1832 1833 1834 1834 1834 1835 1835 1835 1835 1835 1836 1837 1838 1839 1840 1841 1842 1843 1844 1846 1847 1848 1851 1852 1854 1856 1862 1867 1871 1877 1880 1882 1884 1889 1892 1895 1898 1898 1900 1900 1901 1902 1902 1902 1902 1902 1902 1901 1902 1902 1902 1904 1904 1904 1904 1904 1906
0 0 0 0 0 0 0 0 0 0 0 0 0 0 0 0 0 0 0 0 0 0 2146 2166 2193 2195 2198 2199 2199 2199 2198 2198 2197 2194 2176 2131 2098 2037 2037 2037 2059 2093 2141 2145 2149 2154 2163 2173 2177 2191 2197 2197 2204 2205 2206 2214 2214 2214 2205 2185 2183 2183 2183 2199 2204 2207 2207 2206 2206 2208 2210 2242 2267 2294 2302 2304 2308 2310 2321 2321 0 0 0 0 0 0 0 0 0 0 0 0 0 0 0 0 0 0 0 0 0 0 0 0 0 0 2568 2704 2704 2704 0 0 0 0 0 0 0 0 0 0 0 0 0 0 0 0 0 0 0 2944 2946 3026 3054 3083 3123 3127 3127 3127 3124 3117 3110 3095 3084 3084 3095 3095 3074 3066 2990 2962 2956 2879 0 0 0 0 0 0 0 0 0 0 0 0 0 0 0 0 0 0 0 0 0 0 0 0 0 0 0 0 0 0 0 0 3276 3307 3341 3392 3392 3396 3396 3396 3396 3407 3429 3446 3452 3476 3479 3482 3485 3485 3485 3485 3475 3470 3470 3470 3473 3473 3473 3467 3454 3423 3270 2944 0 0 0 0 2883 3313 3464 3656 3778 3814 3829 3844 3854 3862 3866 3935 4013 4035 4039 4040 4039 4035 4022 3975 3891 3807 3576 0 0 0 0 0 0 0 0 0 0 0 0 0 0 0 0 0 0 0 0 3275 3672 3923 4043 4086 4086 4086 4079 4078 4077 4075 4072 4066 4051 4037 4026 4007 3946 3855 3681 2892 0 0 0 0 0 0 0 0 0 1647 1622 1605 1605 1605 1606 1608 1609 1611 1616 1618 1620 1622 1623 1625 1627 1629 1631 1632 1634 1636 1638 1640 1642 1645 1646 1648 1650 1652 1653 1655 1655 1657 1657 1658 1660 1662 1662 1664 1665 1666 1666 1667 1668 1671 1676 1679 1679 1680 1682 1684 1684 1687 1690 1694 1696 1698 1700 1703 1707 1710 1713 1716 1719 1721 1723 1725 1728 1730 1731 1732 1733 1735 1738 1740 1741 1744 1746 1746 1747 1749 1752 1755 1757 1758 1761 1764 1765 1766 1767 1769 1772 1777 1778 1778 1779 1781 1783 1785 1790 1797 1797 1798 1800 1804 1805 1809 1812 1813 1817 1818 1820 1822 1825 1828 1829 1831 1832 1834 1836 1838 1840 1842 1843 1845 1847 1847 1847 1847 1847 1850 1850 1855 1858 1861 1865 1868 1869 1869 1872 1873 1873 1878 1885 1889 1891 1891 1895 1898 1901 1905 1909 1913 1917 1919 1932 1956 1996 2021 2021 2021 2019 2016 2012 2008 2006 2004 2000 1995 1990 1985 1981 1978 1976 1974 1972 1969 1966 1964 1961 1959 1956 1955 1953 1953 1952 1951 1950 1949 1948 1947 1945 1944 1942 1939 1938 1936 1933 1930 1926 1923 1917 1912 1907 1899 1887 1876 1867 1856 1852 1848 1846 1843 1842 1842 1842 1843 1844 1847 1849 1850 1853 1857 1858 1863 1866 1868 1870 1872 1873 1874 1875 1875 1876 1876 1876 1876 1876 1874 1873 1872 1870 1869 1868 1866 1866 1864 1864 1862 1861 1860 1859 1858 1857 1855 1854 1852 1850 1847 1845 1842 1838 1834 1830 1824 1822 1817 1814 1811 1809 1807 1807 1807 1808 1811 1814 1817 1821 1826 1829 1829 1830 1830 1831 1832 1833 1834 1834 1834 1834 1834 1834 1835 1835 1836 1838 1839 1840 1840 1842 1843 1844 1845 1846 1847 1850 1852 1854 1856 1862 1867 1873 1879 1883 1885 1886 1891 1894 1898 1899 1901 1901 1901 1901 1901 1902 1902 1902 1902 1902 1902 1902 1902 1902 1904 1904 1905 1905 1905 1908
0 0 0 0 0 0 0 0 0 0 0 0 0 0 0 0 0 0 0 0 0 0 0 2165 2193 2195 2198 2199 2199 2199 2198 2198 2197 2184 2158 2107 2066 2032 2032 2032 2094 2129 2141 2145 2148 2153 2163 2177 2184 2192 2197 2198 2205 2206 2210 2215 2215 2215 2206 2187 2185 2185 2187 2192 2197 2204 2204 2204 2208 2213 2243 2258 2270 2294 2301 2304 2308 2325 2342 2342 0 0 0 0 0 0 0 0 0 0 0 0 0 0 0 0 0 0 0 0 0 0 2916 2958 2958 2958 2957 2940 2940 2957 3041 3044 3044 3044 2960 2881 2823 2796 0 0 2697 2697 2716 2716 2785 2995 2995 3002 3055 3042 3055 3057 3060 3083 3123 3129 3129 3129 3127 3124 3124 3127 3131 3145 3158 3161 3161 3161 3109 3039 2971 2880 2854 2838 2836 2781 2742 0 0 0 0 0 0 0 0 0 0 0 0 0 0 0 0 0 0 0 0 0 0 0 0 0 0 0 0 0 0 0 3154 3255 3261 3284 3292 3330 3406 3439 3451 3454 3464 3472 3481 3484 3484 3484 3474 3470 3470 3470 3470 3470 3467 3446 3441 3332 3079 2901 0 0 0 2933 3223 3363 3464 3502 3566 3675 3719 3742 3793 3804 3832 3835 3876 3938 3976 4031 4031 4031 4017 3971 3860 3790 3472 3323 0 0 0 0 0 0 0 0 0 0 0 0 0 0 0 0 0 0 3099 3344 3850 3974 4088 4088 4088 4085 4075 4073 4071 4071 4069 4060 4047 4032 4013 3982 3915 3839 3398 0 0 0 0 0 0 0 0 0 0 1646 1618 1605 1605 1605 1606 1608 1611 1614 1618 1619 1621 1622 1624 1626 1627 1629 1632 1633 1635 1636 1638 1640 1643 1645 1647 1649 1650 1652 1654 1655 1656 1657 1657 1659 1660 1662 1662 1664 1666 1667 1667 1668 1670 1673 1676 1679 1679 1681 1682 1684 1684 1686 1690 1693 1696 1698 1700 1703 1707 1710 1713 1716 1719 1721 1724 1726 1728 1730 1732 1733 1733 1735 1738 1740 1743 1745 1746 1746 1747 1748 1752 1755 1755 1758 1761 1764 1764 1766 1767 1769 1772 1777 1778 1778 1779 1782 1785 1788 1793 1797 1798 1799 1803 1806 1808 1809 1812 1813 1817 1818 1821 1822 1825 1827 1830 1831 1832 1833 1836 1837 1840 1842 1843 1845 1846 1846 1846 1846 1846 1846 1850 1855 1858 1861 1864 1865 1869 1871 1873 1873 1874 1881 1888 1889 1891 1893 1897 1898 1902 1905 1909 1913 1918 1920 1932 1965 2001 2020 2020 2020 2018 2013 2010 2007 2005 2003 1999 1994 1988 1984 1979 1976 1973 1970 1968 1966 1962 1960 1957 1955 1951 1951 1951 1951 1949 1948 1947 1946 1945 1944 1942 1941 1940 1938 1936 1933 1931 1928 1925 1921 1917 1912 1907 1899 1888 1878 1869 1860 1852 1848 1844 1841 1840 1840 1840 1840 1840 1842 1844 1847 1849 1852 1855 1858 1863 1865 1867 1870 1871 1873 1874 1874 1874 1874 1874 1874 1874 1872 1871 1870 1870 1868 1867 1866 1864 1863 1862 1862 1860 1859 1859 1858 1857 1855 1853 1852 1850 1848 1845 1843 1839 1834 1830 1825 1822 1817 1814 1811 1809 1807 1807 1807 1809 1810 1812 1814 1819 1824 1827 1828 1828 1828 1830 1831 1832 1833 1833 1833 1833 1834 1834 1834 1834 1836 1837 1838 1839 1840 1842 1842 1843 1843 1844 1846 1850 1850 1854 1857 1862 1868 1876 1880 1883 1886 1888 1894 1897 1899 1900 1901 1901 1901 1901 1901 1901 1901 1902 1902 1902 1902 1902 1903 1903 1904 1905 1905 1906 1909 1910
0 0 0 0 0 0 0 0 0 0 0 0 0 0 0 0 0 0 0 0 0 0 0 0 0 2189 2198 2199 2199 2199 2195 2191 2189 2175 2152 0 2031 2031 2031 2050 2113 2130 2141 2145 2148 2152 2163 2177 2188 2192 2197 2200 2206 2207 2210 2217 2217 2217 2206 2187 2185 2185 2187 2192 2196 2196 2199 2200 2203 2213 2243 2258 2272 2297 2302 2304 2308 2326 2367 2367 0 0 0 0 0 0 0 0 0 0 0 0 0 0 0 0 0 0 0 0 0 2821 2916 2979 2987 3006 3006 3006 3006 3006 3041 3058 3059 3059 3058 3023 3006 3002 2999 3002 3006 3002 2999 3038 3038 3038 3060 3073 3073 3060 3063 3063 3063 3104 3123 3129 3129 3134 3134 3134 3138 3138 3138 3166 3182 3182 3182 3173 3153 3122 3069 3048 3036 3036 3036 3036 3050 3050 3010 2983 2937 0 0 0 0 0 0 0 0 0 0 0 0 0 0 0 0 0 0 0 0 0 0 0 0 0 0 0 0 0 0 3121 3189 3258 3299 3322 3335 3345 3375 3416 3462 3484 3484 3484 3471 3465 3458 3458 3458 3458 3451 3446 3441 3322 3008 2852 2832 0 0 3118 3324 3439 3462 3488 3545 3579 3640 3672 3726 3768 3788 3795 3815 3832 3836 3917 4000 4000 4000 3945 3848 3773 3472 3340 0 0 0 0 0 0 0 0 0 0 0 0 0 0 0 0 0 3052 3128 3510 3850 3974 4088 4088 4088 4083 4060 4056 4056 4054 4054 4050 4042 4026 4002 3970 3865 3701 2966 0 0 0 0 0 0 0 0 0 0 1639 1617 1605 1605 1605 1606 1608 1612 1616 1620 1620 1621 1623 1625 1626 1628 1630 1632 1633 1635 1636 1639 1640 1643 1645 1647 1650 1651 1653 1655 1656 1657 1658 1658 1659 1660 1662 1662 1664 1665 1666 1667 1668 1670 1674 1677 1681 1681 1681 1682 1684 1684 1686 1690 1693 1696 1697 1701 1704 1708 1711 1715 1716 1719 1721 1724 1727 1729 1731 1732 1733 1734 1735 1738 1740 1743 1745 1745 1746 1747 1747 1751 1754 1754 1756 1760 1763 1764 1766 1767 1770 1772 1777 1778 1778 1779 1783 1786 1789 1793 1797 1799 1799 1803 1806 1808 1811 1812 1814 1818 1819 1821 1823 1825 1828 1830 1830 1832 1833 1836 1837 1840 1842 1843 1845 1847 1847 1847 1846 1846 1846 1850 1855 1859 1861 1864 1865 1869 1871 1873 1874 1878 1885 1890 1890 1891 1894 1897 1900 1903 1906 1909 1913 1920 1921 1933 1965 2002 2019 2019 2019 2017 2010 2008 2005 2003 2000 1998 1992 1988 1982 1977 1974 1970 1967 1965 1964 1960 1957 1954 1951 1950 1949 1948 1948 1946 1946 1945 1943 1943 1941 1940 1939 1938 1936 1933 1930 1927 1925 1923 1919 1916 1911 1907 1900 1891 1880 1870 1862 1854 1848 1844 1841 1840 1838 1838 1838 1838 1838 1840 1843 1847 1847 1850 1854 1857 1861 1864 1867 1869 1870 1871 1871 1872 1872 1873 1872 1872 1871 1870 1869 1868 1866 1866 1864 1863 1862 1861 1861 1860 1859 1858 1857 1856 1855 1853 1852 1850 1848 1845 1843 1841 1835 1830 1827 1823 1818 1814 1812 1810 1807 1807 1807 1809 1810 1810 1813 1819 1821 1822 1824 1827 1828 1829 1830 1832 1832 1832 1833 1833 1834 1834 1834 1834 1835 1837 1837 1838 1839 1840 1840 1841 1841 1843 1846 1850 1850 1853 1856 1862 1869 1876 1880 1883 1886 1888 1894 1897 1899 1901 1901 1901 1901 1901 1901 1901 1901 1902 1902 1902 1903 1904 1904 1905 1906 1906 1907 1908 1909 1912
0 0 0 0 0 0 0 0 0 0 0 0 0 0 0 0 0 0 0 0 0 0 0 0 0 0 2198 2199 2199 2199 2185 2184 2183 2172 2152 2090 2016 2016 2016 2074 2117 2130 2134 2138 2143 2150 2161 2177 2188 2192 2197 2200 2206 2208 2213 2217 2217 2217 2205 2187 2185 2174 2173 2173 2173 2184 2191 2200 2205 2213 2243 2258 2276 2297 2302 2309 2325 2340 2390 0 0 0 0 0 0 0 0 0 0 0 0 0 0 0 0 0 0 0 0 0 0 2821 2916 2979 2987 3006 3006 3006 3006 3006 3041 3058 3059 3059 3058 3023 3023 3023 3067 3129 3158 3162 3174 3186 3186 3190 3190 3190 3153 3141 3137 3137 3137 3144 3183 3183 3183 3174 3171 3167 3156 3156 3156 3187 3187 3187 3183 3183 3159 3147 3114 3114 3114 3115 3142 3142 3142 3136 3133 3081 2953 2952 2937 2873 0 0 0 0 0 0 0 0 0 0 0 0 0 0 0 0 0 0 0 0 0 0 0 0 0 0 0 0 0 0 0 0 3121 3146 3160 3214 3285 3368 3412 3436 3446 3453 3453 3453 3453 3453 3446 3446 3441 3319 3008 2874 2874 2874 2953 3237 3396 3441 3459 3467 3508 3535 3591 3645 3695 3736 3739 3745 3756 3769 3796 3830 3844 3870 3870 3870 3802 3722 3472 3363 3362 0 0 0 0 0 0 0 0 0 0 0 3281 3447 3447 3447 3179 3179 3179 3598 3861 3974 4088 4088 4088 4074 4060 4033 4020 3999 3999 3999 3999 3999 3994 3922 3817 3453 2571 0 0 0 0 0 0 0 0 0 0 1622 1606 1606 1606 1606 1607 1609 1613 1616 1620 1620 1621 1623 1625 1627 1629 1631 1633 1634 1635 1637 1640 1642 1643 1646 1647 1650 1651 1653 1655 1656 1657 1658 1658 1660 1660 1662 1662 1664 1664 1666 1667 1669 1671 1674 1678 1681 1681 1681 1682 1683 1684 1686 1690 1693 1696 1697 1701 1706 1709 1713 1716 1717 1719 1721 1724 1727 1729 1731 1732 1733 1734 1736 1738 1741 1743 1745 1745 1746 1747 1747 1748 1752 1753 1755 1757 1760 1763 1765 1767 1772 1776 1778 1779 1779 1779 1785 1790 1793 1796 1800 1800 1801 1803 1806 1808 1811 1813 1815 1818 1819 1821 1822 1825 1828 1830 1830 1832 1833 1836 1837 1840 1842 1843 1844 1847 1847 1847 1847 1847 1848 1850 1855 1859 1861 1864 1865 1869 1871 1874 1877 1881 1885 1890 1891 1892 1896 1898 1901 1905 1906 1910 1914 1923 1923 1933 1965 2002 2018 2018 2018 2015 2009 2006 2002 2001 1999 1995 1989 1985 1980 1976 1972 1968 1966 1964 1961 1959 1955 1952 1951 1948 1947 1945 1945 1944 1943 1942 1942 1940 1939 1938 1937 1935 1933 1930 1929 1925 1924 1921 1918 1915 1911 1906 1901 1893 1883 1872 1864 1855 1849 1844 1841 1839 1837 1836 1836 1836 1836 1837 1839 1844 1845 1847 1849 1853 1857 1861 1863 1867 1869 1869 1869 1870 1871 1871 1871 1871 1870 1869 1868 1867 1866 1864 1863 1863 1861 1861 1860 1859 1858 1857 1857 1856 1854 1853 1852 1850 1848 1845 1843 1841 1837 1832 1828 1824 1819 1816 1814 1811 1808 1808 1808 1809 1810 1810 1812 1816 1819 1820 1822 1825 1827 1828 1830 1831 1831 1832 1832 1833 1833 1833 1834 1834 1835 1836 1836 1837 1838 1839 1839 1841 1841 1842 1846 1847 1850 1853 1856 1862 1869 1876 1880 1883 1886 1888 1894 1897 1899 1901 1901 1901 1901 1901 1901 1901 1901 1901 1901 1902 1903 1904 1905 1906 1907 1907 1908 1908 1909 1912
0 0 0 0 0 0 0 0 0 0 0 0 0 0 0 0 0 0 0 0 0 0 0 0 0 0 0 0 2182 2182 2182 2175 2172 2172 2141 2082 2052 2052 2052 2096 2124 2129 2130 2130 2133 2143 2157 2174 2188 2192 2196 2199 2205 2208 2213 2213 2213 2203 2192 2172 2158 2158 2158 2160 2163 2177 2186 2200 2203 2206 2228 2263 2281 2298 2304 2313 2337 2340 2340 0 0 0 0 0 0 0 0 0 0 0 0 0 0 0 0 0 0 0 0 0 0 2821 2844 2882 2963 3006 3006 3006 3006 3006 3035 3058 3059 3059 3058 3023 3023 3023 3067 3129 3174 3186 3207 3288 3373 3373 3373 3343 3318 3284 3282 3282 3282 3282 3269 3266 3239 3224 3219 3207 3191 3191 3191 3198 3198 3198 3198 3184 3184 3170 3149 3149 3149 3150 3150 3154 3154 3151 3149 3094 3065 3065 3065 3071 3079 3079 3079 2973 2973 2934 2934 0 0 0 0 0 0 0 0 0 0 0 0 0 0 0 0 0 0 0 0 0 0 0 0 0 0 0 0 0 3027 3077 3124 3173 3251 3341 3428 3432 3442 3442 3442 3442 3438 3302 2985 2889 2889 2889 3115 3301 3414 3414 3414 3437 3437 3437 3499 3592 3653 3673 3699 3715 3727 3759 3776 3784 3796 3818 3818 3818 3762 3722 3522 3493 3455 3395 0 0 0 0 0 0 0 0 0 3592 3592 3592 3542 3478 3441 3441 3441 3684 3861 3947 4048 4073 4073 4073 4049 4020 4020 3993 3987 3981 3954 3929 3890 3816 3723 3131 0 0 0 0 0 0 0 0 0 0 0 1621 1607 1607 1607 1608 1609 1610 1613 1617 1620 1620 1622 1623 1625 1628 1630 1631 1633 1634 1636 1638 1640 1642 1644 1646 1647 1650 1652 1653 1655 1656 1657 1658 1658 1660 1660 1662 1662 1664 1665 1666 1668 1670 1672 1674 1678 1681 1681 1681 1681 1683 1684 1688 1690 1694 1697 1697 1701 1706 1709 1713 1716 1718 1719 1722 1724 1727 1729 1731 1732 1733 1735 1736 1738 1740 1743 1746 1746 1746 1747 1747 1748 1751 1753 1755 1757 1760 1762 1764 1767 1772 1776 1780 1782 1786 1787 1788 1793 1794 1797 1800 1800 1802 1805 1806 1808 1811 1813 1815 1818 1819 1821 1822 1825 1827 1830 1830 1831 1833 1836 1837 1840 1841 1842 1844 1847 1847 1851 1851 1851 1851 1851 1855 1859 1865 1867 1868 1873 1874 1874 1878 1882 1885 1891 1892 1894 1896 1898 1902 1905 1907 1910 1914 1923 1934 1950 1973 2009 2017 2017 2017 2012 2007 2004 2001 1999 1996 1992 1987 1982 1978 1974 1970 1966 1963 1961 1959 1957 1953 1951 1948 1946 1945 1944 1942 1942 1941 1939 1938 1937 1936 1935 1934 1932 1931 1928 1926 1924 1922 1920 1917 1915 1910 1905 1901 1896 1886 1876 1865 1856 1849 1844 1841 1839 1837 1835 1834 1834 1834 1834 1835 1840 1842 1844 1845 1846 1851 1856 1861 1864 1867 1867 1867 1868 1868 1869 1869 1869 1868 1867 1866 1865 1864 1863 1862 1862 1861 1861 1859 1859 1858 1857 1856 1855 1854 1853 1852 1850 1848 1846 1843 1842 1839 1834 1830 1826 1822 1818 1816 1813 1810 1810 1810 1810 1810 1810 1811 1813 1816 1819 1821 1824 1826 1828 1830 1831 1831 1831 1832 1832 1833 1833 1833 1834 1834 1835 1835 1836 1837 1838 1839 1840 1841 1841 1845 1846 1850 1852 1856 1862 1869 1876 1879 1883 1885 1888 1894 1897 1899 1901 1902 1902 1902 1902 1901 1901 1901 1901 1901 1902 1904 1905 1906 1906 1908 1908 1908 1908 1908 1912
0 0 0 0 0 0 0 0 0 0 0 0 0 0 0 0 0 0 0 0 0 0 0 0 0 0 0 0 0 2168 2168 2168 2147 2146 2141 2050 2050 2050 2064 2114 2124 2125 2125 2125 2133 2143 2157 2174 2179 2181 2189 2199 2205 2208 2208 2208 2207 2200 2179 2153 2149 2149 2149 2149 2160 2177 2186 2197 2200 2200 2228 2263 2281 2304 2316 2324 2337 2340 0 0 0 0 0 0 0 0 0 0 0 0 0 0 0 0 0 0 0 0 0 0 0 0 2779 2811 2833 2869 2914 2942 2951 2961 2981 2981 2981 2972 2972 2972 2981 3020 3067 3129 3174 3186 3207 3288 3373 3378 3397 3406 3408 3410 3416 3422 3423 3423 3423 3365 3357 3357 3357 3373 3373 3373 3286 3267 3263 3241 3238 3223 3210 3205 3180 3176 3173 3172 3171 3163 3156 3151 3149 3137 3121 3114 3102 3096 3096 3096 3099 3135 3157 3157 3157 3156 3126 3117 3074 0 0 0 0 0 0 0 0 0 0 0 0 0 0 0 0 0 0 0 0 0 0 0 0 0 0 0 0 0 2989 3089 3196 3349 3405 3406 3438 3438 3438 3302 2985 2960 2960 2960 3195 3342 3422 3422 3422 3352 3352 3352 3392 3476 3550 3618 3662 3686 3702 3729 3753 3773 3787 3787 3787 3786 3762 3722 3660 3552 3536 3501 3368 0 0 0 0 0 0 0 0 3592 3592 3592 3570 3570 3570 3631 3672 3748 3854 3866 3936 4042 4042 4042 4030 4020 4008 3993 3987 3981 3954 3901 3837 3763 3418 2651 0 0 0 0 0 0 0 0 0 0 0 1620 1611 1609 1609 1609 1610 1610 1614 1618 1620 1620 1622 1623 1625 1628 1630 1632 1633 1636 1637 1639 1640 1642 1644 1646 1647 1650 1652 1653 1655 1656 1657 1658 1659 1660 1661 1662 1663 1665 1665 1667 1669 1670 1672 1675 1679 1681 1681 1681 1681 1684 1686 1688 1690 1694 1697 1698 1704 1707 1710 1715 1716 1718 1720 1722 1725 1727 1729 1731 1733 1734 1736 1737 1738 1740 1743 1746 1746 1746 1747 1747 1748 1751 1753 1755 1757 1760 1762 1764 1767 1772 1776 1781 1783 1787 1790 1792 1793 1795 1798 1800 1803 1803 1805 1806 1808 1810 1813 1815 1817 1818 1820 1820 1823 1824 1825 1826 1829 1833 1836 1836 1839 1841 1842 1844 1846 1847 1851 1852 1852 1853 1855 1855 1859 1865 1868 1869 1873 1876 1878 1882 1883 1885 1891 1892 1894 1896 1898 1902 1905 1907 1911 1917 1923 1934 1955 1987 2009 2012 2012 2012 2008 2005 2003 2000 1997 1994 1991 1986 1982 1976 1973 1968 1964 1961 1959 1957 1954 1952 1949 1946 1944 1942 1941 1940 1939 1938 1936 1935 1934 1933 1932 1930 1929 1927 1926 1924 1922 1920 1919 1916 1914 1910 1905 1901 1896 1890 1879 1868 1857 1849 1842 1839 1837 1834 1832 1831 1831 1831 1831 1831 1835 1838 1840 1842 1842 1846 1851 1857 1862 1864 1864 1866 1866 1867 1867 1867 1867 1867 1866 1864 1864 1863 1862 1862 1861 1860 1860 1859 1858 1857 1857 1855 1855 1854 1853 1852 1850 1848 1846 1844 1842 1840 1836 1834 1828 1824 1820 1818 1815 1812 1810 1810 1810 1810 1810 1810 1811 1815 1817 1818 1822 1826 1827 1829 1831 1831 1831 1831 1832 1833 1833 1833 1833 1834 1834 1834 1835 1836 1837 1839 1840 1840 1841 1844 1846 1849 1851 1854 1859 1867 1873 1879 1879 1882 1885 1891 1894 1899 1901 1901 1901 1902 1902 1902 1901 1901 1901 1901 1902 1904 1905 1906 1907 1908 1908 1908 1908 1908 1910
0 0 0 0 0 0 0 0 0 0 0 0 0 0 0 0 0 0 0 0 0 0 0 0 0 0 0 0 0 0 2130 2130 2130 0 0 2020 2020 2020 2065 2116 2121 2124 2125 2125 2133 2143 2157 2174 2179 2181 2189 2197 2204 2204 2205 2205 2204 2200 2179 2152 2146 2146 2148 2148 2160 2177 2186 2192 2200 2201 2228 2276 2291 2313 2323 2323 2323 2320 0 0 0 0 0 0 0 0 0 0 0 0 0 0 0 0 0 0 0 0 0 0 0 0 0 2746 2768 2801 2831 2854 2871 2884 2911 2911 2911 2909 2909 2909 2912 2936 2987 3055 3097 3148 3207 3288 3373 3378 3397 3406 3408 3410 3416 3422 3443 3456 3459 3460 3485 3495 3503 3533 3549 3549 3549 3485 3414 3362 3341 3333 3317 3298 3277 3230 3207 3193 3174 3167 3164 3164 3167 3167 3161 3144 3118 3104 3104 3104 3110 3135 3170 3170 3170 3156 3136 3125 3113 3092 3051 3041 3021 2968 2865 0 0 0 0 0 0 0 0 0 0 0 0 0 0 0 0 0 0 0 0 0 0 0 0 0 0 3115 3236 3362 3362 3362 3279 3217 3014 3014 3014 3078 3315 3405 3405 3405 3391 3290 3290 3290 3302 3352 3396 3465 3567 3652 3674 3697 3739 3770 3784 3786 3786 3786 3762 3742 3723 3647 3560 3511 3399 3268 0 0 0 0 0 0 0 3592 3592 3592 3570 3570 3570 3631 3672 3748 3851 3853 3854 3904 3925 3936 4002 4005 4005 4002 4000 3981 3954 3901 3837 3667 3120 0 0 0 0 0 0 0 0 0 0 0 1637 1613 1612 1611 1611 1612 1612 1613 1616 1618 1620 1620 1622 1624 1626 1628 1631 1632 1634 1636 1637 1639 1640 1642 1644 1646 1648 1650 1653 1654 1655 1656 1657 1658 1659 1661 1662 1663 1664 1665 1668 1668 1669 1670 1673 1677 1680 1681 1681 1681 1681 1685 1687 1688 1690 1695 1697 1700 1705 1710 1713 1715 1717 1719 1720 1723 1725 1727 1730 1732 1733 1734 1736 1738 1740 1741 1743 1746 1746 1746 1747 1747 1748 1752 1755 1755 1757 1760 1762 1764 1767 1772 1776 1783 1786 1787 1791 1794 1795 1796 1798 1801 1803 1804 1806 1807 1808 1810 1811 1814 1816 1817 1817 1819 1820 1823 1825 1826 1828 1830 1834 1836 1839 1842 1843 1844 1848 1848 1851 1853 1853 1855 1857 1858 1860 1865 1868 1869 1873 1876 1878 1882 1883 1885 1891 1891 1893 1895 1898 1902 1903 1907 1912 1917 1923 1935 1956 1988 2009 2009 2009 2007 2005 2004 2002 1998 1996 1993 1990 1985 1980 1975 1971 1967 1963 1959 1956 1953 1951 1949 1946 1944 1942 1940 1939 1937 1936 1934 1933 1931 1931 1930 1929 1927 1926 1924 1923 1921 1920 1917 1916 1915 1911 1909 1905 1900 1896 1890 1881 1869 1859 1849 1842 1838 1833 1831 1829 1829 1828 1828 1828 1828 1830 1834 1838 1839 1840 1843 1848 1853 1856 1859 1862 1863 1865 1865 1865 1865 1865 1865 1864 1863 1862 1861 1861 1861 1860 1859 1858 1857 1857 1856 1856 1855 1854 1854 1853 1852 1850 1849 1846 1845 1842 1841 1838 1835 1830 1825 1823 1819 1816 1813 1810 1810 1810 1809 1809 1809 1811 1813 1814 1817 1822 1825 1825 1827 1830 1831 1831 1831 1831 1832 1832 1832 1833 1833 1833 1834 1834 1836 1836 1839 1840 1840 1841 1844 1845 1849 1850 1852 1858 1865 1870 1872 1877 1879 1885 1891 1894 1897 1900 1901 1902 1902 1902 1902 1902 1902 1902 1902 1904 1904 1905 1906 1907 1908 1908 1908 1908 1908 1910
0 0 0 0 0 0 0 0 0 0 0 0 0 0 0 0 0 0 0 0 0 0 0 0 0 0 0 0 0 0 0 0 0 0 0 2034 2034 2034 2081 2116 2120 2121 2125 2125 2133 2145 2157 2176 2179 2181 2189 2197 2204 2204 2205 2205 2204 2200 2179 2152 2146 2146 2148 2148 2165 2195 2195 2197 2201 2206 2254 2285 2299 2315 2323 2323 2323 2302 0 0 0 0 0 0 0 0 0 0 0 0 0 0 0 0 0 0 0 0 0 0 0 0 0 0 0 0 0 0 0 2823 2855 2855 2855 2857 2857 2857 2862 2888 2925 2980 3020 3064 3095 3105 3191 3268 3367 3406 3408 3410 3416 3422 3443 3456 3485 3495 3500 3514 3518 3551 3572 3574 3576 3574 3574 3572 3545 3506 3468 3456 3452 3447 3420 3340 3238 3223 3201 3200 3200 3186 3177 3176 3131 3125 3125 3125 3140 3149 3175 3175 3175 3175 3167 3130 3130 3130 3130 3130 3121 3064 2993 2993 2932 2906 0 0 0 0 0 0 0 0 0 0 0 0 0 0 0 0 0 0 0 0 0 0 0 3099 3236 3262 3262 3262 3225 3201 3165 3165 3165 3221 3372 3402 3402 3402 3345 3241 3226 3220 3220 3226 3275 3336 3425 3486 3534 3575 3710 3766 3783 3786 3786 3786 3766 3742 3723 3693 3670 3601 3493 3378 3227 0 0 0 0 0 0 0 3330 3334 3399 3497 3570 3631 3672 3748 3818 3831 3853 3857 3869 3876 3909 3979 4000 4000 4000 3981 3954 3895 3822 3590 2641 0 0 0 0 0 0 0 0 0 0 0 1625 1611 1611 1611 1611 1612 1612 1615 1617 1619 1620 1620 1623 1624 1626 1629 1631 1632 1635 1636 1638 1639 1640 1643 1644 1646 1648 1651 1653 1654 1656 1656 1657 1658 1659 1661 1662 1663 1666 1668 1668 1668 1669 1671 1673 1677 1680 1681 1681 1681 1684 1685 1687 1688 1690 1695 1699 1701 1707 1710 1713 1715 1717 1719 1721 1723 1725 1727 1730 1732 1733 1735 1736 1738 1740 1741 1744 1747 1747 1747 1748 1748 1749 1752 1755 1757 1758 1760 1764 1766 1767 1772 1776 1786 1787 1791 1793 1794 1796 1798 1799 1801 1804 1805 1806 1808 1810 1810 1811 1813 1814 1816 1817 1819 1820 1823 1825 1825 1825 1829 1833 1836 1840 1842 1843 1845 1848 1848 1852 1855 1855 1857 1858 1860 1861 1865 1868 1869 1873 1876 1878 1882 1884 1888 1891 1892 1894 1896 1898 1900 1903 1907 1913 1917 1923 1936 1957 1989 2007 2007 2007 2007 2004 2002 2001 1997 1993 1991 1987 1982 1978 1972 1968 1965 1960 1957 1954 1951 1949 1947 1944 1941 1939 1939 1937 1936 1934 1932 1931 1929 1928 1928 1926 1925 1923 1921 1920 1918 1916 1915 1914 1911 1909 1906 1903 1900 1895 1890 1882 1871 1859 1849 1842 1838 1833 1828 1827 1826 1826 1826 1826 1827 1827 1830 1833 1835 1838 1842 1847 1850 1854 1856 1857 1860 1862 1862 1862 1862 1863 1862 1862 1862 1861 1861 1860 1859 1859 1858 1857 1857 1856 1855 1855 1855 1853 1853 1853 1852 1850 1849 1846 1845 1843 1841 1838 1835 1832 1827 1824 1820 1817 1814 1811 1810 1810 1809 1809 1809 1809 1810 1812 1817 1821 1824 1824 1826 1828 1829 1830 1831 1831 1831 1832 1832 1832 1832 1832 1833 1834 1836 1836 1838 1839 1839 1841 1844 1845 1849 1849 1850 1856 1862 1866 1870 1874 1879 1885 1891 1894 1897 1900 1901 1902 1902 1902 1903 1903 1903 1903 1903 1904 1905 1906 1907 1907 1907 1907 1907 1907 1907 1909
0 0 0 0 0 0 0 0 0 0 0 0 0 0 0 0 0 0 0 0 0 0 0 0 0 0 0 0 0 0 0 0 0 0 0 0 2005 2057 2107 2116 2120 2121 2129 2132 2140 2146 2157 2176 2184 2187 2190 2197 2204 2204 2205 2205 2204 2200 2179 2155 2149 2149 2149 2149 2180 2201 2201 2204 2207 2243 2273 2288 2304 2315 2315 2315 2312 2302 0 0 0 0 0 0 0 0 0 0 0 0 0 0 0 0 0 0 0 0 0 0 0 0 0 0 0 0 0 0 0 0 0 0 0 0 0 0 0 0 0 0 0 0 0 0 0 0 3173 3245 3300 3375 3389 3419 3425 3451 3485 3495 3500 3514 3518 3551 3572 3574 3576 3591 3591 3591 3586 3565 3537 3520 3520 3520 3509 3509 3498 3462 3424 3305 3278 3243 3221 3187 3143 3143 3143 3164 3171 3182 3192 3192 3192 3175 3167 3154 3154 3154 3183 3183 3183 3127 3077 3053 3053 3023 3019 0 0 0 0 0 0 0 0 0 0 0 0 0 0 0 0 0 0 0 0 0 0 3099 3233 3256 3256 3256 3222 3203 3203 3203 3261 3344 3372 3377 3377 3377 3300 3219 3185 3185 3185 3204 3241 3281 3284 3298 3317 3324 3415 3607 3681 3770 3770 3770 3766 3742 3723 3693 3670 3637 3600 3468 3303 3096 0 0 0 0 0 0 0 0 0 0 3252 3444 3530 3671 3831 3831 3831 3831 3831 3838 3842 3888 3991 3991 3991 3981 3954 3895 3804 3144 0 0 2326 2306 2297 0 0 0 0 0 0 0 1613 1611 1611 1611 1611 1612 1612 1617 1619 1619 1620 1622 1623 1625 1627 1629 1632 1635 1636 1636 1638 1639 1641 1643 1644 1646 1648 1651 1653 1654 1655 1658 1659 1659 1660 1662 1663 1665 1667 1669 1669 1669 1670 1671 1674 1678 1680 1681 1681 1682 1684 1686 1688 1689 1691 1698 1699 1703 1707 1710 1713 1715 1717 1719 1721 1723 1725 1728 1730 1732 1734 1735 1736 1738 1740 1743 1746 1747 1747 1748 1748 1748 1749 1753 1759 1762 1762 1763 1767 1767 1772 1776 1781 1788 1792 1793 1794 1795 1798 1800 1801 1802 1804 1805 1806 1808 1810 1810 1811 1812 1813 1814 1816 1816 1819 1821 1823 1823 1825 1829 1833 1837 1840 1842 1844 1846 1846 1846 1852 1855 1858 1859 1859 1861 1861 1865 1868 1869 1873 1876 1878 1882 1884 1888 1891 1893 1895 1896 1898 1900 1903 1907 1913 1917 1923 1936 1967 1998 2006 2006 2006 2006 2003 1999 1995 1994 1991 1988 1985 1980 1974 1970 1966 1962 1958 1955 1952 1949 1947 1944 1941 1939 1938 1936 1935 1933 1932 1929 1929 1927 1927 1925 1924 1922 1921 1919 1917 1916 1914 1912 1910 1908 1906 1904 1902 1898 1895 1889 1882 1872 1860 1850 1843 1838 1833 1828 1826 1824 1824 1824 1825 1826 1826 1826 1827 1829 1833 1839 1844 1846 1850 1850 1853 1857 1859 1860 1860 1860 1860 1860 1860 1860 1860 1859 1859 1859 1858 1857 1856 1856 1856 1855 1855 1854 1853 1853 1851 1851 1850 1849 1847 1845 1843 1841 1839 1837 1835 1829 1825 1821 1817 1814 1812 1811 1809 1809 1809 1809 1809 1809 1812 1816 1821 1823 1824 1824 1826 1826 1829 1831 1831 1831 1831 1831 1831 1831 1831 1832 1833 1835 1836 1837 1837 1838 1839 1841 1845 1848 1849 1850 1856 1861 1865 1867 1871 1879 1886 1891 1894 1897 1900 1901 1902 1903 1904 1904 1904 1904 1904 1904 1904 1905 1906 1907 1907 1907 1906 1906 1906 1906 1908
0 0 0 0 0 0 0 0 0 0 0 0 0 0 0 0 0 0 0 0 0 0 0 0 0 0 0 0 0 0 0 0 0 0 0 0 2021 2089 2107 2116 2120 2129 2135 2140 2144 2146 2157 2176 2184 2192 2196 2204 2208 2208 2210 2210 2210 2210 2210 2181 2181 2181 2187 2194 2196 2205 2206 2213 2241 2271 2274 2289 2312 2315 2315 2315 2309 0 0 0 0 0 0 0 0 0 0 0 0 0 0 0 0 0 0 0 0 0 0 0 0 0 0 0 0 0 0 0 0 0 0 0 0 0 0 0 0 0 0 0 0 0 0 0 0 0 0 0 3178 3306 3365 3385 3421 3427 3452 3486 3500 3514 3518 3551 3566 3574 3576 3591 3591 3591 3586 3572 3548 3543 3526 3526 3526 3539 3546 3546 3539 3524 3511 3428 3412 3387 3179 3179 3179 3211 3247 3281 3281 3281 3249 3207 3179 3157 3157 3157 3217 3217 3217 3166 3127 3127 3127 3139 3142 3142 3142 3063 2996 2971 2951 0 0 0 0 0 0 0 0 0 0 0 0 0 0 0 2956 3099 3192 3239 3239 3239 3214 3214 3214 3218 3286 3344 3372 3372 3372 3348 3261 3208 3185 3185 3185 3202 3233 3265 3265 3272 3272 3279 3304 3369 3435 3519 3732 3732 3732 3717 3696 3693 3670 3637 3600 3546 3394 3184 0 0 0 0 0 0 0 0 0 0 0 3231 3347 3671 3851 3851 3851 3827 3827 3827 3827 3860 3870 3969 3969 3969 3913 3812 3409 2536 0 2334 2326 2306 2297 2268 0 0 0 0 0 1630 1613 1611 1611 1611 1611 1611 1613 1618 1619 1620 1621 1622 1624 1625 1627 1629 1633 1636 1636 1637 1640 1641 1643 1644 1644 1646 1648 1651 1653 1654 1656 1658 1659 1660 1660 1662 1665 1666 1667 1669 1670 1670 1671 1674 1677 1679 1681 1681 1681 1682 1684 1686 1688 1690 1695 1699 1701 1703 1708 1710 1713 1715 1717 1719 1721 1723 1725 1728 1730 1732 1734 1735 1736 1738 1740 1743 1746 1748 1748 1749 1749 1749 1752 1756 1761 1764 1766 1767 1771 1774 1776 1777 1782 1788 1792 1794 1795 1797 1799 1800 1802 1803 1804 1806 1806 1808 1810 1810 1811 1812 1812 1812 1813 1817 1818 1820 1822 1823 1825 1829 1833 1837 1840 1842 1844 1846 1846 1846 1852 1855 1858 1860 1860 1862 1865 1868 1868 1869 1873 1876 1878 1882 1884 1888 1891 1892 1895 1896 1898 1900 1903 1907 1914 1917 1923 1945 1970 1999 2006 2006 2006 2004 2000 1996 1994 1992 1988 1985 1982 1978 1972 1968 1962 1959 1955 1952 1949 1947 1944 1942 1940 1938 1936 1934 1932 1931 1929 1928 1927 1926 1924 1923 1922 1920 1918 1917 1916 1913 1911 1910 1908 1906 1903 1901 1899 1896 1893 1887 1882 1872 1861 1851 1843 1838 1833 1828 1825 1823 1823 1823 1823 1824 1824 1824 1824 1825 1828 1832 1838 1843 1844 1847 1850 1853 1857 1858 1859 1859 1859 1859 1859 1859 1859 1859 1858 1858 1858 1857 1855 1855 1854 1854 1853 1853 1853 1852 1851 1850 1850 1849 1847 1846 1844 1842 1839 1838 1835 1831 1826 1823 1819 1816 1813 1811 1809 1808 1808 1808 1808 1809 1811 1815 1820 1822 1823 1823 1824 1825 1828 1830 1830 1830 1830 1830 1830 1830 1831 1831 1831 1833 1835 1835 1836 1837 1839 1841 1844 1846 1848 1850 1855 1860 1864 1867 1871 1878 1886 1891 1894 1897 1900 1901 1902 1903 1904 1904 1905 1905 1905 1905 1906 1907 1907 1908 1908 1907 1906 1906 1906 1906 1908
0 0 0 0 0 0 0 0 0 0 0 0 0 0 0 0 0 0 0 0 0 0 0 0 0 0 0 0 0 0 0 0 0 0 0 0 2040 2091 2107 2114 2121 2131 2136 2140 2144 2145 2153 2175 2184 2192 2197 2204 2210 2219 2223 2226 2226 2229 2229 2230 2235 2239 2252 2268 2268 2274 2276 2276 2278 2282 2284 2289 2312 2312 2312 2307 2307 0 0 0 0 0 0 0 0 0 0 0 0 0 0 0 0 0 0 0 0 0 0 0 0 0 0 0 0 0 0 0 0 0 0 0 0 0 0 0 0 0 0 0 0 0 0 0 0 0 0 0 0 3165 3260 3377 3416 3419 3443 3467 3477 3478 3481 3482 3520 3555 3559 3575 3586 3586 3586 3572 3567 3556 3556 3548 3546 3546 3546 3560 3563 3563 3560 3550 3546 3461 3418 3386 3386 3386 3454 3490 3509 3518 3518 3518 3466 3417 3311 3311 3273 3249 3245 3210 3154 3139 3139 3139 3142 3142 3142 3074 3002 3002 3002 2981 2981 0 0 0 0 0 0 0 0 0 0 0 2920 3029 3070 3192 3219 3239 3239 3239 3214 3214 3214 3221 3292 3344 3365 3365 3365 3315 3242 3206 3177 3177 3177 3202 3220 3228 3253 3254 3257 3257 3257 3265 3296 3360 3440 3567 3644 3672 3672 3672 3653 3637 3600 3546 3394 3238 3187 3120 3118 0 0 0 0 0 0 0 0 2927 3299 3653 3842 3842 3842 3831 3813 3755 3739 3739 3739 3826 3833 3833 3833 3536 2685 0 0 0 2312 2305 2297 0 0 0 0 0 0 1625 1613 1610 1610 1610 1611 1611 1614 1618 1620 1620 1621 1623 1624 1626 1628 1630 1633 1636 1637 1639 1642 1645 1645 1645 1646 1646 1649 1651 1653 1655 1656 1658 1660 1660 1660 1662 1666 1666 1668 1669 1672 1675 1678 1679 1680 1680 1681 1682 1682 1684 1686 1687 1689 1694 1696 1699 1701 1703 1707 1710 1713 1715 1717 1718 1721 1723 1726 1728 1730 1732 1734 1735 1736 1737 1739 1743 1746 1750 1750 1750 1752 1754 1756 1760 1763 1767 1769 1769 1772 1775 1777 1779 1784 1788 1792 1794 1795 1797 1800 1801 1802 1803 1805 1806 1806 1808 1810 1810 1812 1812 1812 1812 1813 1817 1818 1819 1821 1823 1825 1829 1833 1837 1843 1844 1844 1846 1846 1846 1852 1855 1858 1860 1861 1862 1867 1870 1872 1874 1875 1879 1881 1882 1885 1888 1891 1892 1895 1896 1898 1901 1903 1909 1913 1916 1927 1953 1977 2000 2004 2004 2004 1999 1995 1994 1992 1990 1986 1983 1979 1975 1971 1967 1962 1958 1955 1951 1948 1945 1943 1940 1937 1935 1934 1932 1931 1929 1927 1926 1924 1923 1922 1920 1920 1918 1916 1915 1914 1912 1909 1907 1905 1904 1902 1900 1897 1894 1889 1885 1881 1872 1861 1852 1845 1839 1833 1827 1824 1823 1822 1822 1822 1822 1822 1822 1822 1823 1825 1828 1832 1836 1838 1841 1845 1850 1852 1856 1857 1857 1857 1857 1857 1858 1858 1858 1858 1857 1857 1856 1855 1854 1854 1853 1853 1853 1852 1852 1851 1850 1850 1849 1847 1846 1844 1842 1840 1838 1835 1832 1828 1824 1821 1817 1814 1811 1809 1807 1807 1807 1807 1807 1810 1815 1819 1820 1822 1822 1824 1825 1828 1830 1830 1830 1829 1829 1829 1830 1830 1830 1830 1831 1832 1833 1834 1836 1839 1840 1842 1843 1847 1850 1855 1859 1863 1866 1870 1878 1886 1891 1894 1897 1899 1900 1902 1903 1904 1904 1905 1905 1905 1906 1907 1908 1908 1908 1908 1908 1906 1906 1906 1906 1908
0 0 0 0 0 0 0 0 0 0 0 0 0 0 0 0 0 0 0 0 0 0 0 0 0 0 0 0 0 0 0 0 0 0 0 0 2047 2093 2105 2113 2121 2131 2136 2137 2140 2144 2151 2175 2182 2192 2199 2207 2214 2220 2227 2232 2237 2242 2249 2249 2250 2252 2252 2268 2283 2305 2305 2305 2285 2285 2285 2299 2311 2311 2311 2304 0 0 0 0 0 0 0 0 0 0 0 0 0 0 0 0 0 0 0 0 0 0 0 0 0 0 0 0 0 0 0 0 0 0 0 0 0 0 0 0 0 0 0 0 0 0 0 0 0 0 0 0 0 0 0 3364 3368 3404 3436 3463 3476 3477 3477 3477 3477 3486 3525 3568 3582 3582 3582 3572 3567 3563 3558 3557 3554 3554 3554 3560 3563 3563 3560 3550 3546 3535 3534 3502 3499 3499 3502 3546 3577 3641 3641 3641 3618 3614 3612 3610 3585 3464 3396 3258 3169 3139 3139 3139 3142 3142 3142 3094 3021 3021 3021 3047 3098 3098 3098 0 0 0 0 0 3072 3072 3072 3072 3072 3133 3201 3204 3219 3219 3204 3191 3191 3191 3191 3225 3292 3342 3342 3342 3327 3281 3214 3190 3185 3185 3185 3204 3211 3215 3226 3246 3246 3247 3248 3264 3281 3308 3321 3349 3410 3469 3511 3569 3577 3577 3577 3546 3394 3238 3229 3202 3177 3130 0 0 0 0 0 0 2682 2927 3299 3671 3823 3827 3827 3823 3813 3755 3739 3704 3704 3704 3704 3691 3691 3203 2506 0 0 0 0 0 0 0 0 0 0 0 0 1625 1611 1609 1609 1609 1610 1611 1615 1619 1620 1620 1622 1624 1625 1626 1628 1631 1634 1637 1638 1639 1642 1645 1648 1649 1649 1650 1650 1651 1653 1655 1657 1659 1660 1661 1662 1665 1666 1667 1669 1673 1675 1679 1680 1681 1682 1684 1686 1686 1687 1688 1688 1690 1693 1697 1698 1700 1701 1703 1707 1710 1712 1714 1716 1718 1721 1723 1726 1728 1730 1732 1734 1735 1736 1737 1739 1743 1746 1750 1753 1753 1756 1757 1759 1760 1764 1768 1770 1770 1773 1776 1778 1780 1785 1789 1792 1795 1797 1798 1800 1802 1802 1804 1805 1806 1807 1808 1810 1811 1812 1812 1812 1812 1813 1815 1817 1819 1820 1823 1825 1828 1833 1837 1843 1844 1845 1846 1846 1846 1852 1855 1858 1860 1862 1865 1869 1870 1873 1874 1877 1879 1881 1882 1885 1888 1891 1892 1895 1897 1899 1902 1905 1912 1913 1917 1927 1957 1981 2000 2000 2000 1999 1992 1992 1991 1991 1988 1985 1981 1977 1974 1970 1966 1961 1956 1953 1950 1946 1943 1941 1939 1936 1934 1932 1930 1929 1927 1925 1924 1922 1921 1920 1918 1917 1915 1914 1912 1910 1909 1907 1906 1904 1902 1900 1898 1896 1892 1888 1883 1879 1872 1864 1853 1846 1839 1833 1827 1824 1823 1822 1821 1820 1820 1820 1820 1820 1821 1823 1824 1827 1831 1833 1834 1837 1841 1847 1852 1855 1855 1856 1856 1856 1856 1857 1857 1856 1856 1856 1855 1854 1854 1853 1853 1852 1852 1852 1851 1851 1850 1849 1848 1847 1846 1844 1842 1840 1838 1836 1833 1830 1826 1822 1817 1814 1812 1809 1807 1807 1807 1807 1807 1808 1811 1817 1819 1821 1822 1823 1825 1828 1829 1829 1829 1829 1828 1828 1828 1828 1829 1829 1829 1830 1832 1833 1835 1837 1839 1840 1841 1845 1850 1855 1859 1862 1866 1870 1877 1885 1890 1894 1896 1899 1899 1900 1901 1903 1904 1905 1907 1908 1908 1908 1909 1910 1910 1910 1910 1908 1906 1906 1906 1911
0 0 0 0 0 0 0 0 0 0 0 0 0 0 0 0 0 0 0 0 0 0 0 0 0 0 0 0 0 0 0 0 0 0 0 0 2071 2096 2105 2113 2121 2131 2136 2137 2137 2140 2151 2174 2180 2190 2200 2207 2214 2220 2228 2235 2241 2251 2253 2253 2256 2256 2256 2269 2283 2305 2305 2305 2285 2285 2285 2299 2310 2310 2310 0 0 0 0 0 0 0 0 0 0 0 0 0 0 0 0 0 0 0 0 0 0 0 0 0 0 0 0 0 0 0 0 0 0 0 0 0 0 0 0 0 0 0 0 0 0 0 0 0 0 0 0 0 0 0 0 3256 3268 3371 3406 3455 3472 3472 3472 3472 3472 3485 3495 3516 3555 3567 3567 3567 3563 3563 3556 3556 3554 3539 3539 3554 3560 3560 3560 3550 3546 3546 3546 3552 3552 3552 3552 3552 3577 3641 3641 3641 3618 3614 3612 3610 3599 3526 3478 3321 3265 3139 3139 3139 3142 3142 3142 3094 3049 3049 3049 3106 3184 3207 3207 3207 3201 3191 3176 3154 3150 3150 3153 3153 3165 3184 3197 3201 3219 3219 3197 3191 3191 3191 3216 3248 3286 3338 3338 3338 3309 3219 3184 3166 3166 3166 3196 3204 3210 3211 3214 3222 3236 3246 3246 3264 3272 3272 3278 3285 3285 3287 3319 3390 3424 3424 3424 3419 3367 3238 3233 3221 3214 3188 3188 3188 3188 3188 2847 2847 2847 2927 3299 3682 3831 3831 3831 3831 3829 3827 3739 3704 3704 3629 3629 3610 3497 3203 2506 0 0 0 0 0 0 0 0 0 0 0 0 1621 1611 1610 1610 1610 1611 1611 1617 1619 1620 1621 1622 1624 1626 1627 1629 1632 1634 1637 1641 1641 1643 1645 1648 1649 1650 1651 1652 1654 1655 1655 1657 1659 1661 1662 1664 1666 1667 1670 1673 1677 1679 1679 1682 1682 1683 1684 1686 1687 1689 1689 1692 1694 1696 1697 1699 1700 1701 1704 1707 1710 1712 1714 1715 1718 1721 1723 1726 1728 1730 1732 1734 1735 1736 1737 1739 1743 1746 1750 1753 1754 1756 1757 1759 1761 1766 1768 1770 1772 1775 1778 1778 1780 1785 1789 1792 1795 1797 1798 1800 1802 1803 1804 1806 1807 1808 1809 1810 1811 1812 1812 1812 1812 1813 1815 1816 1818 1820 1822 1825 1828 1831 1835 1843 1844 1845 1846 1846 1846 1852 1855 1858 1861 1864 1866 1869 1871 1873 1875 1877 1880 1881 1883 1885 1888 1890 1892 1894 1897 1901 1903 1908 1912 1913 1919 1927 1957 1983 1999 1999 1999 1995 1992 1991 1990 1988 1987 1984 1979 1975 1972 1968 1965 1960 1956 1952 1949 1946 1941 1939 1937 1935 1934 1931 1929 1928 1926 1924 1922 1921 1919 1918 1916 1915 1913 1911 1910 1908 1907 1905 1903 1902 1900 1898 1896 1894 1891 1887 1882 1878 1872 1865 1854 1847 1839 1833 1827 1824 1822 1822 1821 1820 1818 1818 1818 1818 1819 1821 1821 1823 1824 1828 1831 1832 1836 1841 1846 1849 1852 1852 1853 1854 1855 1856 1856 1856 1855 1855 1854 1854 1853 1852 1852 1852 1851 1851 1851 1850 1850 1849 1848 1847 1846 1844 1842 1840 1838 1836 1834 1830 1827 1822 1818 1814 1812 1809 1807 1807 1807 1807 1807 1807 1811 1814 1818 1820 1821 1822 1824 1827 1828 1829 1829 1829 1828 1828 1828 1828 1828 1828 1829 1830 1831 1832 1834 1835 1838 1839 1840 1843 1849 1853 1856 1861 1866 1870 1874 1880 1886 1891 1895 1896 1898 1898 1900 1902 1904 1905 1907 1908 1908 1909 1910 1911 1911 1911 1910 1910 1909 1909 1909 1916
0 0 0 0 0 0 0 0 0 0 0 0 0 0 0 0 0 0 0 0 0 0 0 0 0 0 0 0 0 0 0 0 0 0 0 2061 2078 2105 2107 2113 2119 2126 2130 2133 2137 2139 2151 2172 2180 2190 2203 2207 2214 2220 2228 2235 2241 2251 2255 2258 2258 2258 2259 2269 2283 0 0 0 2285 2285 2285 0 0 0 0 0 0 0 0 0 0 0 0 0 0 0 0 0 0 0 0 0 0 0 0 0 0 0 0 0 0 0 0 0 0 0 0 0 0 0 0 0 0 0 0 0 0 0 0 0 0 0 0 0 0 0 0 0 0 0 0 0 3180 3310 3313 3427 3470 3470 3470 3470 3470 3470 3481 3502 3528 3553 3553 3556 3556 3556 3563 3563 3563 3556 3554 3554 3554 3554 3554 3542 3540 3540 3540 3555 3555 3555 3564 3564 3577 3641 3641 3641 3618 3614 3612 3610 3599 3526 3478 3321 3279 3143 3143 3143 3142 3142 3143 3143 3143 3378 3381 3381 3378 3353 3287 3238 3223 3196 3195 3193 3193 3193 3193 3193 3201 3201 3193 3193 3193 3192 3191 3191 3191 3191 3221 3248 3286 3300 3300 3300 3265 3207 3165 3144 3144 3144 3202 3203 3210 3211 3214 3221 3233 3246 3246 3265 3265 3265 3261 3253 3251 3245 3245 3245 3249 3253 3253 3249 3238 3237 3223 3237 3237 3249 3275 3455 3531 3531 3531 3300 3300 3300 3308 3684 3831 3831 3832 3832 3837 3832 3832 3771 3727 3712 3629 3610 3497 3203 2506 0 0 0 0 0 0 0 0 0 0 0 1627 1618 1609 1609 1609 1610 1611 1611 1619 1620 1620 1621 1623 1624 1626 1628 1630 1633 1635 1638 1641 1641 1643 1646 1648 1651 1651 1651 1652 1655 1655 1655 1657 1659 1661 1663 1666 1666 1668 1670 1674 1677 1679 1679 1682 1682 1683 1685 1686 1688 1689 1691 1692 1695 1696 1698 1699 1700 1702 1704 1706 1709 1712 1714 1715 1717 1720 1722 1725 1727 1730 1732 1733 1735 1736 1737 1742 1745 1746 1750 1754 1754 1756 1757 1759 1762 1766 1768 1772 1774 1777 1781 1782 1782 1785 1790 1793 1795 1797 1799 1800 1802 1803 1805 1807 1808 1809 1809 1810 1811 1812 1813 1813 1813 1815 1815 1816 1817 1819 1821 1822 1824 1829 1835 1840 1843 1847 1847 1850 1855 1856 1856 1858 1862 1865 1867 1869 1871 1873 1875 1877 1880 1882 1883 1885 1888 1890 1891 1894 1897 1901 1903 1908 1912 1913 1919 1928 1959 1988 1998 1998 1998 1995 1992 1990 1989 1988 1986 1982 1979 1975 1971 1967 1963 1960 1956 1952 1948 1945 1941 1938 1935 1934 1932 1931 1928 1926 1925 1923 1921 1919 1917 1915 1914 1913 1911 1909 1907 1906 1905 1903 1901 1900 1898 1896 1894 1892 1889 1885 1881 1877 1872 1865 1857 1847 1840 1833 1827 1824 1822 1821 1821 1819 1818 1816 1816 1816 1818 1818 1819 1820 1821 1824 1829 1831 1832 1837 1842 1845 1847 1849 1850 1851 1853 1854 1854 1854 1854 1854 1853 1853 1852 1852 1852 1852 1851 1851 1850 1850 1849 1848 1847 1847 1845 1844 1842 1840 1838 1836 1834 1831 1827 1823 1818 1815 1813 1811 1808 1807 1807 1806 1806 1806 1809 1812 1817 1819 1819 1821 1822 1826 1827 1828 1828 1828 1827 1826 1826 1826 1827 1827 1828 1829 1830 1831 1832 1833 1836 1838 1840 1843 1847 1851 1855 1859 1865 1870 1872 1876 1882 1888 1893 1894 1896 1898 1899 1902 1904 1905 1907 1908 1908 1909 1910 1911 1912 1912 1912 1912 1914 1915 1915 1917
0 0 0 0 0 0 0 0 0 0 0 0 0 0 0 0 0 0 0 0 0 0 0 0 0 0 0 0 0 0 0 0 0 0 2074 2076 2099 2110 2114 2115 2119 2119 2126 2132 2137 2139 2152 2172 2180 2190 2203 2209 2211 2214 2228 2235 2241 2251 2255 2255 2255 2253 2253 2253 0 0 0 0 0 0 0 0 0 0 0 0 0 0 0 0 0 0 0 0 0 0 0 0 0 0 0 0 0 0 0 0 0 0 0 0 0 0 0 0 0 0 0 0 0 0 0 0 0 0 0 0 0 0 0 0 0 0 0 0 0 0 0 0 0 0 0 0 3024 3179 3184 3291 3434 3463 3463 3463 3463 3463 3464 3487 3514 3535 3535 3535 3535 3535 3563 3563 3563 3556 3553 3553 3553 3553 3553 3542 3542 3542 3547 3559 3559 3559 3564 3564 3564 3584 3608 3608 3608 3607 3602 3599 3599 3526 3478 3370 3298 3298 3298 3357 3538 3548 3549 3566 3566 3591 3591 3591 3533 3455 3451 3435 3372 3347 3301 3289 3274 3257 3255 3224 3201 3199 3194 3194 3194 3194 3194 3196 3199 3201 3221 3248 3266 3266 3266 3265 3226 3206 3165 3144 3144 3144 3202 3206 3210 3211 3215 3221 3233 3253 3266 3266 3266 3262 3260 3248 3246 3239 3225 3215 3209 3195 3195 3195 3211 3237 3238 3288 3290 3311 3521 3690 3716 3716 3710 3710 3714 3714 3743 3797 3831 3831 3837 3837 3841 3841 3841 3813 3794 3777 3712 3629 3497 3274 2829 2551 0 0 0 0 0 0 0 0 0 0 1627 1616 1608 1608 1608 1610 1613 1619 1620 1621 1621 1622 1623 1625 1627 1628 1631 1633 1635 1638 1641 1641 1643 1647 1649 1651 1651 1651 1652 1655 1655 1655 1656 1659 1661 1663 1666 1666 1668 1671 1674 1677 1679 1679 1682 1683 1683 1685 1686 1689 1690 1692 1693 1695 1697 1698 1700 1700 1702 1704 1706 1709 1712 1714 1715 1717 1719 1721 1724 1727 1730 1732 1733 1735 1736 1738 1744 1748 1749 1753 1754 1754 1754 1756 1758 1762 1767 1770 1774 1776 1777 1781 1782 1784 1786 1790 1793 1795 1797 1799 1800 1802 1804 1805 1807 1808 1809 1809 1810 1811 1812 1813 1813 1814 1815 1815 1816 1817 1819 1820 1821 1823 1828 1833 1836 1841 1845 1847 1851 1856 1858 1858 1861 1863 1866 1867 1870 1872 1874 1876 1877 1880 1881 1884 1885 1887 1888 1891 1893 1897 1901 1903 1908 1912 1913 1922 1938 1964 1995 1997 1997 1997 1994 1992 1990 1989 1987 1985 1982 1978 1974 1970 1966 1962 1958 1955 1951 1947 1944 1941 1938 1935 1933 1932 1929 1928 1926 1923 1921 1919 1917 1916 1914 1912 1911 1909 1907 1905 1904 1902 1901 1899 1898 1896 1894 1893 1891 1888 1884 1879 1875 1870 1865 1857 1847 1840 1834 1827 1823 1822 1820 1819 1818 1817 1816 1816 1816 1816 1817 1817 1818 1819 1821 1825 1828 1830 1834 1839 1842 1843 1845 1848 1848 1850 1853 1853 1853 1853 1853 1852 1852 1852 1852 1852 1851 1851 1850 1850 1849 1849 1847 1847 1846 1845 1843 1842 1840 1838 1836 1834 1831 1828 1823 1819 1815 1814 1813 1809 1808 1806 1806 1806 1806 1807 1810 1816 1818 1819 1820 1822 1823 1825 1827 1827 1827 1827 1826 1826 1826 1826 1827 1828 1829 1830 1830 1832 1833 1835 1838 1839 1843 1847 1850 1854 1858 1864 1868 1870 1873 1877 1884 1890 1891 1894 1898 1899 1902 1904 1905 1907 1908 1908 1908 1910 1911 1912 1913 1914 1914 1915 1915 1915 1917
0 0 0 0 0 0 0 0 0 0 0 0 0 0 0 0 0 0 0 0 0 0 0 0 0 0 0 0 0 0 0 0 0 0 2100 2102 2109 2117 2117 2119 2125 2125 2126 2131 2137 2137 2155 2170 2179 2188 2203 2205 2205 2207 2207 2207 2217 2232 2240 2248 0 0 0 0 0 0 0 0 0 0 0 0 0 0 0 0 0 0 0 0 0 0 0 0 0 0 0 0 0 0 0 0 0 0 0 0 0 0 0 0 0 0 0 0 0 0 0 0 0 0 0 0 0 0 0 0 0 0 0 0 0 0 0 0 0 0 0 0 0 0 0 0 0 2968 3181 3186 3378 3460 3460 3460 3460 3460 3463 3471 3496 3507 3507 3507 3502 3502 3502 3542 3542 3542 3553 3553 3553 3553 3553 3542 3542 3542 3555 3559 3559 3559 3562 3562 3562 3573 3584 3585 3591 3595 3595 3595 3551 3438 3430 3430 3430 3598 3661 3688 3699 3699 3699 3685 3645 3638 3638 3638 3638 3649 3722 3724 3724 3722 3656 3495 3458 3303 3260 3224 3201 3199 3197 3197 3197 3197 3197 3204 3208 3209 3221 3235 3254 3254 3254 3251 3226 3206 3165 3165 3165 3166 3202 3208 3216 3222 3224 3231 3233 3253 3271 3271 3271 3261 3244 3239 3239 3227 3225 3215 3189 3189 3189 3195 3211 3300 3448 3586 3621 3623 3694 3771 3771 3771 3722 3720 3720 3720 3796 3801 3831 3841 3841 3841 3841 3841 3839 3813 3794 3777 3735 3725 3681 3564 3431 3129 2909 2896 2836 2832 2810 2801 0 0 0 0 1621 1616 1610 1610 1610 1611 1614 1620 1621 1621 1621 1623 1624 1625 1627 1629 1631 1633 1635 1638 1641 1642 1645 1647 1650 1651 1652 1652 1654 1655 1655 1656 1656 1657 1661 1663 1666 1666 1668 1671 1674 1677 1678 1679 1682 1683 1684 1686 1686 1689 1690 1691 1692 1695 1697 1698 1700 1700 1702 1704 1706 1709 1712 1714 1716 1717 1719 1721 1724 1727 1730 1732 1733 1735 1736 1738 1744 1748 1750 1753 1753 1754 1754 1756 1758 1762 1768 1771 1774 1776 1777 1781 1782 1786 1787 1790 1793 1795 1797 1799 1800 1802 1804 1805 1807 1808 1809 1809 1810 1811 1812 1813 1813 1814 1814 1814 1815 1817 1819 1820 1821 1823 1828 1831 1834 1841 1845 1849 1852 1856 1859 1861 1863 1865 1867 1868 1870 1872 1875 1876 1878 1880 1882 1884 1885 1887 1888 1891 1893 1897 1901 1903 1906 1912 1917 1927 1939 1971 1995 1997 1997 1997 1994 1992 1990 1987 1986 1983 1981 1976 1972 1968 1964 1960 1957 1953 1950 1947 1943 1940 1937 1934 1933 1930 1928 1927 1925 1923 1921 1918 1916 1915 1913 1911 1909 1907 1904 1904 1901 1900 1899 1897 1896 1895 1893 1891 1888 1885 1882 1879 1875 1870 1865 1858 1848 1841 1834 1827 1823 1821 1819 1817 1816 1816 1814 1814 1814 1815 1815 1816 1817 1819 1820 1822 1824 1826 1830 1835 1839 1842 1845 1846 1848 1848 1849 1851 1851 1851 1851 1851 1851 1852 1852 1852 1851 1850 1850 1850 1848 1848 1847 1846 1845 1844 1843 1841 1839 1838 1836 1833 1831 1828 1825 1820 1817 1816 1813 1810 1808 1806 1806 1806 1806 1807 1809 1814 1816 1818 1820 1822 1823 1825 1826 1826 1826 1826 1826 1826 1826 1826 1827 1828 1829 1830 1830 1831 1833 1835 1837 1839 1841 1845 1850 1853 1857 1863 1866 1867 1869 1876 1880 1885 1887 1892 1896 1899 1902 1903 1904 1907 1908 1908 1908 1909 1911 1912 1913 1914 1914 1915 1915 1915 1917
0 0 0 0 0 0 0 0 0 0 0 0 0 0 0 0 0 0 0 0 0 0 0 0 0 0 0 0 0 0 0 0 0 0 2112 2114 2122 2124 2124 2124 2126 2126 2126 2131 2134 2137 2155 2169 2177 2186 2200 2204 2204 2204 2191 2191 2191 2216 2221 2221 0 0 0 0 0 0 0 0 0 0 0 0 0 0 0 0 0 0 0 0 0 0 0 0 0 0 0 0 0 0 0 0 0 0 0 0 0 0 0 0 0 0 0 0 0 0 0 0 0 0 0 0 0 0 0 0 0 0 0 0 0 0 0 0 0 0 0 0 0 0 0 0 0 0 3062 3066 3284 3431 3443 3449 3451 3451 3458 3469 3481 3481 3481 3472 3472 3472 3484 3485 3492 3504 3518 3522 3553 3553 3553 3542 3542 3542 3555 3556 3559 3559 3559 3559 3559 3568 3572 3574 3577 3577 3577 3577 3532 3380 3380 3380 3562 3621 3661 3688 3699 3699 3699 3685 3650 3650 3650 3667 3685 3724 3724 3725 3729 3729 3729 3636 3557 3396 3260 3202 3201 3199 3197 3199 3201 3206 3207 3208 3210 3214 3215 3217 3218 3231 3231 3231 3225 3206 3186 3169 3169 3169 3195 3208 3223 3228 3230 3232 3238 3265 3271 3271 3271 3256 3242 3239 3227 3225 3225 3215 3187 3187 3187 3195 3298 3402 3690 3771 3803 3807 3807 3815 3815 3803 3803 3803 3796 3796 3801 3801 3824 3832 3839 3845 3845 3839 3832 3813 3794 3777 3735 3725 3692 3666 3615 3497 3163 3021 3006 2968 2950 2937 2843 0 0 0 1619 1616 1611 1611 1611 1612 1614 1620 1621 1621 1622 1623 1624 1626 1628 1629 1631 1633 1635 1638 1641 1642 1645 1647 1650 1653 1653 1654 1655 1655 1655 1655 1655 1656 1657 1660 1665 1666 1668 1670 1672 1675 1677 1679 1682 1683 1685 1686 1687 1689 1690 1691 1693 1696 1697 1698 1700 1701 1702 1704 1706 1709 1712 1714 1716 1718 1719 1721 1724 1727 1730 1732 1734 1736 1736 1739 1744 1748 1750 1753 1753 1753 1754 1756 1758 1762 1768 1772 1774 1776 1777 1778 1782 1786 1787 1790 1792 1795 1797 1799 1800 1802 1803 1805 1807 1808 1809 1809 1810 1811 1812 1812 1812 1813 1813 1813 1815 1817 1819 1820 1821 1823 1828 1830 1834 1839 1845 1849 1851 1856 1859 1862 1864 1866 1868 1869 1871 1873 1875 1877 1878 1880 1882 1884 1885 1887 1888 1890 1893 1896 1901 1902 1904 1911 1918 1933 1953 1977 1995 1995 1995 1994 1991 1990 1989 1986 1984 1981 1978 1973 1970 1966 1961 1958 1955 1952 1948 1945 1942 1939 1936 1934 1932 1930 1927 1926 1924 1921 1920 1917 1915 1913 1911 1909 1907 1905 1903 1902 1900 1899 1897 1895 1894 1893 1891 1889 1887 1884 1881 1879 1875 1870 1865 1858 1849 1842 1835 1827 1824 1821 1818 1817 1815 1814 1814 1813 1813 1813 1813 1814 1815 1817 1819 1819 1820 1823 1828 1833 1838 1841 1843 1845 1846 1847 1848 1848 1850 1850 1850 1850 1851 1851 1851 1851 1850 1850 1849 1848 1848 1847 1846 1846 1845 1844 1842 1841 1839 1837 1836 1833 1831 1828 1825 1821 1818 1817 1815 1811 1808 1806 1806 1806 1806 1807 1809 1811 1816 1816 1819 1822 1823 1825 1825 1825 1825 1825 1825 1825 1825 1826 1826 1827 1828 1829 1830 1830 1833 1834 1837 1838 1841 1845 1849 1852 1855 1859 1863 1867 1869 1872 1877 1882 1884 1889 1893 1897 1900 1902 1904 1906 1907 1908 1908 1909 1911 1912 1912 1914 1914 1914 1913 1913 1913
0 0 0 0 0 0 0 0 0 0 0 0 0 0 0 0 0 0 0 0 0 0 0 0 0 0 0 0 0 0 0 0 0 0 2112 2115 2127 2127 2127 2127 2127 2127 2129 2132 2134 2138 2155 2169 2171 2177 2192 2204 2204 2204 2190 2190 0 0 0 0 0 0 0 0 0 0 0 0 0 0 0 0 0 0 0 0 0 0 0 0 0 0 0 0 0 0 0 0 0 0 0 0 0 0 0 0 0 0 0 0 0 0 0 0 0 0 0 0 0 0 0 0 0 0 0 0 0 0 0 0 0 0 0 0 0 0 0 0 0 0 0 0 0 0 0 3052 3054 3320 3430 3443 3449 3451 3456 3460 3465 3465 3465 3465 3465 3469 3480 3480 3480 3483 3500 3522 3540 3542 3542 3542 3542 3542 3555 3556 3556 3556 3559 3553 3553 3555 3556 3555 3556 3556 3556 3555 3503 3411 3411 3411 3612 3646 3661 3688 3699 3699 3699 3689 3685 3685 3689 3719 3722 3732 3737 3739 3739 3739 3735 3636 3557 3396 3260 3209 3203 3200 3200 3203 3203 3206 3206 3208 3210 3214 3215 3217 3218 3218 3223 3223 3218 3213 3188 3173 3173 3173 3195 3212 3223 3228 3230 3232 3238 3255 3271 3271 3271 3239 3227 3227 3227 3227 3227 3206 3206 3206 3207 3293 3487 3610 3791 3798 3803 3816 3816 3832 3832 3809 3809 3809 3808 3808 3808 3808 3819 3832 3839 3839 3839 3832 3829 3799 3771 3749 3735 3725 3692 3666 3620 3556 3420 3119 3027 2968 2950 2937 2843 0 0 0 1621 1616 1613 1613 1613 1616 1619 1620 1621 1621 1622 1624 1625 1627 1628 1630 1631 1633 1635 1638 1641 1643 1645 1647 1650 1653 1654 1656 1657 1657 1657 1657 1657 1657 1657 1660 1665 1665 1668 1670 1671 1674 1677 1679 1681 1683 1685 1686 1687 1689 1690 1691 1693 1695 1696 1698 1700 1701 1702 1704 1707 1709 1711 1713 1716 1718 1718 1720 1723 1727 1730 1733 1735 1736 1737 1739 1744 1748 1750 1752 1752 1753 1754 1756 1758 1762 1768 1772 1774 1777 1778 1778 1782 1786 1787 1790 1792 1795 1797 1798 1799 1801 1803 1805 1806 1807 1809 1809 1810 1810 1812 1812 1812 1813 1813 1813 1816 1817 1820 1822 1824 1826 1827 1829 1834 1839 1843 1849 1852 1854 1859 1862 1864 1866 1869 1870 1871 1873 1875 1877 1879 1880 1882 1884 1885 1887 1888 1890 1892 1896 1899 1899 1902 1910 1918 1935 1963 1983 1994 1994 1994 1991 1989 1987 1986 1985 1982 1979 1976 1972 1968 1964 1960 1956 1954 1951 1948 1945 1941 1939 1936 1933 1931 1929 1927 1924 1923 1921 1917 1916 1914 1911 1910 1907 1905 1903 1900 1899 1898 1896 1895 1893 1893 1891 1889 1887 1885 1882 1879 1878 1874 1870 1866 1860 1852 1845 1837 1830 1824 1821 1818 1815 1815 1813 1812 1811 1811 1811 1812 1813 1813 1815 1816 1818 1820 1822 1826 1830 1834 1839 1842 1843 1844 1846 1846 1847 1847 1848 1849 1849 1850 1850 1850 1850 1850 1849 1848 1847 1846 1846 1845 1845 1844 1843 1842 1839 1839 1837 1835 1833 1831 1828 1825 1823 1819 1818 1816 1811 1808 1806 1806 1806 1806 1807 1808 1810 1812 1815 1819 1821 1822 1824 1825 1825 1825 1825 1825 1825 1825 1825 1826 1827 1827 1827 1829 1830 1832 1834 1835 1837 1841 1843 1846 1850 1853 1857 1861 1865 1868 1871 1875 1878 1882 1887 1893 1896 1899 1901 1903 1906 1907 1908 1908 1909 1910 1910 1911 1913 1913 1913 1913 1913 1913
0 0 0 0 0 0 0 0 0 0 0 0 0 0 0 0 0 0 0 0 0 0 0 0 0 0 0 0 0 0 0 0 0 2079 2113 2125 2127 2130 2130 2130 2131 2131 2132 2132 2134 2138 2155 2161 2168 2173 2176 2176 2173 2170 0 0 0 0 0 0 0 0 0 0 0 0 0 0 0 0 0 0 0 0 0 0 0 0 0 0 0 0 0 0 0 0 0 0 0 0 0 0 0 0 0 0 0 0 0 0 0 0 0 0 0 0 0 0 0 0 0 0 0 0 0 0 0 0 0 0 0 0 0 0 0 0 0 0 0 0 0 0 0 0 0 0 0 3224 3372 3430 3431 3432 3443 3448 3449 3451 3452 3456 3457 3465 3474 3475 3479 3480 3492 3512 3520 3529 3538 3538 3540 3540 3540 3547 3547 3550 3550 3550 3553 3555 3555 3553 3548 3541 3538 3534 3503 3466 3466 3466 3617 3653 3658 3688 3688 3688 3689 3687 3687 3689 3705 3728 3728 3732 3732 3739 3739 3739 3735 3636 3557 3396 3250 3218 3218 3218 3218 3218 3208 3208 3208 3215 3215 3218 3217 3217 3218 3218 3221 3221 3218 3213 3194 3190 3190 3190 3195 3213 3225 3230 3230 3232 3238 3253 3253 3253 3246 3215 3215 3215 3215 3215 3215 3206 3206 3206 3260 3463 3738 3785 3793 3803 3805 3836 3844 3846 3846 3844 3809 3808 3803 3801 3797 3797 3801 3827 3829 3832 3832 3829 3818 3788 3755 3727 3708 3703 3692 3666 3620 3556 3453 3310 3065 2968 2950 2937 2843 0 0 0 1630 1616 1614 1614 1614 1619 1619 1620 1621 1622 1623 1624 1625 1627 1629 1630 1632 1635 1635 1640 1641 1643 1645 1647 1650 1653 1654 1656 1657 1657 1657 1657 1657 1657 1657 1660 1665 1667 1668 1670 1671 1674 1677 1679 1681 1683 1684 1686 1688 1689 1690 1692 1693 1695 1696 1698 1700 1701 1701 1705 1708 1709 1710 1713 1715 1718 1718 1720 1723 1725 1729 1733 1735 1736 1737 1739 1743 1746 1750 1751 1752 1753 1755 1756 1758 1762 1768 1771 1774 1777 1778 1778 1779 1783 1786 1789 1791 1793 1796 1798 1799 1801 1802 1805 1806 1807 1809 1809 1810 1810 1811 1811 1812 1812 1813 1813 1815 1818 1821 1823 1826 1826 1827 1829 1833 1837 1842 1844 1852 1854 1859 1862 1864 1866 1869 1870 1872 1874 1875 1877 1879 1880 1882 1883 1885 1887 1889 1890 1892 1896 1899 1899 1902 1910 1918 1935 1964 1983 1990 1990 1990 1989 1986 1984 1982 1982 1980 1977 1974 1970 1966 1962 1959 1955 1953 1950 1947 1943 1940 1938 1935 1933 1931 1928 1926 1924 1921 1918 1915 1914 1912 1911 1908 1906 1903 1901 1899 1898 1896 1895 1893 1892 1891 1890 1887 1885 1884 1882 1879 1877 1874 1870 1866 1860 1854 1847 1839 1832 1826 1821 1818 1815 1814 1813 1811 1810 1810 1810 1810 1811 1811 1812 1813 1815 1818 1821 1824 1826 1829 1834 1837 1840 1841 1844 1845 1845 1846 1846 1847 1848 1848 1848 1848 1848 1848 1848 1847 1846 1845 1845 1845 1843 1842 1842 1840 1839 1837 1837 1835 1833 1831 1828 1826 1824 1822 1819 1816 1812 1808 1806 1806 1806 1806 1807 1807 1809 1810 1813 1817 1821 1822 1823 1825 1825 1825 1825 1825 1825 1825 1825 1825 1827 1827 1827 1828 1829 1832 1833 1833 1835 1839 1840 1844 1849 1853 1857 1861 1864 1867 1870 1875 1877 1882 1887 1893 1895 1897 1899 1901 1905 1905 1907 1907 1908 1910 1910 1910 1913 1913 1913 1913 1913 1913
0 0 0 0 0 0 0 0 0 0 0 0 0 0 0 0 0 0 0 0 0 0 0 0 0 0 0 0 0 0 0 0 2033 2079 2114 2126 2128 2130 2130 2131 2131 2132 2132 2133 2137 2142 2152 2156 2162 2162 2162 2154 2150 0 0 0 0 0 0 0 0 0 0 0 0 0 0 0 0 0 0 0 0 0 0 0 0 0 0 0 0 0 0 0 0 0 0 0 0 0 0 0 0 0 0 0 0 0 0 0 0 0 0 0 0 0 0 0 0 0 0 0 0 0 0 0 0 0 0 0 0 0 0 0 0 0 0 0 0 0 0 0 0 0 0 0 0 3087 3296 3375 3402 3408 3425 3435 3435 3438 3440 3449 3456 3465 3473 3475 3477 3479 3482 3507 3518 3529 3529 3529 3525 3525 3525 3533 3542 3543 3543 3546 3548 3550 3550 3550 3544 3540 3536 3533 3503 3494 3494 3494 3630 3653 3658 3688 3688 3688 3689 3689 3689 3724 3729 3742 3742 3743 3754 3742 3739 3739 3686 3609 3495 3262 3219 3219 3219 3219 3219 3219 3212 3212 3212 3226 3236 3252 3252 3252 3229 3227 3225 3216 3216 3213 3206 3202 3202 3202 3207 3217 3224 3225 3228 3229 3237 3241 3241 3241 3214 3204 3204 3204 3215 3215 3215 3203 3203 3203 3339 3706 3782 3794 3803 3808 3808 3845 3849 3849 3849 3849 3833 3822 3808 3802 3797 3796 3797 3802 3819 3819 3819 3819 3812 3776 3755 3727 3708 3689 3682 3663 3620 3556 3455 3347 3117 2955 2846 2775 2519 0 0 0 1616 1615 1614 1614 1614 1619 1620 1621 1622 1622 1623 1625 1626 1628 1629 1630 1633 1637 1639 1641 1641 1643 1645 1647 1650 1652 1654 1656 1657 1657 1657 1657 1657 1657 1657 1661 1665 1667 1669 1670 1671 1674 1677 1679 1681 1683 1684 1686 1688 1689 1690 1691 1693 1696 1696 1698 1701 1701 1703 1705 1708 1709 1710 1710 1713 1714 1715 1718 1720 1725 1729 1733 1735 1736 1736 1739 1743 1746 1749 1751 1751 1753 1755 1757 1760 1763 1767 1771 1774 1776 1779 1779 1780 1783 1784 1787 1790 1793 1795 1797 1799 1800 1802 1804 1805 1807 1807 1809 1810 1810 1811 1812 1812 1812 1813 1813 1815 1818 1821 1823 1826 1826 1827 1827 1833 1838 1841 1844 1849 1853 1859 1862 1864 1866 1869 1870 1872 1874 1876 1877 1878 1880 1882 1883 1885 1887 1889 1890 1892 1896 1898 1899 1902 1910 1918 1944 1966 1983 1988 1988 1988 1986 1984 1981 1980 1980 1977 1975 1971 1968 1964 1962 1958 1954 1952 1948 1946 1942 1940 1937 1934 1932 1930 1927 1924 1922 1919 1916 1914 1912 1910 1909 1907 1904 1902 1899 1897 1896 1895 1892 1891 1891 1889 1888 1886 1884 1883 1881 1879 1876 1874 1870 1866 1860 1854 1847 1841 1837 1829 1823 1819 1815 1814 1813 1811 1810 1809 1809 1809 1809 1809 1810 1811 1812 1814 1817 1821 1822 1825 1828 1831 1834 1838 1841 1843 1845 1845 1845 1845 1845 1847 1847 1847 1847 1847 1846 1845 1845 1844 1844 1843 1843 1841 1841 1840 1838 1837 1837 1835 1833 1831 1828 1826 1825 1822 1819 1816 1812 1809 1807 1806 1806 1806 1806 1806 1807 1809 1812 1816 1820 1820 1822 1824 1825 1825 1825 1825 1825 1825 1825 1825 1825 1826 1826 1828 1828 1829 1831 1833 1835 1837 1840 1843 1848 1853 1857 1861 1864 1867 1870 1875 1877 1882 1887 1892 1894 1895 1896 1897 1901 1903 1904 1906 1907 1910 1910 1910 1913 1914 1914 1914 1914 1914
0 0 0 0 0 0 0 0 0 0 0 0 0 0 0 0 0 0 0 0 0 0 0 0 0 0 0 0 0 0 0 0 2062 2100 2120 2126 2126 2126 2128 2130 2131 2133 2133 2136 2147 2148 2152 2156 2159 2159 0 0 0 0 0 0 0 0 0 0 0 0 0 0 0 0 0 2239 0 0 0 0 0 0 0 0 0 0 0 0 0 0 0 0 0 0 0 0 0 0 0 0 0 0 0 0 0 0 0 0 0 0 0 0 0 0 0 0 0 0 0 0 0 0 0 0 0 0 0 0 0 0 0 0 0 0 0 0 0 0 0 0 0 0 0 0 0 0 3243 3321 3369 3385 3405 3409 3411 3416 3434 3448 3456 3457 3468 3475 3477 3479 3481 3502 3515 3525 3525 3525 3522 3522 3522 3532 3534 3536 3539 3542 3546 3553 3553 3553 3544 3540 3533 3527 3507 3497 3497 3507 3630 3646 3656 3669 3670 3675 3678 3686 3709 3729 3729 3729 3728 3728 3728 3724 3723 3719 3629 3428 3371 3217 3217 3217 3221 3221 3221 3219 3215 3215 3215 3231 3274 3275 3275 3275 3229 3218 3218 3214 3214 3213 3206 3206 3206 3207 3210 3217 3224 3224 3225 3227 3234 3234 3234 3231 3198 3198 3198 3195 3195 3186 3158 3158 3158 3213 3531 3775 3794 3805 3805 3805 3805 3846 3849 3849 3849 3846 3839 3822 3820 3809 3808 3802 3790 3751 3751 3751 3776 3776 3776 3760 3749 3727 3708 3682 3664 3650 3601 3530 3473 3357 3137 2955 2800 2688 0 0 0 0 1613 1613 1613 1613 1614 1620 1621 1622 1622 1622 1624 1625 1627 1630 1630 1630 1633 1638 1641 1641 1642 1643 1645 1647 1650 1651 1653 1656 1657 1657 1657 1657 1657 1657 1657 1663 1665 1667 1668 1670 1672 1675 1677 1679 1681 1682 1684 1686 1688 1689 1690 1691 1693 1696 1697 1700 1701 1701 1703 1705 1708 1708 1709 1710 1711 1714 1715 1718 1720 1724 1729 1732 1735 1736 1736 1742 1744 1746 1748 1751 1751 1753 1755 1758 1760 1763 1766 1769 1773 1776 1779 1779 1780 1783 1784 1787 1789 1792 1795 1797 1798 1800 1801 1803 1804 1805 1807 1808 1809 1810 1811 1812 1812 1812 1812 1812 1815 1818 1821 1823 1823 1825 1826 1827 1835 1839 1841 1842 1849 1854 1858 1862 1864 1866 1868 1870 1872 1874 1875 1876 1878 1879 1881 1883 1885 1887 1889 1890 1892 1895 1898 1899 1900 1909 1918 1945 1970 1982 1988 1988 1988 1984 1980 1979 1978 1977 1975 1973 1970 1966 1964 1960 1957 1953 1950 1948 1945 1941 1938 1936 1934 1931 1928 1926 1922 1920 1918 1915 1913 1911 1909 1907 1905 1903 1900 1897 1896 1893 1893 1891 1890 1889 1887 1886 1885 1883 1882 1880 1877 1875 1873 1869 1865 1860 1855 1848 1844 1837 1832 1826 1819 1816 1814 1813 1810 1809 1808 1808 1808 1808 1808 1808 1808 1809 1810 1813 1816 1819 1821 1823 1826 1829 1834 1836 1840 1843 1844 1844 1844 1844 1844 1845 1845 1845 1845 1845 1844 1844 1844 1842 1842 1841 1840 1839 1839 1838 1837 1835 1834 1833 1831 1828 1827 1825 1822 1819 1816 1812 1809 1808 1806 1805 1805 1805 1806 1807 1808 1811 1815 1819 1820 1821 1822 1824 1824 1824 1824 1824 1824 1824 1824 1825 1825 1825 1826 1827 1829 1830 1832 1833 1835 1837 1841 1848 1853 1857 1860 1863 1865 1868 1873 1875 1880 1884 1889 1891 1891 1892 1895 1897 1901 1903 1905 1907 1910 1910 1911 1914 1916 1919 1919 1924 1925
0 0 0 0 0 0 0 0 0 0 0 0 0 0 0 0 0 0 0 0 0 0 0 0 0 0 0 0 0 0 0 0 2109 2119 2127 2127 2127 2121 2121 2121 2130 2133 2133 2136 2147 2149 2150 2150 0 0 0 0 0 0 0 0 0 0 0 0 0 0 0 0 2241 2242 2242 2241 2216 0 0 0 0 0 0 0 0 0 0 0 0 0 0 0 0 0 0 0 0 0 0 0 0 0 0 0 0 0 0 0 0 0 0 0 0 0 0 0 0 0 0 0 0 0 0 0 0 0 0 0 0 0 0 0 0 0 0 0 0 0 0 0 0 0 0 0 2947 3053 3232 3310 3338 3368 3390 3391 3392 3402 3423 3442 3456 3457 3463 3466 3468 3471 3479 3497 3509 3524 3524 3524 3520 3520 3520 3530 3532 3535 3536 3540 3546 3553 3553 3553 3548 3541 3536 3533 3511 3507 3507 3507 3630 3646 3656 3669 3670 3675 3678 3686 3709 3729 3729 3729 3728 3728 3713 3711 3709 3628 3426 3344 3247 3217 3217 3217 3221 3221 3221 3216 3215 3215 3215 3239 3274 3275 3275 3275 3229 3218 3218 3214 3213 3213 3209 3209 3209 3210 3212 3213 3214 3219 3221 3222 3226 3226 3226 3213 3198 3186 3186 3171 3171 3162 3158 3158 3158 3300 3765 3791 3791 3797 3798 3798 3803 3849 3849 3849 3849 3846 3839 3827 3820 3813 3813 3807 3790 3751 3709 3709 3709 3749 3749 3749 3744 3738 3720 3682 3664 3639 3601 3530 3473 3364 3211 2955 2800 2688 0 0 0 0 1610 1610 1610 1610 1616 1621 1622 1622 1623 1623 1624 1626 1627 1630 1631 1631 1634 1640 1642 1642 1642 1643 1645 1647 1649 1651 1653 1656 1657 1657 1657 1657 1657 1657 1657 1663 1665 1665 1668 1671 1673 1675 1677 1678 1681 1682 1684 1686 1688 1689 1690 1691 1694 1695 1697 1700 1701 1701 1703 1705 1708 1708 1708 1710 1711 1714 1715 1718 1720 1724 1729 1731 1733 1735 1738 1740 1743 1746 1748 1751 1751 1754 1756 1758 1760 1763 1766 1769 1770 1773 1779 1780 1780 1782 1784 1787 1789 1792 1794 1797 1798 1800 1800 1801 1802 1804 1807 1808 1809 1810 1810 1810 1811 1810 1811 1811 1812 1813 1815 1817 1818 1819 1822 1825 1832 1838 1840 1842 1849 1855 1858 1861 1863 1866 1868 1870 1872 1874 1875 1876 1877 1879 1881 1882 1885 1887 1888 1890 1892 1894 1897 1899 1900 1908 1918 1947 1974 1980 1987 1987 1987 1983 1980 1978 1977 1975 1974 1971 1967 1964 1962 1959 1956 1952 1950 1947 1943 1940 1938 1935 1933 1930 1927 1924 1921 1918 1917 1914 1912 1910 1907 1906 1903 1901 1898 1896 1894 1892 1891 1890 1888 1887 1886 1884 1883 1882 1880 1878 1876 1873 1871 1868 1865 1860 1856 1850 1844 1838 1833 1826 1819 1816 1814 1813 1810 1808 1808 1807 1806 1806 1806 1806 1807 1808 1809 1810 1812 1814 1816 1820 1823 1825 1829 1833 1836 1839 1842 1842 1842 1842 1843 1844 1844 1844 1844 1843 1843 1843 1842 1842 1840 1840 1839 1839 1838 1837 1836 1835 1834 1833 1831 1829 1827 1825 1822 1819 1816 1812 1810 1808 1806 1805 1805 1805 1805 1805 1807 1811 1815 1818 1819 1820 1821 1823 1823 1823 1823 1824 1824 1824 1824 1824 1824 1824 1825 1826 1828 1830 1830 1831 1833 1835 1839 1847 1853 1857 1859 1862 1864 1866 1868 1872 1877 1881 1884 1885 1888 1890 1892 1895 1898 1901 1904 1907 1910 1911 1915 1917 1922 1926 1926 1929 1933
0 0 0 0 0 0 0 0 0 0 0 0 0 0 0 0 0 0 0 0 0 0 0 0 0 0 0 0 0 0 0 0 2109 2119 2122 2122 2122 2120 2120 2120 2120 2127 2133 2136 2147 2147 2147 0 0 0 0 0 0 0 0 0 0 0 0 0 2204 2239 2257 2258 2258 2258 2257 2257 2212 0 0 0 0 0 0 0 0 2618 2618 2622 2622 2624 2706 2706 2706 2547 0 0 0 0 0 0 0 0 0 0 0 0 0 0 0 0 0 0 0 0 0 0 0 0 0 0 0 0 0 0 0 0 0 0 0 0 0 0 0 0 0 0 0 0 0 0 0 0 0 0 3048 3053 3232 3287 3307 3349 3376 3386 3388 3391 3406 3441 3456 3456 3456 3457 3457 3461 3474 3489 3504 3518 3518 3518 3518 3518 3518 3526 3530 3532 3532 3539 3544 3550 3550 3550 3550 3548 3541 3537 3518 3507 3507 3507 3608 3636 3636 3636 3645 3656 3665 3686 3709 3719 3724 3724 3719 3710 3674 3599 3534 3265 3189 3180 3180 3180 3200 3217 3220 3220 3220 3216 3216 3216 3218 3239 3274 3275 3275 3275 3224 3218 3213 3213 3212 3212 3209 3209 3209 3206 3206 3206 3206 3206 3210 3211 3219 3219 3219 3211 3195 3186 3186 3171 3171 3162 3158 3158 3158 3316 3797 3808 3808 3797 3808 3808 3813 3852 3852 3852 3849 3844 3839 3827 3819 3813 3813 3807 3791 3790 3709 3687 3685 3685 3685 3725 3725 3725 3720 3689 3664 3639 3601 3530 3473 3395 3282 3113 2800 2688 0 0 0 0 1609 1609 1609 1609 1616 1621 1622 1623 1623 1623 1625 1627 1629 1631 1632 1634 1637 1641 1642 1643 1644 1644 1645 1647 1649 1651 1653 1656 1657 1658 1658 1658 1659 1660 1660 1664 1666 1667 1668 1671 1673 1675 1677 1678 1680 1681 1684 1686 1688 1689 1690 1691 1694 1695 1698 1700 1701 1702 1704 1705 1708 1708 1708 1710 1711 1715 1716 1717 1720 1724 1729 1731 1732 1735 1738 1739 1742 1746 1748 1751 1754 1755 1756 1758 1760 1763 1766 1767 1769 1772 1775 1778 1780 1782 1784 1787 1788 1791 1792 1797 1798 1799 1799 1800 1801 1803 1805 1808 1809 1810 1811 1811 1812 1812 1812 1812 1812 1813 1815 1817 1817 1818 1819 1825 1832 1836 1840 1842 1849 1856 1858 1861 1863 1865 1868 1870 1872 1874 1875 1876 1877 1878 1880 1882 1884 1886 1888 1890 1891 1894 1895 1897 1898 1907 1920 1948 1974 1980 1984 1984 1984 1981 1980 1978 1976 1975 1973 1969 1965 1962 1960 1957 1954 1952 1949 1946 1943 1940 1937 1934 1931 1928 1926 1923 1920 1917 1916 1913 1911 1908 1906 1904 1901 1898 1897 1894 1892 1891 1889 1888 1887 1885 1883 1882 1881 1880 1878 1876 1873 1871 1870 1867 1864 1860 1856 1850 1844 1838 1833 1826 1820 1816 1814 1812 1810 1808 1808 1807 1806 1806 1806 1806 1806 1807 1807 1808 1810 1812 1812 1815 1820 1823 1824 1829 1832 1835 1838 1839 1841 1841 1842 1842 1842 1842 1842 1842 1842 1841 1841 1840 1839 1839 1838 1838 1837 1837 1835 1834 1833 1833 1831 1829 1827 1825 1822 1819 1816 1812 1810 1808 1806 1806 1805 1805 1805 1805 1807 1811 1815 1817 1819 1819 1819 1821 1822 1822 1823 1824 1824 1824 1824 1824 1824 1824 1825 1826 1828 1829 1830 1830 1831 1833 1838 1842 1849 1854 1855 1857 1861 1864 1865 1870 1873 1877 1879 1881 1884 1889 1891 1893 1894 1897 1902 1906 1910 1911 1917 1922 1925 1926 1926 1929 1933
0 0 0 0 0 0 0 0 0 0 0 0 0 0 0 0 0 0 0 0 0 0 0 0 0 0 0 0 0 0 0 2095 2109 2119 2119 2119 2119 2118 2114 2113 2113 2113 2123 2131 2140 2140 0 0 0 0 0 0 0 0 0 0 0 0 0 2237 2245 2257 2258 2260 2258 2258 2257 2252 0 0 0 0 0 0 0 0 2563 2656 2681 2702 2738 2767 2767 2767 2741 2711 2631 0 0 0 0 0 0 0 0 0 0 0 0 0 0 0 0 0 0 0 0 0 0 0 0 0 0 0 0 0 0 0 0 0 0 0 0 0 0 0 0 0 0 0 0 0 0 0 0 2745 3096 3228 3232 3273 3295 3335 3366 3380 3384 3384 3404 3427 3427 3427 3430 3430 3437 3457 3474 3477 3479 3482 3486 3491 3495 3495 3497 3505 3516 3527 3532 3536 3539 3550 3550 3550 3550 3550 3541 3536 3522 3513 3503 3463 3463 3463 3542 3563 3570 3578 3617 3660 3660 3660 3659 3653 3648 3604 3546 3458 3251 3129 3129 3129 3150 3168 3190 3203 3216 3216 3216 3212 3212 3212 3218 3239 3270 3270 3270 3256 3215 3211 3210 3209 3208 3206 3206 3206 3211 3211 3211 3205 3203 3203 3203 3207 3213 3213 3213 3211 3198 3186 3186 3171 3171 3171 3181 3214 3353 3540 3797 3803 3803 3797 3803 3810 3835 3855 3855 3855 3846 3841 3837 3827 3819 3813 3809 3803 3798 3791 3784 3712 3685 3650 3650 3667 3685 3689 3689 3689 3649 3628 3589 3535 3490 3441 3341 3145 2819 2705 0 0 0 0 1609 1609 1609 1609 1616 1621 1622 1623 1623 1625 1626 1627 1629 1631 1633 1634 1640 1642 1643 1643 1644 1645 1647 1648 1649 1651 1654 1657 1659 1660 1661 1661 1661 1662 1662 1664 1666 1667 1669 1672 1674 1675 1677 1678 1679 1681 1684 1686 1687 1689 1690 1691 1694 1695 1698 1700 1701 1702 1705 1707 1708 1709 1709 1712 1717 1718 1719 1719 1721 1729 1730 1731 1732 1735 1738 1740 1743 1746 1748 1751 1754 1756 1757 1759 1760 1763 1766 1767 1769 1771 1774 1777 1780 1782 1784 1787 1788 1790 1792 1795 1798 1799 1799 1799 1801 1803 1805 1807 1808 1809 1811 1811 1812 1812 1812 1812 1812 1813 1815 1817 1817 1818 1819 1825 1835 1836 1840 1844 1851 1856 1858 1861 1862 1865 1867 1869 1871 1874 1874 1875 1877 1878 1880 1881 1883 1886 1887 1888 1890 1891 1894 1895 1898 1907 1922 1957 1974 1980 1981 1981 1981 1980 1978 1977 1976 1974 1972 1968 1964 1961 1958 1955 1953 1950 1947 1944 1942 1938 1936 1933 1929 1927 1924 1921 1919 1916 1914 1911 1909 1906 1903 1901 1900 1897 1895 1892 1891 1890 1888 1886 1884 1883 1881 1880 1879 1879 1877 1874 1871 1869 1867 1865 1863 1860 1856 1850 1844 1839 1834 1827 1820 1816 1814 1812 1810 1808 1808 1806 1805 1805 1805 1805 1805 1805 1806 1807 1807 1810 1812 1813 1816 1819 1821 1825 1829 1832 1835 1836 1838 1839 1840 1840 1840 1840 1840 1840 1840 1840 1839 1839 1839 1837 1837 1837 1836 1836 1835 1834 1833 1832 1831 1829 1827 1824 1822 1819 1816 1813 1811 1808 1806 1806 1805 1805 1805 1805 1808 1811 1815 1817 1819 1819 1819 1820 1821 1822 1823 1823 1824 1824 1824 1824 1824 1824 1824 1826 1826 1828 1829 1829 1831 1833 1838 1842 1845 1850 1852 1853 1856 1860 1863 1866 1871 1876 1878 1880 1883 1888 1891 1893 1894 1895 1900 1904 1910 1911 1917 1923 1925 1928 1929 1930 1933
0 0 0 0 0 0 0 0 0 0 0 0 0 0 0 0 0 0 0 0 0 0 0 0 0 0 0 0 0 0 0 2098 2098 2111 2117 2118 2118 2117 2112 2110 2110 2110 2116 2116 2116 0 0 0 0 0 0 0 0 0 0 0 0 2236 2239 2242 2248 2260 2260 2261 2261 2260 2257 0 0 0 0 0 0 0 0 0 2586 2681 2706 2727 2738 2767 2767 2767 2741 2711 2631 2615 0 0 0 0 0 0 0 0 0 0 0 0 0 0 0 0 0 0 0 0 0 0 0 0 0 0 0 0 0 0 0 0 0 0 0 0 0 0 0 0 0 0 0 0 0 0 2637 2983 3200 3228 3233 3261 3282 3315 3342 3363 3374 3378 3387 3400 3400 3400 3404 3404 3418 3442 3450 3450 3450 3441 3441 3441 3444 3471 3472 3482 3493 3504 3525 3528 3529 3534 3548 3550 3550 3550 3541 3527 3522 3513 3503 3383 3326 3326 3326 3422 3509 3548 3578 3587 3591 3591 3591 3585 3558 3519 3459 3368 3145 3076 3076 3076 3113 3126 3151 3188 3197 3210 3210 3210 3210 3210 3218 3224 3250 3250 3250 3233 3209 3204 3200 3199 3199 3191 3191 3200 3203 3204 3204 3204 3203 3203 3203 3206 3206 3207 3207 3206 3206 3207 3208 3217 3231 3238 3248 3261 3389 3676 3785 3798 3798 3796 3798 3801 3847 3852 3852 3852 3843 3836 3830 3824 3815 3811 3810 3807 3798 3798 3790 3779 3776 3685 3642 3614 3614 3614 3649 3649 3649 3628 3589 3535 3490 3441 3341 3145 2878 2705 0 0 0 1618 1610 1609 1609 1610 1617 1620 1621 1623 1623 1625 1626 1628 1629 1631 1633 1635 1640 1642 1644 1645 1646 1647 1649 1650 1650 1651 1654 1657 1659 1660 1663 1663 1663 1663 1664 1664 1666 1667 1669 1672 1674 1675 1676 1678 1679 1681 1684 1686 1687 1689 1690 1692 1694 1695 1698 1700 1701 1703 1707 1707 1708 1711 1713 1716 1717 1719 1720 1720 1725 1729 1730 1731 1732 1736 1740 1742 1743 1746 1750 1752 1754 1756 1757 1759 1762 1764 1766 1768 1770 1771 1773 1775 1778 1781 1784 1787 1788 1790 1792 1794 1796 1797 1799 1799 1800 1801 1802 1807 1808 1808 1811 1811 1812 1813 1816 1820 1821 1821 1821 1821 1819 1819 1819 1825 1836 1836 1840 1845 1852 1856 1858 1861 1862 1865 1867 1868 1870 1871 1874 1875 1876 1878 1879 1881 1883 1885 1887 1888 1889 1890 1893 1895 1898 1907 1934 1958 1974 1978 1979 1979 1979 1977 1976 1976 1975 1974 1971 1967 1963 1960 1956 1954 1951 1949 1946 1943 1940 1937 1935 1931 1929 1926 1923 1920 1917 1915 1912 1909 1906 1903 1902 1900 1897 1895 1892 1890 1888 1887 1886 1884 1883 1881 1879 1879 1878 1877 1874 1872 1870 1868 1866 1864 1862 1858 1855 1850 1844 1839 1834 1828 1820 1816 1814 1812 1810 1809 1807 1806 1805 1804 1804 1804 1804 1804 1805 1805 1806 1808 1810 1811 1813 1815 1818 1821 1825 1828 1832 1833 1834 1836 1837 1839 1839 1839 1839 1839 1838 1838 1838 1837 1837 1837 1836 1836 1836 1835 1834 1834 1833 1832 1830 1828 1826 1824 1822 1820 1816 1815 1812 1808 1806 1806 1805 1805 1805 1805 1807 1810 1814 1817 1818 1819 1819 1820 1821 1822 1823 1823 1823 1824 1824 1824 1823 1823 1823 1825 1825 1827 1829 1829 1831 1833 1837 1842 1844 1847 1850 1852 1854 1857 1859 1863 1869 1874 1878 1879 1882 1887 1890 1893 1894 1894 1899 1903 1905 1909 1917 1923 1927 1928 1928 1930 1932
0 0 0 0 0 0 0 0 0 0 0 0 0 0 0 0 0 0 0 0 0 0 0 0 0 0 0 0 0 0 0 2092 2096 2098 2100 2106 2112 2112 2112 2110 2110 2110 2110 2110 0 0 0 0 0 0 0 0 0 0 0 2190 2218 2236 2239 2242 2248 2257 2258 2260 2258 2258 2239 0 0 0 0 0 0 0 0 0 2635 2689 2717 2727 2738 2767 2767 2767 2741 2717 2667 2615 0 0 0 0 0 0 0 0 0 0 0 0 0 0 0 0 0 0 0 0 0 0 0 0 0 0 0 0 0 0 0 0 0 0 0 0 0 0 0 0 0 0 0 0 0 2980 3013 3222 3231 3232 3233 3246 3264 3285 3305 3328 3343 3346 3349 3360 3361 3362 3362 3373 3391 3401 3403 3403 3403 3406 3406 3411 3434 3457 3464 3466 3477 3491 3516 3524 3527 3528 3547 3547 3547 3537 3533 3522 3521 3513 3471 3383 3200 0 0 3224 3409 3522 3562 3562 3562 3556 3543 3519 3492 3447 3383 3278 3048 3027 3027 3027 3061 3064 3103 3141 3164 3197 3202 3205 3206 3206 3206 3211 3212 3212 3212 3183 3183 3183 3165 3156 3156 3156 3166 3191 3195 3203 3203 3203 3198 3198 3198 3202 3202 3202 3204 3204 3204 3208 3210 3217 3234 3247 3270 3287 3490 3780 3781 3795 3795 3806 3810 3816 3853 3853 3853 3852 3843 3835 3829 3824 3815 3811 3810 3807 3800 3798 3796 3790 3784 3776 3704 3597 3537 3537 3537 3628 3628 3628 3589 3535 3490 3441 3341 3145 2878 2705 0 0 0 1618 1610 1610 1610 1612 1618 1620 1621 1623 1623 1625 1626 1628 1630 1631 1633 1636 1640 1644 1645 1645 1646 1647 1649 1650 1650 1651 1654 1657 1659 1660 1664 1664 1664 1665 1665 1665 1666 1668 1670 1672 1674 1675 1676 1678 1679 1681 1684 1685 1687 1689 1690 1693 1694 1697 1698 1700 1701 1706 1708 1710 1711 1713 1714 1716 1717 1719 1720 1723 1725 1729 1730 1731 1731 1736 1738 1741 1743 1747 1750 1753 1755 1756 1758 1760 1762 1764 1767 1768 1770 1771 1773 1774 1778 1779 1781 1785 1788 1790 1791 1793 1796 1797 1798 1799 1799 1800 1800 1804 1808 1809 1812 1813 1813 1815 1819 1821 1822 1823 1823 1823 1823 1825 1827 1836 1836 1838 1841 1847 1853 1856 1858 1860 1862 1864 1865 1868 1869 1871 1872 1873 1876 1877 1879 1881 1882 1884 1886 1888 1889 1890 1893 1895 1902 1920 1942 1965 1973 1977 1977 1977 1975 1975 1974 1973 1972 1971 1969 1965 1961 1957 1955 1952 1949 1946 1944 1941 1938 1936 1933 1930 1926 1924 1922 1919 1916 1913 1910 1906 1903 1901 1899 1896 1894 1893 1890 1888 1886 1885 1883 1882 1881 1880 1878 1877 1876 1874 1873 1871 1868 1867 1865 1863 1860 1858 1854 1849 1844 1840 1834 1829 1823 1817 1814 1812 1810 1809 1807 1806 1804 1804 1803 1803 1803 1803 1803 1803 1805 1806 1807 1808 1810 1813 1815 1818 1822 1825 1828 1830 1831 1832 1833 1835 1837 1837 1837 1837 1837 1837 1837 1837 1837 1835 1835 1835 1835 1834 1834 1833 1832 1831 1829 1828 1826 1824 1822 1820 1817 1815 1812 1808 1807 1806 1806 1806 1806 1806 1807 1809 1814 1817 1818 1819 1820 1820 1821 1822 1822 1822 1823 1823 1823 1823 1823 1823 1823 1824 1825 1826 1827 1827 1830 1833 1836 1840 1843 1846 1849 1851 1852 1854 1857 1862 1869 1874 1877 1879 1882 1886 1890 1892 1894 1894 1898 1902 1904 1909 1918 1924 1927 1927 1927 1928 1932
