1542 1525 1525 1502 1497 1496 1496 1497 1497 1512 1520 1522 1525 1532 1532 1532 1526 1525 1525 1525 1525 1526 1528 1533 1533 1533 1532 1527 1520 1520 1520 1524 1535 1538 1551 1556 1561 1561 1561 1561 1561 1561 1562 1564 1567 1577 1587 1591 1597 1599 1607 1623 1652 1675 1708 1740 1777 1800 1826 1844 1864 1876 1876 1876 1855 0 0 0 0 0 0 0 0 0 0 0 0 0 0 0 0 0 0 0 0 0 0 0 0 0 0 0 0 0 0 0 0 1975 2013 2022 2024 2034 2041 2046 2053 2053 2053 2053 2053 2053 2053 2054 2055 2055 2059 2064 2071 2076 2082 2083 2086 2086 2086 2086 2078 2070 2066 2066 2066 2080 2098 2120 2136 2140 2148 2171 2206 2236 2265 2301 2335 2338 2343 2344 2358 2375 2384 2384 2391 2391 2391 2386 2380 2374 2373 2368 2367 2367 2367 2374 2379 2379 2380 2380 2380 2380 2381 2382 2387 2393 2400 2405 2408 2411 2413 2416 2425 2433 2433 2433 2426 2420 2411 2407 2400 2385 2385 2385 2392 2405 2415 2415 2415 2405 2383 2347 2347 2344 2344 2347 2349 2372 2372 2374 2374 2375 2389 2391 2391 2391 2369 2311 2262 2223 2188 2156 2134 2134 2134 2147 2147 2147 2141 2141 2141 2153 2160 2163 2165 2169 2174 2174 2174 2168 2168 2168 2170 2172 2179 2183 2187 2193 2197 2200 2204 2217 2218 2230 2230 2218 2218 0 0 0 0 0 0 0 0 0 0 0 0 0 0 0 0 0 0 0 0 0 0 0 0 0 0 0 0 0 0 0 0 0 0 0 0 0 2316 2316 2316 2322 2322 2323 2344 2358 2358 2358 2337 2296 2278 2278 2278 2278 2278 2267 2267 2267 2307 2331 2338 2366 2383 2404 2404 2404 2395 2366 2366 2358 2349 2331 2286 2263 2224 2191 2163 2143 2126 2113 2100 2089 2081 2072 2062 2055 2050 2044 2041 2034 2028 2024 2018 2013 2009 2005 2001 1996 1990 1986 1981 1976 1971 1968 1963 1960 1957 1954 1950 1946 1944 1939 1936 1932 1930 1928 1925 1923 1921 1919 1916 1914 1912 1909 1907 1903 1901 1899 1897 1895 1894 1893 1891 1890 1889 1888 1887 1886 1886 1885 1884 1883 1882 1881 1880 1879 1878 1876 1874 1873 1872 1871 1870 1869 1868 1868 1867 1866 1866 1865 1865 1865 1864 1864 1862 1861 1861 1859 1859 1858 1858 1857 1857 1857 1856 1855 1855 1855 1855 1854 1854 1854 1853 1853 1853 1853 1853 1853 1852 1852 1852 1851 1851 1850 1849 1849 1848 1848 1846 1846 1845 1845 1844 1843 1842 1842 1841 1840 1839 1838 1838 1838 1837 1837 1836 1836 1835 1835 1835 1833 1832 1830 1829 1828 1827 1825 1823 1823 1821 1820 1820 1819 1816 1812 1810 1809 1809 1809 1810 1810 1810 1810 1802 1795 1789 1777 0 0 0 0 0 0 0 0 0 0 0 0 1226 1202 1186 1184 1184 1183 1183 1182 1182 1181 1181 1182 1183 1183 1187 1187 1187 1186 1184 1180 1178 1172 1168 1166 1163 1161 1157 1152 1147 1143 1142 1142 1142 1146 1151 1153 1156 1162 1165 1170 1174 1177 1180 1182 1185 1187 1188 1190 1193 1195 1200 1200 1200 1199 1189 1183 1179 1179 1178 1177 1175 1171 1171 1170 1170 1170 1170 1170 1170 1170 1170 1180 1185 1185 1185 1181 1181 1181 1181 1181 1183 1184 1188 1188 1188 1181 1174 1161 1151 1145 1142 1142 1136 1129 1123 1116 1113 1111 1109 1107 1107 1106 1106 1106 1105 1105 1105 1105 1109 1110 1110 1111 1112 1113 1114 1114 1114 1115 1116 1117 1118 1122 1126 1131 1136 1143 1152 1162 1170
1528 1508 1508 1499 1497 1496 1495 1496 1497 1498 1511 1520 1525 1525 1525 1524 1521 1509 1509 1509 1510 1511 1514 1520 1520 1520 1520 1513 1511 1511 1511 1517 1522 1525 1532 1544 1553 1553 1553 1555 1555 1555 1555 1556 1561 1564 1575 1585 1588 1597 1605 1615 1625 1649 1674 1709 1737 1766 1805 1833 1851 1868 1868 1868 1868 0 0 0 0 0 0 0 0 0 0 0 0 0 0 0 0 0 0 0 0 0 0 0 0 0 0 0 0 0 0 0 0 1994 2011 2014 2017 2028 2034 2041 2046 2049 2049 2050 2051 2050 2050 2050 2048 2048 2048 2051 2054 2058 2061 2069 2076 2076 2076 2073 2062 2057 2053 2053 2053 2056 2072 2095 2110 2118 2128 2147 2172 2217 2256 2294 2324 2338 2340 2344 2358 2375 2382 2383 2383 2383 2383 2374 2362 2358 2353 2353 2351 2351 2351 2362 2365 2366 2369 2369 2369 2373 2373 2376 2380 2385 2392 2398 2402 2404 2409 2414 2425 2433 2433 2433 2421 2408 2397 2395 2390 2385 2385 2385 2391 2402 2412 2412 2412 2405 2395 2381 2373 2373 2373 2376 2378 2378 2378 2378 2378 2379 2392 2392 2392 2391 2381 2367 0 2224 2189 2157 2157 2155 2151 2151 2147 2147 2140 2140 2140 2150 2153 2153 2161 2168 2179 2179 2179 2168 2168 2168 2169 2172 2179 2183 2187 2192 2192 2195 2196 2196 2214 2215 2215 2220 2220 0 0 0 0 0 0 0 0 0 0 0 0 0 0 0 0 0 0 0 0 0 0 0 0 0 0 0 0 0 0 0 0 0 0 2195 2242 2272 2320 2328 2328 2328 2328 2328 2344 2358 2358 2358 2337 2296 2265 2255 2244 2241 2230 2220 2220 2220 2233 2289 2326 2361 2383 2404 2406 2406 2406 2370 2370 2361 2350 2327 2291 2266 2225 2191 2164 2151 2135 2117 2100 2092 2080 2071 2060 2050 2044 2041 2037 2032 2027 2022 2016 2010 2007 2003 1999 1994 1990 1986 1981 1975 1971 1966 1962 1959 1955 1953 1950 1946 1942 1939 1935 1932 1930 1926 1924 1922 1920 1918 1916 1914 1911 1909 1907 1903 1901 1899 1897 1895 1894 1893 1891 1890 1889 1888 1888 1886 1886 1885 1885 1883 1882 1881 1880 1879 1878 1876 1874 1873 1872 1871 1870 1869 1868 1868 1867 1866 1866 1865 1865 1865 1865 1864 1862 1860 1860 1859 1859 1858 1857 1857 1857 1856 1856 1855 1855 1855 1854 1854 1854 1854 1854 1854 1853 1853 1853 1853 1853 1852 1852 1852 1851 1850 1850 1849 1848 1848 1847 1846 1845 1845 1844 1844 1842 1842 1841 1840 1839 1839 1839 1838 1838 1837 1837 1836 1836 1835 1835 1834 1833 1832 1830 1829 1828 1825 1823 1823 1820 1820 1819 1817 1814 1811 1810 1809 1809 1808 1808 1808 1804 1799 1790 1774 1762 0 0 0 0 0 0 0 0 0 0 0 0 1232 1203 1183 1177 1177 1177 1177 1176 1176 1176 1176 1178 1179 1180 1181 1183 1183 1183 1183 1180 1177 1172 1165 1163 1158 1156 1152 1148 1144 1142 1140 1140 1140 1141 1144 1148 1151 1152 1155 1158 1163 1168 1170 1173 1175 1177 1179 1182 1187 1188 1188 1188 1187 1182 1176 1172 1171 1170 1170 1168 1166 1162 1160 1157 1155 1154 1153 1153 1153 1152 1152 1152 1155 1158 1162 1166 1167 1167 1166 1166 1165 1164 1163 1161 1160 1159 1157 1150 1140 1129 1120 1118 1118 1116 1115 1115 1110 1106 1102 1102 1101 1101 1101 1103 1103 1103 1103 1103 1105 1109 1110 1110 1111 1112 1112 1112 1113 1114 1115 1116 1117 1119 1122 1126 1133 1141 1149 1155 1162 1170
1519 1508 1508 1497 1490 1490 1490 1490 1493 1496 1506 1517 1519 1519 1519 1511 1505 1503 1502 1502 1503 1504 1505 1512 1512 1512 1512 1506 1506 1506 1509 1516 1520 1522 1523 1534 1541 1547 1547 1547 1547 1548 1548 1549 1549 1552 1564 1573 1576 1586 1602 1610 1611 1622 1641 1671 1700 1728 1771 1815 1840 1855 1867 1867 1867 1859 0 0 0 0 0 0 0 0 0 0 0 0 0 0 0 0 0 0 0 0 0 0 0 0 0 0 0 0 0 0 1979 1995 2010 2013 2017 2018 2029 2032 2040 2046 2046 2046 2045 2044 2044 2043 2039 2039 2038 2038 2038 2039 2041 2045 2057 2057 2057 2057 2053 2050 2043 2043 2043 2050 2059 2078 2098 2108 2117 2127 2161 2199 2256 2290 2315 2330 2333 2344 2358 2373 2380 2381 2381 2380 2371 2355 2346 2341 2340 2340 2340 2342 2349 2358 2360 2360 2360 2360 2360 2367 2369 2370 2374 2380 2384 2390 2395 2399 2407 2413 2425 2433 2433 2433 2416 2396 2387 2386 2383 2382 2382 2382 2391 2399 2401 2404 2404 2404 2395 2389 2389 2388 2388 2388 2386 2385 2383 2383 2383 2395 2396 2396 2396 2391 2381 2375 0 2235 2196 2173 2160 2158 2155 2152 2152 2149 2140 2140 2140 2140 2143 2145 2157 2168 2179 2179 2179 2164 2164 2164 2169 2169 2172 2179 2184 2184 2184 2176 2176 2176 2186 2199 2202 2220 2220 0 0 0 0 0 0 0 0 0 0 0 0 0 0 0 0 0 0 0 0 0 0 0 0 0 0 0 0 0 0 0 0 0 2225 2244 2276 2291 2320 2328 2328 2328 2328 2328 2344 2354 2354 2354 2337 2281 2242 2215 2215 2215 2215 2215 2213 2213 2213 2258 2316 2361 2379 2391 2399 2399 2399 2398 2381 2373 2365 2326 2294 2267 2231 2192 2173 2153 2135 2120 2103 2092 2080 2070 2060 2048 2041 2038 2035 2032 2027 2022 2015 2010 2005 2002 1997 1994 1990 1985 1980 1975 1970 1966 1962 1958 1955 1952 1949 1945 1942 1938 1934 1931 1929 1926 1923 1921 1920 1916 1915 1913 1911 1909 1907 1903 1901 1899 1898 1896 1894 1893 1891 1890 1889 1888 1888 1887 1887 1885 1885 1883 1882 1882 1880 1879 1878 1876 1874 1873 1872 1871 1870 1869 1868 1868 1867 1866 1866 1866 1865 1865 1865 1864 1862 1860 1860 1859 1859 1858 1857 1857 1856 1856 1856 1855 1855 1854 1854 1854 1854 1854 1854 1854 1854 1854 1853 1853 1853 1852 1852 1852 1851 1850 1850 1849 1849 1848 1847 1847 1846 1845 1844 1844 1843 1843 1842 1841 1840 1839 1839 1839 1838 1837 1837 1836 1836 1835 1835 1834 1833 1832 1830 1829 1828 1826 1824 1823 1820 1820 1819 1817 1814 1810 1809 1808 1807 1806 1806 1803 1793 1773 1753 1724 1692 0 0 0 0 0 0 0 0 0 0 0 1254 1222 1194 1176 1173 1172 1172 1172 1172 1172 1172 1172 1174 1175 1178 1178 1180 1180 1180 1179 1176 1172 1166 1160 1157 1155 1152 1148 1144 1140 1139 1137 1137 1137 1138 1142 1145 1148 1149 1152 1154 1158 1162 1166 1167 1170 1173 1175 1178 1183 1183 1183 1183 1179 1175 1170 1166 1163 1163 1159 1153 1148 1147 1146 1145 1142 1142 1142 1143 1145 1145 1145 1145 1145 1145 1148 1153 1156 1156 1156 1154 1153 1153 1151 1150 1148 1146 1143 1138 1130 1121 1114 1113 1113 1112 1112 1105 1100 1096 1094 1094 1094 1095 1098 1101 1101 1101 1102 1102 1104 1109 1110 1110 1110 1110 1110 1110 1111 1113 1115 1116 1117 1119 1122 1126 1133 1141 1149 1155 1162 1170
1510 1500 1500 1496 1489 1489 1489 1489 1490 1491 1494 1507 1515 1515 1515 1503 1496 1496 1496 1496 1497 1502 1502 1504 1507 1507 1507 1506 1506 1506 1509 1516 1519 1522 1523 1526 1533 1535 1538 1542 1544 1545 1545 1545 1545 1545 1551 1560 1572 1575 1592 1605 1607 1620 1629 1648 1673 1702 1734 1786 1824 1842 1857 1868 1868 1868 1844 1839 1831 1814 1797 0 0 0 0 0 0 0 0 0 0 0 0 0 0 0 0 0 0 0 0 0 1915 1922 1937 1954 1979 1995 2006 2007 2009 2009 2012 2023 2033 2040 2040 2040 2039 2038 2038 2037 2034 2033 2032 2032 2033 2033 2035 2037 2044 2047 2047 2047 2045 2044 2042 2042 2042 2048 2058 2072 2094 2104 2105 2114 2140 2193 2238 2286 2305 2327 2333 2344 2358 2371 2371 2371 2369 2365 2359 2341 2331 2331 2331 2333 2335 2337 2347 2357 2357 2357 2353 2353 2353 2357 2360 2364 2368 2372 2377 2382 2385 2392 2401 2412 2421 2429 2429 2429 2401 2384 2379 2378 2377 2377 2377 2379 2386 2389 2391 2395 2395 2395 2395 2389 2389 2388 2388 2388 2387 2385 2383 2383 2383 2392 2395 2395 2392 2386 2381 2375 2357 0 0 2202 2164 2158 2155 2151 2149 2147 2140 2140 2140 2140 2140 2141 2148 2165 2166 2166 2166 2148 2148 2148 2152 2152 2153 2157 2169 2172 2172 2172 2171 2171 2171 2182 2183 2202 2202 0 0 0 0 0 0 0 0 0 0 0 0 0 0 0 0 0 0 0 0 0 0 0 0 0 0 0 0 2155 2205 2219 2222 2226 2256 2277 2301 2311 2316 2326 2326 2326 2327 2327 2327 2340 2340 2340 2336 2281 2241 2215 2215 2215 2215 2215 2206 2206 2206 2228 0 2357 2367 2380 2399 2409 2409 2409 2399 2393 2381 2326 2294 2268 2231 2194 2173 2153 2135 2120 2103 2092 2080 2071 2060 2048 2041 2038 2035 2030 2027 2021 2015 2010 2004 2001 1997 1993 1989 1985 1980 1974 1969 1965 1960 1958 1954 1952 1948 1944 1940 1938 1934 1931 1928 1925 1923 1920 1918 1916 1914 1913 1910 1909 1906 1904 1901 1899 1898 1896 1894 1893 1891 1890 1889 1888 1888 1888 1887 1886 1885 1883 1882 1882 1880 1879 1878 1877 1875 1874 1872 1870 1870 1870 1869 1868 1868 1867 1866 1866 1866 1865 1865 1864 1862 1860 1860 1859 1859 1858 1857 1857 1856 1856 1856 1855 1855 1855 1854 1854 1854 1854 1854 1854 1854 1854 1854 1854 1853 1853 1852 1852 1852 1851 1850 1850 1849 1849 1848 1847 1846 1845 1845 1845 1844 1843 1843 1841 1841 1840 1839 1839 1839 1838 1837 1837 1836 1835 1835 1834 1833 1832 1830 1829 1828 1826 1824 1823 1820 1820 1820 1819 1814 1810 1809 1808 1807 1806 1795 0 0 0 0 0 0 0 0 0 0 0 0 0 1341 1312 1285 1255 1228 1209 1187 1172 1169 1169 1169 1170 1170 1170 1170 1171 1171 1172 1175 1176 1176 1176 1176 1175 1171 1166 1162 1159 1154 1152 1148 1144 1141 1138 1137 1136 1136 1136 1136 1138 1142 1145 1147 1149 1151 1155 1159 1161 1164 1167 1167 1170 1173 1176 1177 1177 1177 1174 1169 1164 1161 1158 1155 1152 1144 1138 1136 1136 1135 1134 1134 1135 1135 1138 1138 1138 1138 1138 1138 1138 1143 1146 1146 1146 1146 1145 1145 1143 1142 1140 1138 1135 1129 1121 1115 1111 1106 1103 1101 1101 1098 1094 1088 1088 1088 1088 1093 1095 1097 1100 1100 1101 1101 1101 1107 1108 1108 1108 1108 1108 1109 1110 1113 1114 1116 1117 1119 1121 1125 1133 1141 1149 1155 1162 1169
1488 1468 1484 1484 1484 1486 1486 1486 1485 1485 1485 1486 1503 1503 1503 1496 1491 1491 1491 1495 1496 1497 1497 1498 1501 1504 1504 1504 1504 1504 1506 1516 1519 1521 1523 1523 1525 1527 1529 1536 1541 1543 1543 1543 1543 1543 1546 1556 1571 1575 1592 1605 1607 1620 1626 1640 1659 1688 1716 1761 1810 1833 1853 1867 1867 1867 1865 1846 1839 1839 1821 1805 0 0 0 0 0 0 0 0 0 0 0 0 0 0 0 0 0 0 0 0 1922 1922 1937 1954 1979 1995 1995 1995 1998 1998 2001 2013 2024 2030 2035 2035 2035 2032 2032 2031 2031 2031 2031 2030 2030 2030 2033 2034 2036 2036 2040 2040 2040 2040 2041 2041 2042 2046 2053 2069 2081 2083 2088 2098 2117 2166 2229 2273 2299 2321 2333 2344 2358 2358 2358 2354 2342 2332 2326 2322 2322 2322 2322 2325 2334 2334 2340 2340 2340 2336 2336 2336 2338 2346 2352 2355 2360 2367 2371 2375 2378 2379 2387 2398 2399 2404 2404 2404 2396 2380 2376 2375 2369 2367 2367 2367 2378 2382 2386 2390 2393 2393 2393 2388 2388 2387 2388 2388 2387 2386 2386 2386 2389 2390 2395 2395 2390 2381 2375 2375 2357 0 0 2202 2164 2143 2143 2143 2146 2148 2148 2148 2147 2141 2141 2141 2146 2161 2161 2161 2152 2148 2148 2148 2152 2152 2153 2156 2160 2164 2165 2168 2168 2168 2169 2170 2183 2202 2202 0 0 0 0 0 0 0 0 0 0 0 0 0 0 0 0 0 0 0 0 0 0 0 0 0 0 0 0 2223 2237 2239 2239 2248 2269 2295 2311 2311 2311 2306 2304 2301 2300 2300 2300 2298 2302 2302 2298 2261 2216 2215 2215 2215 2215 2215 2208 2208 2208 2227 0 2354 2367 2380 2399 2410 2410 2410 2400 2395 2384 2327 2298 2270 2231 2194 2173 2153 2135 2120 2103 2092 2079 2070 2060 2048 2041 2038 2035 2030 2027 2021 2015 2009 2003 2000 1995 1993 1989 1985 1980 1973 1969 1965 1960 1956 1954 1951 1947 1943 1939 1937 1934 1930 1927 1923 1921 1919 1917 1915 1914 1912 1910 1908 1906 1904 1901 1900 1898 1897 1894 1893 1891 1890 1889 1889 1888 1888 1887 1886 1886 1884 1883 1882 1880 1879 1878 1877 1875 1874 1872 1871 1870 1870 1869 1868 1868 1867 1866 1866 1866 1866 1865 1864 1862 1861 1860 1860 1859 1858 1857 1857 1856 1856 1856 1856 1856 1855 1855 1854 1854 1854 1855 1855 1855 1855 1855 1855 1854 1854 1854 1853 1852 1852 1851 1850 1850 1849 1848 1847 1847 1846 1845 1845 1844 1843 1843 1842 1841 1840 1840 1839 1839 1839 1838 1837 1837 1836 1835 1834 1833 1831 1830 1829 1827 1826 1825 1824 1821 1821 1820 1819 1814 1810 1809 1803 1792 1773 1759 0 0 0 0 0 0 0 0 0 0 0 0 0 1309 1284 1263 1233 1209 1197 1180 1170 1168 1167 1167 1168 1168 1168 1168 1168 1169 1170 1172 1173 1173 1173 1172 1169 1166 1162 1157 1155 1151 1148 1142 1141 1138 1136 1135 1134 1134 1134 1134 1135 1137 1141 1142 1145 1149 1152 1154 1157 1160 1163 1164 1166 1168 1168 1168 1168 1167 1165 1160 1160 1153 1149 1145 1141 1138 1130 1127 1127 1127 1126 1126 1126 1126 1130 1130 1131 1131 1131 1131 1131 1133 1137 1140 1140 1140 1140 1139 1138 1138 1136 1133 1128 1122 1115 1112 1107 1102 1099 1093 1091 1090 1088 1085 1085 1085 1086 1088 1092 1094 1096 1096 1097 1097 1098 1101 1105 1105 1105 1105 1105 1107 1108 1110 1111 1113 1115 1117 1118 1123 1130 1138 1148 1155 1160 1163
1472 1451 1467 1463 1457 1460 1463 1463 1461 1465 1465 1465 1478 1486 1486 1486 1486 1486 1486 1492 1493 1494 1494 1494 1494 1499 1501 1501 1501 1501 1501 1507 1517 1518 1518 1518 1518 1519 1522 1529 1534 1540 1541 1541 1542 1542 1545 1555 1571 1575 1592 1605 1607 1620 1625 1638 1655 1678 1704 1745 1803 1830 1852 1867 1867 1869 1871 1871 1867 1862 1856 1856 1856 1862 1864 1864 1864 1862 1860 1856 1856 1828 1828 1817 1817 1815 0 0 0 0 1918 1923 1927 1927 1937 1954 1976 1988 1988 1989 1990 1990 1994 2003 2012 2021 2027 2027 2027 2026 2026 2026 2026 2026 2025 2026 2026 2026 2026 2028 2029 2030 2032 2034 2036 2036 2038 2038 2039 2044 2051 2055 2056 2057 2057 2075 2116 2160 2227 2263 2295 2316 2322 2331 2340 2340 2340 2326 2315 2308 2308 2308 2308 2309 2315 2319 2329 2330 2330 2330 2324 2318 2318 2318 2323 2337 2342 2348 2354 2358 2364 2364 2365 2366 2367 2369 2369 2372 2373 2373 2375 2373 2372 2370 2365 2351 2351 2351 2363 2373 2380 2384 2386 2386 2386 2384 2384 2384 2384 2386 2387 2387 2388 2388 2389 2390 2390 2390 2387 2378 2371 2366 2348 2343 0 0 2164 2126 2126 2126 2140 2148 2158 2158 2158 2153 2146 2146 2146 2150 2150 2150 2141 2141 2141 2146 2148 2149 2151 2152 2157 2161 2162 2164 2164 2164 2164 2164 2176 2206 2206 0 0 0 0 0 0 0 0 0 0 0 0 0 0 0 0 0 0 0 0 0 0 0 0 0 0 0 0 2253 2254 2260 2260 2260 2274 2303 2303 2303 2296 2291 2275 2275 2271 2261 2261 2261 2268 2268 2268 2261 2216 2216 2216 2244 2244 2244 2220 2220 2220 2227 0 2354 2367 2380 2404 2425 2425 2427 2425 2421 2415 2366 2298 2270 2224 2194 2167 2144 2129 2116 2101 2086 2076 2070 2065 2051 2044 2038 2035 2030 2026 2020 2015 2009 2003 1999 1995 1992 1989 1984 1979 1973 1969 1964 1960 1956 1954 1950 1947 1943 1939 1937 1933 1930 1926 1923 1920 1918 1916 1914 1913 1911 1910 1908 1906 1904 1902 1900 1898 1897 1895 1893 1891 1890 1889 1889 1888 1888 1887 1887 1886 1884 1883 1882 1881 1880 1879 1878 1876 1874 1872 1871 1871 1870 1870 1869 1869 1867 1867 1867 1866 1866 1865 1864 1863 1862 1862 1862 1860 1859 1858 1858 1857 1857 1856 1856 1856 1855 1855 1855 1855 1855 1855 1855 1855 1855 1855 1855 1855 1855 1854 1853 1852 1852 1851 1850 1850 1849 1848 1848 1847 1846 1845 1845 1844 1844 1843 1842 1841 1840 1840 1840 1839 1839 1839 1838 1838 1837 1835 1834 1833 1831 1830 1829 1827 1826 1825 1824 1824 1821 1820 1817 1813 1807 1800 1786 1765 1742 0 0 0 0 0 0 0 0 0 0 0 1338 1317 1303 1284 1268 1246 1219 1197 1184 1178 1169 1165 1165 1165 1165 1165 1166 1166 1166 1166 1167 1170 1170 1170 1170 1170 1166 1162 1158 1156 1151 1147 1143 1138 1135 1135 1135 1134 1133 1133 1133 1133 1133 1135 1138 1139 1141 1146 1148 1151 1152 1155 1155 1159 1161 1161 1161 1160 1160 1158 1157 1156 1150 1144 1139 1135 1132 1128 1121 1120 1120 1120 1120 1120 1120 1121 1121 1122 1123 1124 1125 1126 1128 1128 1131 1133 1133 1134 1134 1135 1135 1134 1132 1128 1122 1119 1112 1108 1105 1101 1092 1088 1086 1085 1084 1083 1083 1083 1084 1086 1088 1090 1091 1092 1093 1093 1095 1097 1100 1102 1102 1103 1104 1105 1106 1107 1107 1107 1109 1112 1117 1122 1130 1138 1148 1153 1160 1161
1459 1451 1459 1457 1452 1455 1456 1456 1456 1456 1456 1459 1459 1468 1468 1469 1469 1469 1475 1482 1484 1484 1485 1486 1489 1496 1496 1496 1496 1496 1497 1497 1503 1511 1511 1511 1511 1513 1516 1522 1529 1534 1538 1539 1540 1540 1541 1544 1567 1573 1595 1607 1616 1623 1625 1635 1653 1676 1702 1737 1782 1828 1842 1850 1864 1867 1871 1872 1874 1877 1878 1880 1884 1886 1886 1886 1880 1880 1875 1867 1862 1851 1851 1851 1854 1855 1861 1890 1919 1927 1929 1929 1933 1933 1933 1950 1969 1984 1984 1985 1985 1985 1992 2003 2008 2016 2022 2022 2022 2018 2018 2018 2019 2022 2024 2024 2024 2024 2024 2024 2025 2028 2029 2032 2034 2035 2035 2036 2036 2037 2046 2047 2049 2054 2056 2074 2116 2160 2212 2244 2294 2315 2317 2317 2322 2322 2322 2318 2315 2308 2306 2306 2306 2307 2308 2312 2318 2318 2318 2318 2313 2308 2308 2308 2319 2329 2337 2340 2342 2348 2353 2353 2353 2351 2349 2349 2347 2346 2346 2346 2355 2365 2365 2365 2360 2349 2349 2349 2349 2360 2368 2372 2378 2378 2378 2376 2376 2376 2380 2386 2386 2387 2388 2388 2388 2388 2383 2380 2380 2370 2366 2364 2348 2348 0 0 0 2126 2126 2126 2132 2148 2158 2158 2158 2153 2149 2148 2147 2144 2138 2131 2131 2131 2136 2141 2146 2148 2149 2152 2156 2158 2159 2164 2164 2164 2166 2168 2176 2206 2206 2206 0 0 0 0 0 0 0 0 0 0 0 0 0 0 0 0 0 0 0 0 0 2233 2227 2227 2227 2244 2282 2308 2308 2308 2284 2284 2284 2301 2301 2301 2286 2266 2254 2251 2248 2248 2248 2259 2268 2268 2268 2261 2235 2235 2235 2257 2257 2257 2232 2227 2227 0 0 0 2374 2393 2427 2460 2460 2471 2471 2471 0 0 0 2268 2212 2181 2163 2135 2120 2109 2097 2086 2076 2071 2066 2059 2048 2043 2036 2030 2026 2020 2013 2009 2003 1998 1994 1989 1986 1983 1977 1972 1967 1964 1960 1956 1953 1950 1947 1942 1939 1937 1933 1929 1926 1923 1919 1917 1915 1914 1912 1911 1909 1908 1906 1904 1902 1900 1898 1897 1895 1893 1891 1890 1890 1889 1889 1888 1888 1887 1887 1885 1884 1882 1881 1880 1880 1879 1876 1875 1872 1872 1871 1871 1870 1869 1869 1868 1867 1867 1866 1866 1866 1865 1864 1863 1863 1862 1861 1861 1860 1859 1858 1858 1858 1857 1857 1856 1856 1856 1856 1856 1856 1856 1856 1856 1856 1855 1855 1855 1854 1853 1853 1852 1851 1850 1850 1849 1848 1848 1847 1846 1845 1845 1844 1844 1843 1843 1841 1841 1840 1840 1840 1840 1839 1839 1838 1837 1835 1833 1831 1831 1829 1828 1826 1826 1825 1824 1824 1821 1819 1814 1807 1797 1782 1759 0 0 0 0 0 0 0 0 0 0 0 1348 1324 1301 1288 1278 1269 1251 1229 1209 1193 1178 1174 1168 1165 1162 1162 1162 1164 1164 1164 1164 1164 1164 1167 1169 1169 1169 1167 1162 1157 1155 1151 1148 1143 1138 1134 1133 1132 1132 1132 1131 1131 1131 1131 1131 1134 1136 1137 1140 1143 1145 1146 1148 1150 1151 1154 1155 1155 1155 1154 1152 1152 1149 1143 1139 1134 1130 1128 1124 1117 1114 1114 1113 1113 1114 1114 1114 1115 1116 1117 1119 1120 1123 1123 1124 1125 1128 1128 1128 1130 1131 1131 1131 1131 1127 1120 1119 1112 1107 1105 1103 1099 1092 1085 1081 1080 1080 1080 1080 1080 1081 1083 1084 1087 1088 1089 1089 1091 1094 1096 1097 1100 1101 1101 1102 1104 1105 1105 1105 1105 1105 1107 1113 1121 1130 1138 1146 1153 1159 1159
1459 1451 1451 1451 1451 1451 1453 1453 1454 1454 1453 1454 1454 1458 1458 1459 1460 1462 1466 1469 1471 1471 1472 1473 1477 1484 1484 1487 1489 1489 1490 1492 1492 1497 1503 1503 1505 1507 1512 1517 1523 1529 1531 1533 1533 1533 1534 1534 1549 1573 1595 1607 1616 1618 1624 1624 1648 1667 1695 1735 1770 1808 1822 1836 1851 1864 1867 1871 1874 1878 1885 1888 1889 1889 1889 1889 1887 1885 1885 1885 1888 1890 1897 1898 1900 1902 1904 1913 1919 1927 1927 1927 1927 1927 1929 1946 1964 1978 1978 1978 1981 1983 1992 2002 2005 2013 2018 2018 2018 2012 2012 2012 2018 2022 2024 2024 2024 2023 2022 2021 2021 2021 2023 2026 2030 2030 2032 2032 2032 2034 2041 2045 2046 2047 2054 2074 2116 2159 2199 2243 2281 2308 2311 2311 2316 2316 2316 2316 2313 2308 2305 2305 2305 2305 2305 2307 2310 2310 2310 2310 2307 2307 2307 2307 2317 2326 2330 2331 2332 2335 2338 2339 2342 2342 2342 2339 2336 2326 2326 2326 2334 2364 2364 2364 2356 2340 2337 2337 2337 2348 2360 2365 2367 2369 2370 2370 2375 2375 2376 2381 2385 2386 2387 2387 2387 2387 2378 2373 2367 2367 2364 2362 2349 2348 0 0 0 2126 2126 2126 2128 2146 2158 2158 2158 2153 2149 2149 2147 2144 2138 2131 2131 2131 2136 2140 2140 2140 2140 2140 2152 2158 2159 2166 2166 2166 2166 2169 2169 2192 2192 2192 0 0 0 0 0 0 0 0 0 0 0 0 0 0 0 0 0 2223 2233 2242 2242 2233 2233 2233 2233 2270 2306 2344 2344 2344 2303 2303 2286 2278 2278 2269 2259 2237 2229 2229 2229 2229 2245 2246 2268 2268 2268 2264 2264 2264 2275 2296 2296 2296 2258 2258 0 0 0 0 0 2455 2478 2503 2531 2531 2531 0 0 0 0 2217 2201 2177 2154 2127 2115 2106 2095 2086 2076 2074 2066 2059 2048 2045 2037 2031 2026 2020 2015 2009 2003 1998 1994 1988 1985 1981 1976 1970 1966 1963 1959 1956 1953 1949 1945 1942 1939 1935 1932 1929 1925 1922 1919 1917 1915 1914 1912 1910 1909 1908 1905 1903 1902 1900 1899 1897 1895 1893 1892 1891 1890 1889 1889 1889 1888 1887 1887 1885 1884 1882 1882 1880 1880 1879 1877 1875 1874 1872 1872 1871 1870 1870 1869 1869 1868 1868 1867 1867 1867 1867 1865 1865 1864 1863 1863 1862 1861 1859 1859 1858 1858 1858 1858 1858 1857 1857 1857 1857 1857 1857 1857 1857 1857 1856 1855 1855 1854 1853 1853 1852 1851 1850 1850 1849 1848 1848 1847 1846 1846 1845 1844 1844 1843 1843 1842 1841 1841 1841 1840 1840 1839 1839 1838 1837 1835 1832 1829 1828 1827 1826 1826 1825 1824 1824 1824 1818 1809 1799 1788 1773 0 0 0 0 0 0 0 0 0 0 0 0 1315 1312 1295 1278 1268 1260 1253 1237 1219 1203 1189 1177 1171 1168 1164 1162 1162 1162 1162 1162 1162 1162 1162 1162 1163 1165 1165 1165 1163 1157 1153 1151 1146 1143 1138 1134 1130 1129 1128 1128 1127 1127 1128 1128 1129 1130 1133 1135 1137 1139 1140 1141 1143 1144 1146 1148 1151 1151 1151 1150 1149 1148 1145 1140 1134 1129 1127 1123 1121 1117 1112 1109 1108 1108 1109 1109 1109 1110 1110 1112 1113 1115 1118 1120 1121 1121 1123 1126 1126 1126 1126 1126 1126 1124 1123 1122 1117 1111 1107 1104 1102 1100 1096 1089 1083 1079 1079 1078 1078 1078 1078 1078 1079 1080 1082 1085 1085 1088 1090 1092 1094 1095 1098 1099 1100 1100 1102 1103 1103 1103 1105 1105 1106 1112 1121 1130 1138 1146 1152 1155 1155
1459 1450 1450 1446 1445 1445 1445 1452 1452 1452 1451 1451 1451 1454 1455 1456 1458 1459 1459 1460 1460 1461 1463 1465 1471 1478 1480 1480 1481 1482 1484 1485 1485 1491 1495 1496 1499 1502 1505 1512 1517 1520 1523 1525 1525 1525 1525 1526 1535 1563 1595 1607 1607 1607 1609 1609 1623 1652 1695 1730 1766 1799 1803 1823 1843 1858 1866 1868 1870 1879 1886 1891 1892 1892 1892 1891 1887 1885 1885 1885 1888 1890 1897 1898 1904 1905 1908 1914 1921 1927 1927 1927 1927 1927 1928 1943 1958 1969 1971 1972 1973 1979 1991 1997 2004 2008 2010 2010 2010 2010 2010 2011 2018 2022 2023 2023 2023 2023 2022 2021 2018 2018 2018 2022 2026 2029 2030 2031 2032 2034 2035 2041 2041 2044 2054 2074 2126 2158 2198 2243 2249 2273 2296 2303 2306 2311 2311 2311 2311 2308 2305 2302 2301 2301 2301 2303 2306 2306 2306 2304 2303 2303 2304 2304 2317 2323 2325 2325 2327 2327 2328 2329 2332 2337 2337 2337 2336 2325 2325 2325 2331 2352 2352 2352 2352 2338 2335 2335 2335 2346 2351 2363 2363 2364 2364 2370 2374 2375 2376 2376 2378 2379 2379 2379 2379 2378 2372 2364 2362 2361 2361 2361 2361 2361 2359 0 0 2155 2133 2133 2133 2144 2145 2146 2147 2147 2147 2147 2147 2144 2138 2131 2131 2131 2130 2130 2130 2130 2130 2130 2152 2158 2162 2166 2166 2166 2166 2169 2169 2189 2189 2189 0 0 0 0 0 0 0 0 0 0 0 0 0 0 0 0 2191 2223 2233 2233 2233 2228 2228 2228 2256 2291 2313 2352 2379 2379 2379 2279 2275 2274 2265 2243 2227 2220 2211 2211 2211 2225 2239 2241 2283 2283 2297 2297 2291 2291 2297 2303 2303 2312 2326 0 0 0 0 2462 2490 2506 2519 2534 2534 2534 2534 0 0 0 0 2205 2187 2166 2145 2124 2115 2106 2093 2086 2079 2074 2066 2059 2050 2046 2038 2031 2026 2020 2015 2009 2003 1998 1994 1988 1985 1981 1976 1970 1965 1962 1958 1954 1951 1947 1943 1940 1938 1935 1932 1929 1925 1922 1920 1917 1915 1913 1912 1910 1909 1907 1905 1903 1902 1900 1899 1898 1896 1895 1894 1892 1890 1890 1889 1889 1889 1889 1887 1886 1884 1883 1882 1881 1880 1879 1878 1875 1874 1872 1872 1871 1870 1870 1870 1870 1870 1870 1869 1869 1868 1868 1867 1866 1865 1865 1864 1864 1862 1861 1860 1859 1859 1859 1859 1859 1859 1858 1858 1858 1858 1858 1858 1858 1857 1856 1855 1855 1854 1854 1853 1852 1851 1850 1850 1850 1848 1848 1848 1846 1846 1845 1844 1844 1843 1843 1842 1842 1841 1841 1840 1840 1840 1839 1838 1837 1835 1832 1829 1826 1824 1823 1823 1823 1823 1823 1821 1806 1788 1771 0 0 0 0 0 0 0 0 0 0 0 0 1322 1297 1295 1284 1272 1263 1256 1248 1238 1225 1209 1197 1182 1176 1171 1168 1164 1161 1160 1160 1160 1160 1160 1160 1160 1160 1160 1160 1160 1160 1157 1152 1150 1145 1141 1138 1134 1131 1128 1127 1127 1127 1127 1127 1127 1127 1129 1130 1133 1134 1136 1138 1139 1140 1142 1143 1145 1147 1147 1147 1147 1145 1144 1142 1138 1133 1127 1122 1119 1118 1115 1111 1107 1106 1105 1105 1105 1105 1106 1107 1107 1109 1111 1113 1115 1116 1118 1119 1122 1124 1124 1124 1123 1122 1122 1121 1120 1114 1109 1105 1103 1101 1098 1096 1089 1085 1081 1078 1076 1075 1075 1075 1075 1075 1075 1077 1080 1082 1084 1084 1087 1089 1091 1092 1094 1095 1096 1096 1098 1100 1101 1101 1101 1101 1101 1110 1120 1128 1137 1144 1148 1148 1148
1459 1450 1450 1446 1443 1438 1438 1438 1441 1442 1443 1443 1447 1452 1455 1456 1456 1456 1454 1454 1454 1454 1457 1461 1468 1472 1473 1473 1473 1476 1477 1478 1480 1481 1485 1487 1491 1492 1498 1506 1509 1511 1512 1513 1515 1515 1516 1516 1523 1542 1567 1571 1580 1583 1590 1590 1602 1635 1675 1708 1737 1764 1796 1812 1833 1852 1866 1867 1870 1878 1886 1891 1892 1892 1892 1889 1887 1885 1885 1885 1888 1890 1897 1898 1904 1906 1912 1914 1921 1924 1924 1924 1926 1926 1926 1938 1954 1959 1960 1961 1964 1971 1979 1993 1996 1999 1999 2001 2001 2004 2005 2010 2016 2021 2023 2023 2023 2021 2019 2015 2015 2015 2017 2022 2025 2027 2029 2030 2032 2034 2034 2035 2038 2038 2056 2090 2126 2159 2187 2230 2234 2248 2261 2286 2294 2301 2305 2308 2308 2308 2305 2302 2299 2299 2299 2302 2305 2305 2305 2302 2302 2302 2302 2304 2312 2317 2319 2322 2322 2323 2324 2325 2332 2335 2336 2336 2336 2325 2325 2325 2331 2338 2346 2346 2346 2338 2329 2329 2329 2335 2347 2358 2360 2361 2363 2368 2369 2372 2372 2371 2371 2370 2368 2368 2367 2367 2363 2357 2357 2357 2359 2361 2361 2359 2359 0 0 2171 2133 2125 2125 2125 2125 2129 2129 2130 2147 2147 2147 2144 2140 2137 2133 2133 2130 2118 2105 2105 2105 2130 2152 2161 2168 2177 2177 2177 2177 2177 2177 2185 2185 2185 0 0 0 0 0 0 0 0 0 0 0 0 0 0 2162 2166 2192 2215 2218 2218 2218 2218 2218 2223 2256 2291 2313 2352 2384 2384 2384 2281 2261 2259 2253 2218 2211 2211 2208 2211 2211 2214 2220 2232 2283 2315 2315 2315 2310 2310 2310 2311 2313 2330 0 0 0 0 2476 2508 2511 2521 2521 2540 2540 2540 2540 0 0 0 0 2187 2175 2157 2137 2123 2113 2104 2093 2087 2081 2074 2065 2057 2050 2046 2039 2031 2026 2019 2014 2010 2005 2000 1994 1988 1985 1981 1976 1970 1965 1962 1958 1954 1949 1945 1942 1939 1936 1935 1932 1929 1925 1922 1920 1917 1915 1913 1912 1910 1909 1907 1905 1904 1902 1901 1899 1898 1896 1895 1894 1892 1890 1890 1889 1889 1889 1889 1888 1886 1885 1884 1882 1881 1881 1880 1878 1875 1874 1873 1872 1871 1871 1871 1871 1870 1870 1870 1870 1870 1869 1869 1868 1867 1866 1866 1865 1865 1863 1862 1861 1860 1860 1860 1860 1860 1860 1860 1858 1858 1858 1858 1858 1858 1857 1856 1855 1854 1854 1854 1853 1852 1850 1850 1850 1850 1849 1848 1848 1847 1846 1845 1844 1844 1844 1843 1842 1842 1842 1842 1841 1840 1840 1839 1838 1837 1835 1832 1829 1826 1824 1822 1821 1821 1820 1819 1806 1781 1756 0 0 0 0 0 0 0 0 0 0 1361 1339 1321 1298 1296 1278 1269 1259 1252 1245 1236 1224 1212 1201 1188 1179 1173 1170 1167 1164 1161 1159 1159 1158 1158 1158 1157 1157 1157 1156 1156 1155 1154 1151 1149 1144 1139 1136 1132 1129 1128 1126 1125 1124 1124 1124 1124 1125 1125 1127 1130 1131 1133 1135 1137 1139 1140 1142 1143 1144 1145 1145 1145 1143 1141 1138 1135 1132 1126 1121 1116 1113 1111 1109 1107 1104 1104 1104 1103 1103 1103 1104 1105 1106 1108 1109 1110 1112 1114 1114 1116 1119 1124 1124 1124 1123 1119 1118 1118 1113 1108 1103 1100 1099 1097 1093 1088 1084 1080 1078 1077 1074 1073 1072 1072 1072 1073 1073 1076 1078 1080 1081 1082 1084 1085 1086 1090 1090 1091 1091 1093 1094 1096 1099 1099 1100 1100 1100 1106 1115 1126 1135 1140 1141 1141 1143
1455 1450 1450 1439 1439 1435 1433 1433 1433 1435 1438 1439 1444 1449 1454 1454 1454 1453 1451 1451 1451 1451 1455 1459 1464 1464 1466 1466 1466 1469 1470 1471 1471 1472 1473 1477 1482 1485 1491 1495 1497 1499 1500 1504 1507 1507 1509 1509 1514 1527 1544 1555 1557 1561 1562 1573 1589 1601 1620 1670 0 1720 1754 1809 1832 1849 1862 1866 1869 1877 1886 1891 1892 1892 1892 1888 1885 1885 1883 1883 1884 1885 1888 1898 1904 1909 1916 1919 1919 1921 1923 1923 1923 1923 1926 1934 1946 1952 1955 1956 1957 1961 1964 1971 1980 1983 1990 1994 1997 1999 2002 2006 2007 2011 2014 2017 2017 2017 2014 2010 2010 2010 2012 2017 2023 2026 2029 2030 2032 2034 2034 2034 2034 2038 2062 2098 2127 2163 2181 2206 2230 2244 2252 2270 2282 2287 2294 2300 2300 2300 2300 2298 2298 2298 2299 2302 2302 2302 2302 2302 2300 2300 2300 2304 2306 2309 2317 2318 2318 2319 2319 2324 2330 2335 2335 2335 2335 2325 2325 2325 2331 2338 2343 2343 2343 2338 2329 2329 2329 2330 2344 2355 2357 2357 2360 2367 2368 2368 2368 2367 2366 2362 2360 2360 2359 2357 2353 2349 2349 2349 2355 2359 2359 2359 2359 0 0 0 2133 2119 2101 2101 2098 2098 2103 2113 2147 2150 2156 2156 2157 2157 2157 2154 2133 2118 2105 2105 2105 2130 2163 2182 2183 2186 2187 2187 2185 2187 2187 2185 2185 2185 0 0 0 0 0 0 0 0 0 0 0 2180 2189 2189 2192 2192 2192 2215 2218 2218 2218 2218 2218 2223 2256 2291 2313 2352 2384 2384 2384 2283 2261 2259 2253 2218 2211 2211 2208 2204 2195 2195 2195 2232 2283 2335 2335 2335 2317 2317 2317 2334 0 0 0 0 0 0 2523 2528 2542 2546 2548 2548 2546 2526 2487 0 0 0 2198 2185 2172 2149 2133 2123 2113 2103 2093 2088 2082 2075 2064 2056 2050 2046 2042 2031 2026 2019 2014 2010 2005 2000 1996 1991 1986 1981 1976 1972 1965 1962 1958 1954 1949 1945 1942 1939 1936 1935 1932 1929 1925 1922 1920 1918 1915 1913 1912 1910 1909 1907 1905 1904 1903 1901 1900 1898 1896 1895 1894 1892 1891 1890 1889 1889 1889 1889 1888 1887 1886 1885 1884 1883 1882 1880 1878 1876 1874 1873 1873 1871 1871 1871 1871 1871 1871 1871 1871 1871 1870 1870 1869 1868 1867 1866 1865 1865 1864 1863 1862 1861 1861 1861 1861 1861 1860 1860 1860 1859 1859 1859 1859 1858 1857 1856 1855 1854 1854 1853 1853 1852 1850 1850 1850 1850 1849 1848 1848 1847 1846 1845 1844 1844 1844 1843 1843 1842 1842 1842 1841 1840 1840 1839 1838 1837 1836 1834 1831 1826 1824 1822 1820 1817 1812 1798 1775 0 0 0 0 0 0 0 0 0 0 1375 1352 1330 1312 1294 1280 1279 1266 1258 1249 1242 1235 1225 1212 1204 1194 1179 1171 1170 1168 1166 1163 1160 1158 1157 1156 1156 1156 1156 1156 1154 1153 1153 1151 1149 1146 1144 1139 1134 1131 1128 1126 1125 1123 1123 1123 1123 1123 1123 1124 1125 1127 1128 1130 1132 1134 1136 1138 1140 1142 1142 1143 1143 1143 1141 1138 1135 1130 1127 1124 1119 1114 1110 1107 1105 1104 1102 1101 1100 1100 1100 1101 1101 1102 1104 1105 1106 1108 1109 1110 1110 1112 1114 1117 1120 1120 1120 1120 1117 1115 1112 1107 1103 1099 1096 1093 1090 1086 1082 1079 1077 1076 1074 1074 1072 1071 1071 1071 1071 1071 1073 1076 1077 1078 1078 1079 1079 1084 1087 1088 1088 1088 1088 1092 1095 1099 1099 1099 1099 1099 1104 1111 1121 1130 1134 1135 1139 1141
1445 1437 1437 1430 1430 1429 1428 1428 1428 1429 1431 1433 1436 1444 1448 1448 1448 1445 1445 1445 1445 1451 1452 1453 1458 1459 1460 1461 1463 1463 1463 1464 1463 1463 1465 1466 1472 1474 1482 1485 1488 1489 1494 1501 1504 1505 1505 1508 1512 1519 1533 1537 1539 1543 1543 1560 1576 1581 1593 1636 0 0 1730 1775 1830 1849 1860 1865 1868 1876 1883 1884 1884 1885 1885 1885 1885 1883 1883 1883 1883 1884 1888 1896 1904 1909 1916 1919 1919 1921 1921 1921 1921 1923 1926 1932 1941 1944 1946 1948 1951 1952 1957 1957 1970 1982 1986 1991 1993 1994 1995 1995 1995 1995 1998 2006 2010 2010 2010 2010 2010 2010 2012 2017 2020 2024 2028 2030 2032 2034 2034 2034 2035 2038 2065 2100 2147 2169 2173 2202 2230 2244 2252 2254 2261 2272 2279 2286 2293 2293 2293 2292 2292 2292 2296 2298 2298 2298 2298 2298 2298 2298 2298 2298 2299 2301 2306 2311 2313 2314 2315 2323 2330 2334 2335 2335 2335 2325 2325 2325 2331 2337 2341 2341 2341 2338 2329 2329 2329 2329 2337 2349 2351 2352 2357 2366 2366 2366 2365 2360 2360 2357 2357 2355 2354 2352 2346 2343 2343 2343 2347 2355 2357 2357 2357 2290 0 0 2127 2093 2090 2086 2086 2090 2098 2113 2147 2155 2158 2161 2172 2188 2188 2188 2149 2118 2105 2105 2105 2140 2171 2182 2183 2186 2187 2187 2185 2185 2185 2185 2184 2184 0 0 0 0 0 0 0 0 0 2180 2180 2180 2194 2194 2195 2205 2205 2215 2218 2218 2218 2218 2218 2227 2254 2273 2280 2305 2381 2381 2381 2324 2261 2259 2253 2218 2211 2211 2208 2207 2195 2195 2195 2232 2287 2353 2353 2353 0 0 0 0 0 0 0 2507 2545 2548 2550 2552 2558 2568 2568 2568 2542 2520 2456 0 0 0 2191 2182 2164 2140 2120 2113 2113 2101 2095 2090 2082 2073 2063 2056 2051 2046 2042 2032 2025 2018 2014 2010 2005 2000 1996 1992 1987 1981 1977 1972 1967 1963 1958 1954 1949 1945 1942 1939 1936 1935 1933 1930 1926 1922 1920 1918 1915 1913 1912 1911 1909 1907 1905 1904 1903 1901 1900 1899 1896 1895 1894 1892 1891 1890 1890 1889 1889 1888 1888 1887 1886 1885 1884 1883 1882 1880 1878 1876 1874 1873 1873 1872 1871 1871 1871 1871 1871 1871 1871 1871 1870 1870 1869 1869 1868 1867 1866 1866 1865 1864 1863 1862 1862 1862 1862 1861 1861 1861 1860 1860 1860 1860 1859 1859 1857 1856 1855 1854 1854 1853 1852 1852 1850 1850 1850 1849 1849 1848 1848 1847 1846 1845 1844 1844 1844 1843 1843 1842 1842 1842 1841 1840 1840 1839 1837 1836 1836 1835 1831 1827 1823 1818 1812 1804 1790 1769 0 0 0 0 0 0 0 0 0 0 1366 1349 1335 1313 1293 1276 1273 1260 1253 1244 1239 1235 1226 1216 1204 1197 1186 1173 1168 1167 1164 1163 1161 1158 1156 1155 1154 1154 1154 1153 1152 1152 1151 1150 1148 1145 1143 1139 1136 1131 1128 1126 1123 1122 1121 1121 1121 1121 1121 1122 1122 1124 1125 1127 1128 1130 1133 1135 1137 1140 1141 1142 1142 1142 1140 1136 1132 1127 1123 1120 1116 1113 1108 1104 1103 1102 1100 1098 1098 1097 1097 1097 1098 1098 1100 1101 1102 1105 1107 1108 1108 1109 1110 1114 1116 1119 1119 1119 1117 1114 1110 1107 1103 1099 1096 1092 1089 1085 1081 1078 1076 1074 1074 1073 1072 1071 1070 1070 1069 1069 1069 1070 1072 1072 1072 1073 1073 1077 1082 1085 1085 1086 1086 1086 1087 1088 1092 1095 1095 1097 1098 1104 1110 1119 1127 1132 1133 1139 1140
1439 1433 1433 1430 1429 1428 1428 1428 1428 1429 1430 1432 1434 1441 1441 1441 1440 1438 1438 1438 1443 1445 1446 1448 1449 1453 1457 1460 1461 1461 1461 1459 1458 1458 1458 1459 1464 1471 1473 1474 1475 1476 1485 1495 1503 1504 1505 1507 1511 1519 1528 1531 1532 1533 1534 1547 1563 1571 1580 1610 1638 1667 1702 0 0 1842 1860 1865 1865 1871 1877 1878 1878 1878 1880 1880 1880 1880 1880 1881 1882 1884 1888 1896 1903 1909 1916 1919 1919 1919 1920 1920 1923 1926 1929 1932 1934 1935 1937 1941 1943 1946 1948 1949 1966 1978 1985 1988 1988 1988 1985 1984 1984 1984 1984 1997 2002 2004 2005 2005 2007 2010 2012 2017 2020 2024 2028 2030 2032 2032 2033 2033 2034 2040 2065 2119 2169 2170 2191 2194 2227 2244 2248 2250 2251 2259 2267 2279 2289 2289 2289 2289 2289 2289 2292 2292 2292 2291 2291 2291 2291 2291 2291 2292 2293 2294 2298 2302 2305 2308 2312 2321 2330 2332 2332 2332 2330 2325 2325 2325 2331 2334 2337 2338 2338 2338 2329 2328 2328 2328 2332 2338 2340 2342 2347 2356 2360 2360 2360 2354 2353 2353 2351 2351 2351 2346 2344 2342 2340 2340 2340 2347 2347 2347 2324 2290 2247 0 2127 2086 2086 2085 2086 2090 2098 2113 2147 2170 2174 2175 2196 2196 2196 2188 2149 2120 2120 2120 2137 2157 2173 2182 2182 2182 2186 2185 2179 2183 2185 2185 2183 2183 0 0 0 0 0 0 2194 2194 2194 2180 2180 2180 2194 2194 2203 2206 2206 2221 2221 2221 2218 2218 2218 2223 2244 2257 2269 2288 2339 2345 2345 2345 2323 2299 2279 2247 2244 2241 2238 2207 2195 2195 2195 0 0 0 0 0 2419 2456 2509 2535 2535 2538 2541 2541 2561 2572 2580 2580 2589 2589 2589 2589 2534 2478 2356 2304 2250 2213 2189 2165 2147 2131 2120 2112 2104 2100 2095 2090 2082 2073 2062 2056 2052 2047 2042 2034 2025 2018 2012 2007 2004 2000 1996 1992 1987 1983 1977 1973 1970 1966 1962 1959 1953 1946 1942 1939 1937 1935 1933 1931 1928 1924 1920 1918 1915 1913 1912 1911 1909 1907 1905 1904 1903 1901 1900 1898 1897 1895 1894 1892 1891 1890 1890 1890 1889 1888 1887 1887 1886 1885 1884 1883 1882 1881 1879 1878 1876 1875 1873 1872 1872 1872 1872 1872 1872 1872 1872 1871 1871 1871 1870 1870 1869 1869 1867 1867 1866 1865 1864 1864 1863 1863 1863 1863 1863 1862 1861 1860 1860 1860 1859 1859 1859 1858 1857 1855 1854 1853 1852 1852 1850 1850 1849 1849 1848 1848 1848 1847 1846 1845 1844 1844 1844 1843 1843 1842 1841 1841 1841 1840 1840 1839 1836 1836 1835 1835 1833 1827 1820 1810 1798 1782 1760 0 0 0 0 0 0 0 0 0 1378 1358 1344 1332 1313 1290 1272 1270 1260 1249 1241 1236 1231 1227 1218 1208 1198 1191 1182 1173 1167 1165 1164 1161 1159 1156 1154 1153 1153 1152 1152 1152 1150 1150 1149 1147 1145 1142 1139 1136 1131 1129 1125 1123 1121 1119 1119 1119 1119 1119 1119 1120 1121 1123 1124 1125 1128 1129 1131 1133 1137 1137 1139 1139 1139 1139 1136 1131 1126 1120 1117 1114 1111 1107 1103 1100 1099 1098 1098 1096 1095 1095 1095 1095 1095 1096 1097 1098 1100 1103 1105 1106 1107 1109 1110 1113 1115 1116 1116 1116 1115 1113 1109 1104 1099 1093 1092 1087 1084 1079 1077 1075 1074 1073 1073 1072 1071 1068 1068 1068 1067 1067 1067 1067 1069 1069 1070 1070 1072 1076 1080 1083 1083 1083 1084 1084 1084 1087 1089 1090 1091 1091 1096 1104 1110 1118 1125 1132 1132 1139 1139
1436 1432 1432 1430 1429 1428 1428 1428 1428 1428 1429 1431 1433 1434 1436 1436 1436 1437 1437 1437 1439 1441 1441 1441 1444 1448 1456 1459 1459 1459 1459 1456 1453 1451 1451 1451 1459 1461 1464 1466 1466 1466 1474 1486 1496 1501 1504 1506 1510 1519 1527 1528 1529 1530 1531 1537 1556 1562 1564 1583 1608 1640 1681 0 0 1828 1853 1860 1864 1867 1872 1872 1873 1872 1872 1872 1872 1872 1872 1877 1882 1885 1888 1894 1903 1909 1912 1912 1913 1915 1916 1920 1923 1926 1929 1929 1930 1930 1933 1938 1940 1940 1944 1945 1957 1971 1978 1979 1979 1979 1978 1973 1973 1973 1974 1984 1993 1997 2001 2004 2007 2013 2015 2017 2019 2023 2026 2029 2030 2031 2033 2034 2034 2040 2078 2136 2161 2169 2178 2178 2218 2244 2247 2248 2250 2255 2263 2275 2283 2283 2283 2284 2284 2284 2288 2288 2288 2285 2285 2285 2285 2285 2286 2286 2287 2287 2290 2295 2295 2297 2298 2311 2324 2326 2326 2326 2322 2322 2322 2325 2328 2328 2328 2328 2328 2327 2327 2323 2323 2323 2326 2328 2331 2332 2335 2336 2341 2346 2346 2346 2346 2346 2346 2346 2346 2344 2341 2337 2333 2333 2332 2330 2326 2304 2301 2272 2249 0 2127 2086 2086 2085 2086 2090 2098 2135 2173 2186 2191 2195 2196 2196 2196 2188 2149 2120 2120 2120 2137 2168 2176 2176 2176 2159 2159 2159 2171 2183 2184 2185 2185 2189 2189 2214 2215 2217 2217 2217 2214 2205 2168 2168 2168 2173 2194 2201 2210 2211 2212 2222 2222 2222 2218 2217 2217 2217 2234 2251 2267 2283 2316 2338 2345 2345 2345 2342 2305 2292 2282 2276 2265 2236 2236 2236 0 0 0 0 2446 2457 2471 2527 2559 2559 2559 2560 2560 2560 2581 2603 2607 2610 2610 2607 2606 2589 2525 0 0 2257 2227 2188 2171 2148 2137 2128 2120 2110 2102 2097 2095 2090 2081 2071 2062 2056 2052 2047 2042 2033 2025 2018 2012 2003 2000 1998 1996 1993 1987 1984 1980 1976 1972 1970 1966 1960 1955 1949 1944 1940 1937 1936 1935 1932 1928 1924 1921 1918 1916 1914 1912 1911 1909 1906 1905 1903 1902 1901 1900 1898 1897 1895 1894 1893 1892 1890 1890 1890 1889 1887 1887 1886 1886 1885 1884 1883 1882 1881 1880 1880 1878 1876 1876 1874 1873 1872 1872 1872 1872 1872 1872 1872 1871 1871 1870 1870 1870 1870 1869 1867 1866 1866 1865 1865 1865 1865 1864 1864 1864 1863 1862 1862 1861 1860 1859 1859 1859 1858 1857 1855 1853 1853 1852 1852 1850 1850 1849 1848 1848 1848 1847 1847 1846 1845 1844 1844 1844 1844 1843 1841 1841 1840 1839 1839 1838 1838 1836 1836 1835 1834 1833 1827 1816 1799 1778 0 0 0 0 0 0 0 0 0 0 1364 1347 1333 1317 1305 1287 1274 1262 1260 1251 1241 1235 1229 1224 1218 1211 1201 1195 1187 1179 1172 1167 1164 1161 1160 1156 1154 1153 1151 1151 1151 1150 1150 1149 1148 1146 1145 1141 1139 1136 1131 1128 1125 1123 1120 1118 1118 1118 1117 1117 1117 1117 1118 1120 1122 1123 1124 1127 1129 1131 1133 1135 1135 1135 1135 1135 1134 1131 1127 1121 1116 1112 1109 1106 1102 1099 1097 1096 1095 1095 1094 1093 1093 1093 1093 1094 1094 1096 1098 1100 1102 1104 1106 1107 1109 1110 1113 1114 1114 1114 1114 1114 1112 1108 1100 1094 1090 1088 1083 1079 1075 1073 1072 1072 1072 1071 1069 1068 1066 1065 1065 1065 1065 1065 1066 1067 1068 1069 1070 1071 1075 1079 1079 1082 1082 1083 1083 1083 1084 1085 1085 1089 1091 1096 1104 1110 1117 1125 1126 1132 1139 1139
1434 1432 1433 1432 1431 1428 1428 1427 1427 1427 1428 1428 1428 1429 1429 1430 1432 1433 1433 1435 1437 1438 1438 1438 1442 1446 1455 1456 1456 1456 1456 1452 1447 1442 1442 1442 1451 1455 1457 1457 1459 1461 1467 1476 1483 1491 1502 1506 1510 1514 1521 1521 1522 1523 1523 1524 1534 1552 1554 1562 1583 1615 1658 0 0 1798 1837 1850 1855 1866 1868 1868 1868 1866 1866 1866 1866 1867 1870 1873 1881 1885 1888 1894 1899 1904 1906 1906 1907 1907 1911 1918 1923 1926 1926 1927 1928 1928 1933 1935 1936 1937 1938 1938 1952 1964 1964 1965 1967 1967 1967 1967 1967 1967 1969 1976 1986 1993 1996 2002 2007 2013 2015 2017 2018 2019 2020 2024 2027 2029 2033 2035 2036 2047 2078 2136 2147 2147 2165 2165 2173 2218 2243 2244 2248 2251 2261 2274 2276 2278 2281 2281 2282 2281 2281 2281 2280 2279 2279 2279 2281 2281 2281 2281 2281 2282 2283 2287 2287 2287 2289 2296 2306 2316 2316 2316 2308 2308 2308 2311 2321 2321 2321 2322 2321 2320 2319 2320 2320 2322 2323 2323 2323 2323 2324 2327 2329 2334 2336 2336 2338 2339 2342 2342 2342 2342 2335 2329 2322 2322 2322 2320 2311 2303 2289 2272 2251 2226 2166 2132 2127 2116 2116 2127 2127 2135 2173 2186 2191 2195 2196 2196 2196 2173 2139 2120 2120 2120 2137 2168 2171 2171 2171 2148 2148 2148 2171 2183 2188 2188 2188 2189 2199 2216 2217 2225 2225 2225 2214 2199 2168 2168 2168 2173 2194 2210 2212 2222 2227 2222 2219 2219 2190 2190 2190 2204 2230 2249 2267 2273 2282 2301 2345 2345 2345 2345 2316 2301 2298 2298 2294 2276 2276 0 0 0 0 2461 2469 2471 2520 2540 2560 2573 2577 2578 2578 2612 2635 2636 2636 2636 2623 2621 2606 2589 0 0 0 2223 2217 2183 2152 2138 2130 2127 2117 2108 2101 2097 2091 2083 2076 2065 2060 2055 2052 2047 2042 2033 2025 2019 2012 2003 1998 1997 1995 1993 1988 1984 1980 1976 1974 1971 1966 1960 1955 1951 1945 1941 1938 1937 1935 1932 1929 1924 1921 1918 1916 1914 1913 1911 1908 1906 1905 1903 1902 1901 1900 1899 1898 1896 1895 1894 1892 1891 1891 1890 1889 1887 1886 1886 1886 1885 1885 1883 1882 1881 1880 1880 1878 1877 1877 1876 1874 1874 1873 1872 1872 1872 1872 1872 1872 1871 1871 1871 1870 1870 1869 1868 1868 1867 1867 1867 1866 1866 1865 1864 1864 1864 1864 1863 1862 1860 1859 1859 1859 1858 1857 1855 1853 1852 1851 1850 1849 1849 1848 1848 1847 1847 1847 1847 1846 1845 1844 1844 1844 1844 1843 1841 1841 1840 1838 1838 1838 1838 1836 1834 1834 1833 1832 1822 1804 1776 0 0 0 0 0 0 0 0 0 1372 1358 1343 1325 1306 1298 1283 1272 1262 1259 1252 1245 1235 1229 1223 1217 1212 1207 1198 1193 1185 1177 1171 1167 1163 1160 1157 1156 1153 1151 1150 1150 1149 1149 1148 1147 1146 1144 1143 1140 1136 1133 1129 1125 1122 1120 1118 1116 1116 1116 1115 1115 1115 1116 1117 1119 1121 1122 1124 1126 1128 1130 1131 1132 1132 1132 1132 1132 1130 1125 1121 1115 1112 1108 1104 1101 1099 1096 1094 1093 1092 1092 1091 1091 1091 1091 1091 1093 1094 1096 1098 1100 1102 1104 1106 1107 1109 1110 1113 1113 1113 1113 1112 1111 1108 1104 1097 1091 1087 1084 1080 1076 1073 1072 1072 1071 1071 1069 1068 1067 1065 1064 1064 1064 1064 1064 1065 1066 1066 1069 1069 1071 1074 1077 1078 1081 1081 1082 1082 1082 1083 1084 1085 1089 1091 1096 1104 1110 1116 1124 1125 1132 1139 1139
1432 1432 1432 1432 1432 1431 1428 1424 1420 1419 1419 1419 1419 1419 1420 1424 1428 1429 1429 1430 1432 1433 1435 1438 1440 1445 1452 1452 1452 1449 1446 1443 1437 1435 1435 1435 1440 1444 1449 1451 1452 1459 1464 1470 1474 1483 1494 1502 1508 1509 1514 1514 1514 1515 1516 1518 1523 1537 1543 1547 1560 1588 1638 0 0 0 1818 1835 1843 1857 1866 1866 1866 1861 1861 1861 1863 1865 1868 1873 1879 1885 1888 1894 1895 1899 1900 1900 1902 1903 1906 1915 1919 1921 1922 1922 1924 1925 1931 1933 1933 1933 1933 1938 1945 1953 1954 1955 1959 1959 1962 1962 1963 1965 1967 1974 1986 1992 1996 1999 2006 2013 2013 2013 2014 2014 2016 2020 2023 2029 2036 2037 2040 2048 2085 2136 2147 2147 2158 2158 2170 2194 2218 2239 2240 2245 2257 2263 2268 2269 2275 2277 2277 2277 2276 2274 2273 2273 2273 2277 2277 2277 2275 2275 2275 2275 2279 2283 2283 2284 2286 2291 2293 2298 2298 2298 2295 2295 2295 2304 2315 2318 2318 2318 2318 2316 2316 2316 2318 2322 2322 2322 2319 2319 2319 2320 2326 2326 2326 2327 2328 2330 2332 2337 2337 2337 2328 2317 2312 2312 2311 2311 2311 2303 2289 2272 2263 2253 2205 2169 2163 2157 2157 2136 2136 2136 2173 2186 2186 2186 2178 2175 2175 2151 2120 2091 2091 2091 2120 2168 2168 2168 2168 2148 2148 2148 2171 2194 2194 2194 2200 2200 2200 2217 2217 2229 2229 2229 2214 2194 2163 2163 2163 2181 2200 2221 2221 2222 2222 2212 2208 2198 2190 2190 2190 2197 2219 2249 2265 2272 2272 2273 2332 2351 2351 2351 2320 2320 2320 2314 2314 2321 0 0 0 0 0 2488 2494 2508 2529 2562 2586 2608 2621 2632 2636 2639 2640 2640 2640 2637 2629 2621 2601 2531 0 0 0 2204 2199 2166 2143 2132 2129 2125 2117 2108 2099 2094 2087 2076 2069 2064 2058 2055 2052 2047 2040 2033 2025 2019 2013 2003 1998 1997 1995 1993 1989 1984 1980 1977 1974 1971 1966 1961 1955 1951 1947 1943 1940 1937 1935 1933 1929 1925 1921 1920 1918 1916 1913 1911 1908 1906 1905 1903 1902 1901 1900 1899 1898 1897 1896 1894 1892 1892 1891 1890 1889 1887 1886 1886 1886 1885 1885 1883 1882 1881 1880 1880 1878 1877 1877 1876 1875 1875 1873 1873 1872 1872 1872 1872 1872 1872 1872 1871 1871 1870 1870 1870 1870 1869 1868 1867 1867 1866 1865 1865 1865 1864 1864 1863 1862 1860 1859 1858 1857 1857 1856 1854 1852 1851 1851 1849 1849 1849 1848 1848 1847 1847 1847 1846 1846 1845 1844 1844 1844 1844 1843 1841 1841 1840 1838 1838 1838 1838 1836 1832 1826 1821 1814 1801 1774 1743 0 0 0 0 0 0 0 0 1366 1346 1333 1321 1299 1288 1281 1269 1258 1256 1249 1242 1236 1230 1223 1216 1211 1207 1201 1195 1190 1182 1174 1168 1165 1162 1158 1156 1154 1151 1149 1149 1148 1148 1147 1146 1146 1144 1143 1141 1139 1135 1130 1126 1123 1120 1119 1117 1116 1115 1114 1114 1114 1114 1115 1117 1118 1120 1121 1123 1126 1127 1129 1130 1130 1130 1130 1130 1127 1124 1119 1115 1111 1106 1103 1100 1097 1094 1093 1091 1090 1089 1089 1089 1089 1089 1089 1091 1093 1093 1095 1097 1099 1101 1104 1105 1107 1110 1110 1112 1112 1112 1112 1110 1106 1103 1097 1091 1087 1084 1081 1078 1075 1072 1071 1070 1070 1068 1067 1066 1064 1064 1064 1064 1063 1063 1063 1065 1065 1066 1067 1069 1070 1072 1074 1077 1079 1080 1081 1081 1082 1083 1084 1085 1089 1096 1101 1105 1111 1116 1117 1125 1132 1139 1139
1420 1429 1432 1434 1434 1434 1426 1420 1411 1410 1410 1410 1411 1412 1412 1413 1417 1420 1422 1423 1426 1429 1432 1435 1438 1439 1445 1445 1445 1441 1438 1433 1426 1426 1426 1431 1435 1438 1444 1447 1450 1454 1463 1468 1471 1478 1487 1493 1497 1502 1505 1508 1508 1509 1510 1512 1512 1526 1531 1535 1548 1574 1608 1664 0 0 1790 1828 1843 1854 1866 1866 1866 1861 1861 1861 1862 1864 1866 1870 1877 1882 1885 1886 1888 1892 1893 1897 1897 1899 1903 1907 1911 1913 1915 1917 1919 1922 1926 1930 1932 1932 1933 1936 1942 1944 1946 1948 1951 1952 1959 1960 1962 1964 1967 1972 1984 1992 1994 1995 2000 2007 2007 2007 2008 2008 2010 2013 2020 2029 2038 2041 2044 2048 2089 2125 2142 2146 2147 2154 2164 2193 2201 2218 2234 2234 2251 2258 2261 2264 2265 2269 2271 2271 2271 2270 2269 2269 2269 2272 2272 2272 2270 2270 2270 2274 2276 2280 2281 2282 2283 2283 2284 2287 2288 2287 2288 2288 2288 2300 2312 2317 2317 2317 2316 2313 2313 2313 2317 2323 2323 2323 2317 2317 2317 2320 2320 2321 2321 2320 2320 2321 2323 2331 2331 2331 2325 2314 2306 2306 2306 2303 2303 2303 2289 2286 2284 2278 2237 2217 2211 2200 2166 2140 2140 2140 2168 2173 2173 2173 2161 2160 2157 2145 2120 2091 2064 2064 2064 2122 2154 2154 2154 2148 2148 2148 2197 2225 2225 2225 2210 2210 2210 2217 2217 2229 2229 2229 2214 2194 2163 2163 2163 2181 2200 2221 2221 2221 2201 2198 2192 2190 2190 2190 2190 2197 2218 2241 2252 2257 2258 2272 2332 2351 2351 2351 2335 2335 2335 2343 0 0 0 0 2529 2538 2540 2540 2544 2564 2576 2597 2616 2630 2636 2641 2642 2644 2644 2644 2644 2637 2629 2620 2589 0 0 0 0 2189 2176 2154 2137 2129 2125 2121 2111 2101 2093 2086 2081 2073 2068 2059 2056 2053 2049 2044 2038 2030 2025 2019 2013 2006 1998 1997 1995 1993 1990 1986 1980 1977 1974 1971 1966 1961 1956 1951 1947 1945 1942 1937 1935 1933 1929 1925 1922 1922 1920 1918 1915 1911 1909 1907 1906 1904 1902 1901 1900 1900 1898 1898 1897 1897 1895 1893 1892 1891 1889 1888 1886 1886 1886 1885 1885 1884 1882 1881 1880 1879 1878 1877 1877 1876 1875 1875 1873 1873 1872 1872 1872 1872 1872 1872 1872 1871 1871 1871 1871 1870 1870 1869 1869 1867 1867 1867 1866 1866 1865 1865 1865 1863 1862 1861 1859 1858 1857 1857 1855 1854 1852 1851 1850 1849 1849 1849 1848 1848 1847 1847 1847 1846 1846 1845 1844 1844 1844 1844 1843 1841 1841 1840 1838 1838 1837 1836 1836 1831 1819 1808 1796 1777 1744 0 0 0 0 0 0 0 0 0 1332 1314 1302 1288 1282 1273 1268 1260 1257 1245 1238 1233 1228 1224 1219 1213 1207 1203 1197 1193 1187 1178 1169 1164 1161 1158 1155 1154 1151 1149 1148 1147 1146 1146 1145 1145 1144 1143 1142 1140 1137 1134 1129 1124 1122 1120 1118 1116 1115 1113 1113 1113 1113 1113 1115 1117 1118 1120 1121 1123 1125 1127 1128 1128 1128 1128 1127 1126 1123 1119 1114 1109 1105 1101 1098 1095 1093 1091 1090 1089 1089 1087 1087 1087 1087 1088 1089 1090 1092 1093 1095 1097 1099 1101 1103 1105 1107 1110 1110 1112 1112 1112 1109 1106 1103 1097 1092 1086 1082 1081 1079 1076 1074 1070 1069 1068 1068 1066 1066 1064 1064 1063 1063 1063 1063 1063 1063 1064 1065 1065 1066 1068 1070 1071 1072 1075 1078 1080 1081 1081 1082 1083 1084 1086 1091 1098 1104 1109 1111 1115 1117 1123 1129 1137 1137
1420 1429 1441 1441 1441 1432 1423 1415 1408 1406 1405 1405 1405 1405 1405 1406 1406 1409 1413 1415 1420 1423 1426 1429 1433 1435 1436 1436 1436 1433 1429 1424 1419 1419 1419 1424 1429 1433 1437 1442 1446 1453 1458 1464 1469 1474 1479 1482 1484 1490 1500 1502 1502 1502 1502 1505 1508 1511 1521 1530 1545 1565 1602 1646 1680 0 0 1808 1838 1852 1865 1865 1865 1861 1861 1861 1862 1864 1865 1867 1871 1874 1878 1879 1881 1884 1888 1891 1892 1893 1895 1897 1902 1904 1906 1907 1913 1919 1923 1924 1925 1925 1925 1925 1929 1932 1937 1939 1945 1952 1954 1960 1962 1963 1966 1971 1981 1989 1990 1990 1992 1992 1992 1995 1995 1995 1999 2007 2017 2029 2044 2055 2073 2084 2089 2118 2139 2150 2151 2153 2164 2185 2191 2211 2221 2222 2230 2240 2249 2254 2258 2261 2263 2265 2265 2265 2265 2267 2269 2269 2269 2266 2266 2266 2268 2268 2269 2274 2274 2275 2278 2275 2276 2279 2283 2281 2283 2284 2285 2295 2307 2314 2314 2314 2313 2308 2308 2308 2314 2321 2321 2321 2317 2317 2317 2319 2320 2320 2320 2318 2318 2318 2319 2326 2326 2326 2324 2313 2306 2306 2306 2311 2311 2311 2302 2293 2288 2283 2276 2266 2240 2209 2179 2146 2146 2146 2168 2171 2171 2171 2155 2153 2151 2144 2120 2091 2064 2036 2036 2036 2085 2113 2131 2137 2137 2148 2197 2225 2225 2225 2210 2210 2210 2216 2217 2225 2225 2225 2207 2185 2163 2163 2163 2181 2200 2216 2216 2216 2200 2195 2187 2187 2182 2182 2182 2197 2217 2233 2242 2252 2258 2272 2332 2374 2391 0 0 0 0 0 0 0 0 2535 2561 2572 2572 2573 2579 2596 2603 2621 2636 2641 2644 2645 2646 2654 2654 2654 2643 2637 2629 2615 2562 0 0 0 2208 2178 2167 2145 2133 2123 2115 2108 2101 2093 2087 2083 2077 2072 2066 2059 2053 2048 2044 2040 2035 2029 2024 2019 2013 2008 2004 1999 1996 1993 1990 1987 1981 1977 1974 1971 1966 1962 1958 1953 1949 1947 1944 1940 1936 1933 1930 1927 1923 1922 1920 1918 1915 1912 1909 1907 1907 1905 1904 1902 1902 1900 1900 1900 1900 1899 1897 1896 1895 1893 1891 1890 1888 1887 1886 1885 1885 1884 1882 1881 1880 1878 1877 1877 1877 1876 1875 1875 1873 1873 1872 1872 1872 1872 1872 1872 1872 1871 1871 1871 1871 1870 1870 1870 1869 1868 1868 1868 1867 1867 1866 1866 1865 1863 1862 1861 1859 1858 1857 1856 1855 1853 1852 1851 1850 1849 1849 1849 1849 1848 1847 1847 1847 1846 1846 1845 1844 1844 1844 1844 1843 1841 1841 1840 1838 1836 1836 1833 1832 1824 1811 1795 1773 0 0 0 0 0 0 0 0 0 1345 1327 1306 1294 1283 1277 1269 1265 1259 1251 1248 1238 1232 1227 1223 1219 1215 1210 1205 1200 1194 1189 1182 1175 1166 1160 1158 1155 1153 1151 1148 1147 1146 1144 1144 1143 1143 1143 1143 1142 1141 1137 1135 1131 1127 1123 1121 1118 1118 1116 1114 1113 1113 1113 1113 1113 1115 1116 1118 1119 1119 1121 1124 1125 1126 1126 1126 1124 1123 1120 1117 1113 1109 1106 1101 1097 1094 1092 1090 1088 1087 1087 1087 1086 1086 1086 1087 1087 1089 1090 1091 1093 1095 1097 1099 1101 1103 1105 1106 1109 1110 1110 1110 1109 1107 1104 1099 1094 1089 1083 1079 1077 1076 1073 1070 1068 1066 1066 1065 1064 1064 1064 1062 1062 1061 1061 1062 1062 1063 1064 1065 1065 1066 1068 1069 1071 1072 1075 1078 1081 1081 1081 1086 1088 1089 1089 1094 1100 1106 1109 1111 1114 1114 1119 1123 1127 1127
1420 1430 1441 1441 1441 1432 1421 1412 1406 1403 1403 1402 1402 1399 1398 1398 1398 1403 1405 1409 1413 1418 1421 1422 1426 1428 1428 1428 1428 1423 1419 1415 1413 1413 1413 1417 1420 1425 1430 1438 1445 1450 1455 1462 1464 1468 1468 1470 1472 1480 1492 1494 1495 1496 1499 1504 1507 1511 1513 1518 1531 1551 1589 1646 1672 0 0 1796 1834 1844 1865 1865 1865 1862 1862 1862 1863 1863 1865 1865 1867 1871 1873 1873 1876 1880 1884 1885 1885 1886 1886 1887 1892 1894 1894 1895 1895 1902 1910 1915 1915 1915 1916 1916 1918 1925 1932 1935 1942 1948 1954 1956 1960 1962 1965 1969 1976 1983 1983 1983 1983 1983 1983 1984 1984 1989 1992 2001 2009 2028 2047 2066 2078 2092 2109 2118 2139 2153 2153 2159 2164 2173 2177 2192 2199 2203 2212 2221 2239 2244 2249 2250 2254 2256 2259 2262 2263 2263 2264 2264 2264 2262 2262 2262 2264 2267 2268 2268 2268 2264 2259 2258 2258 2258 2267 2277 2278 2278 2283 2285 2295 2302 2303 2303 2303 2299 2299 2299 2314 2321 2321 2321 2314 2314 2314 2318 2319 2319 2319 2317 2317 2317 2318 2321 2321 2321 2316 2313 2304 2304 2304 2310 2310 2310 2302 2293 2288 2285 2283 2283 2270 2235 2208 2169 2168 2168 2168 2168 2168 2167 2153 2148 2148 2144 2124 2102 2064 2030 2030 2030 2043 2077 2119 2137 2137 2148 2197 2225 2225 2225 2210 2208 2208 2208 2214 2214 2214 2214 2197 2174 2174 2167 2167 2169 2177 2191 2200 2200 2200 2191 2186 2184 2182 2182 2182 2197 2218 2233 2242 2252 2258 2281 0 0 0 0 0 0 0 0 2506 2546 2557 2567 2583 2584 2585 2591 2597 2606 2622 2639 2652 2652 2653 2654 2654 2654 2654 2654 2643 2628 2616 2597 2527 0 0 2236 2208 2178 2157 2142 2132 2123 2114 2105 2098 2091 2085 2082 2076 2071 2065 2059 2053 2048 2043 2039 2033 2028 2024 2018 2013 2008 2004 2000 1996 1993 1990 1987 1981 1977 1973 1970 1966 1962 1958 1953 1950 1947 1945 1942 1939 1936 1931 1928 1924 1922 1922 1918 1915 1913 1912 1910 1909 1906 1906 1906 1904 1903 1902 1902 1901 1899 1899 1898 1896 1895 1893 1892 1890 1889 1888 1886 1885 1884 1882 1881 1880 1878 1877 1876 1875 1875 1874 1874 1873 1873 1873 1872 1872 1872 1872 1872 1872 1871 1871 1871 1871 1870 1870 1870 1869 1869 1869 1869 1868 1868 1867 1866 1865 1863 1862 1861 1860 1858 1857 1856 1855 1853 1852 1851 1850 1849 1849 1849 1849 1848 1848 1847 1847 1846 1846 1845 1844 1843 1843 1842 1841 1841 1840 1839 1837 1833 1830 1827 1823 1811 1795 1772 0 0 0 0 0 0 0 0 0 1342 1325 1306 1290 1277 1272 1266 1261 1258 1250 1248 1241 1234 1229 1224 1220 1216 1211 1207 1202 1195 1190 1187 1180 1172 1164 1159 1156 1153 1151 1148 1146 1144 1144 1142 1142 1141 1141 1141 1140 1138 1137 1135 1131 1128 1125 1121 1118 1117 1116 1114 1113 1112 1112 1112 1112 1113 1115 1116 1117 1118 1119 1121 1122 1123 1123 1123 1122 1121 1118 1115 1112 1109 1106 1102 1097 1095 1092 1090 1088 1087 1086 1085 1085 1085 1085 1085 1086 1086 1088 1089 1091 1093 1095 1097 1100 1101 1103 1104 1105 1107 1108 1108 1108 1106 1103 1100 1095 1090 1085 1080 1076 1074 1072 1070 1067 1065 1064 1064 1063 1063 1063 1063 1060 1060 1060 1060 1060 1061 1062 1063 1064 1065 1066 1068 1069 1070 1072 1075 1078 1081 1082 1082 1089 1092 1092 1094 1097 1102 1106 1109 1110 1110 1111 1112 1117 1119 1119
1420 1430 1441 1441 1441 1432 1419 1412 1405 1402 1401 1398 1397 1394 1394 1394 1396 1401 1404 1407 1409 1412 1412 1413 1418 1423 1423 1423 1419 1414 1410 1408 1408 1408 1408 1410 1412 1416 1424 1432 1440 1443 1448 1453 1457 1457 1460 1461 1463 1472 1480 1483 1486 1488 1494 1502 1504 1508 1508 1510 1517 1537 1564 1602 1647 0 0 0 1834 1844 1857 1862 1862 1862 1862 1862 1863 1863 1865 1865 1867 1870 1871 1872 1873 1876 1878 1878 1879 1879 1879 1879 1883 1884 1884 1886 1888 1895 1904 1910 1912 1912 1912 1912 1913 1916 1927 1935 1941 1947 1951 1956 1958 1960 1964 1968 1973 1973 1973 1970 1970 1970 1977 1979 1982 1986 1992 2001 2009 2028 2049 2066 2082 2095 2114 2118 2139 2153 2161 2161 2161 2164 2164 2181 2181 2189 2200 2208 2231 2233 2235 2236 2236 2239 2250 2255 2255 2255 2254 2254 2254 2256 2258 2260 2261 2261 2260 2260 2259 2256 2251 2251 2251 2252 2260 2267 2268 2270 2275 2275 2284 2288 2296 2296 2296 2296 2296 2299 2309 2310 2314 2310 2312 2314 2314 2315 2316 2316 2316 2315 2315 2315 2315 2315 2311 2310 2309 2308 2303 2303 2303 2309 2309 2309 2302 2293 2288 2285 2283 2283 2277 2247 2217 2200 2180 2180 2180 2180 2180 2163 2142 2142 2140 2140 2124 2102 2065 2034 2015 2015 2015 2064 2114 2126 2126 2137 2137 2137 2182 2182 2188 2190 2190 2195 2197 2204 2204 2195 2185 2172 2172 2167 2167 2169 2177 2180 2186 2186 2186 2186 2182 2181 2182 2182 2182 2206 2218 2233 2242 2263 0 0 0 0 0 2497 2504 2525 2557 2574 2585 2592 2596 2597 2600 2601 2602 2604 2605 2606 2623 2643 2658 2658 2658 2658 2658 2657 2654 2654 2643 2628 2616 2597 2515 0 0 2236 2208 2178 2157 2142 2131 2123 2114 2105 2098 2089 2085 2082 2076 2071 2065 2059 2053 2048 2043 2036 2030 2027 2023 2018 2012 2008 2004 2000 1996 1993 1990 1987 1982 1977 1973 1969 1966 1962 1958 1953 1950 1947 1946 1942 1940 1937 1935 1930 1927 1923 1922 1919 1916 1914 1913 1911 1910 1908 1906 1906 1906 1904 1903 1902 1901 1900 1900 1900 1898 1898 1895 1893 1892 1890 1888 1887 1885 1884 1882 1881 1880 1878 1877 1876 1875 1874 1874 1873 1873 1873 1873 1873 1872 1872 1872 1872 1872 1871 1871 1871 1871 1870 1870 1870 1869 1869 1869 1869 1868 1868 1867 1866 1865 1863 1862 1861 1860 1858 1857 1856 1855 1853 1852 1851 1850 1850 1850 1850 1849 1849 1848 1847 1847 1846 1845 1845 1844 1843 1842 1841 1840 1839 1838 1837 1835 1831 1826 1820 1810 1797 1776 0 0 0 0 0 0 0 0 1350 1333 1323 1308 1289 1278 1270 1265 1258 1254 1250 1248 1240 1234 1230 1225 1220 1215 1213 1208 1203 1199 1191 1187 1185 1178 1171 1164 1158 1156 1152 1149 1146 1144 1143 1142 1141 1140 1139 1139 1138 1137 1136 1134 1131 1128 1125 1122 1119 1117 1114 1113 1112 1111 1111 1111 1111 1111 1112 1114 1115 1116 1117 1118 1119 1120 1121 1121 1121 1120 1118 1115 1111 1108 1104 1102 1097 1095 1092 1090 1088 1087 1086 1084 1084 1084 1084 1084 1084 1085 1086 1087 1089 1091 1093 1095 1097 1100 1101 1103 1103 1104 1105 1105 1105 1104 1102 1099 1095 1092 1088 1082 1078 1074 1072 1070 1068 1065 1063 1061 1061 1061 1061 1061 1061 1060 1059 1059 1059 1059 1061 1062 1063 1064 1065 1066 1068 1069 1070 1072 1075 1080 1084 1087 1092 1094 1095 1097 1098 1101 1104 1106 1107 1107 1107 1107 1108 1110 1112 1112
1420 1430 1439 1439 1439 1427 1417 1408 1405 1400 1396 1391 1389 1388 1388 1389 1395 1399 1402 1405 1405 1406 1406 1406 1409 1419 1419 1419 1417 1411 1408 1405 1400 1400 1400 1401 1403 1407 1414 1420 1428 1430 1436 1440 1444 1445 1446 1448 1454 1460 1466 1470 1471 1478 1490 1497 1504 1507 1507 1508 1512 1527 1558 1584 1618 0 0 0 1831 1837 1845 1862 1862 1862 1862 1862 1862 1862 1862 1863 1864 1868 1870 1871 1872 1874 1874 1874 1875 1875 1875 1878 1879 1880 1880 1881 1885 1890 1897 1907 1911 1911 1911 1911 1911 1914 1925 1935 1940 1946 1951 1953 1957 1958 1961 1963 1963 1963 1961 1961 1961 1962 1968 1969 1969 1978 1992 2001 2009 2033 2052 2066 2083 2101 2118 2141 2145 2161 2161 2161 2159 2159 2159 2166 2166 2178 2182 2182 2214 2224 2224 2225 2225 2227 2235 2249 2249 2249 2243 2243 2243 2247 2251 2254 2254 2254 2253 2251 2248 2247 2246 2247 2247 2250 2255 2261 2262 2264 2266 2266 2272 2274 2281 2282 2282 2286 2288 2299 2299 2299 2299 2299 2300 2305 2305 2305 2305 2305 2307 2308 2311 2311 2311 2311 2307 2304 2303 2301 2303 2303 2303 2304 2304 2304 2294 2287 2285 2283 2281 2281 2278 2262 2249 2237 2222 2207 2198 2183 2183 2163 2140 2140 2129 2129 2124 2102 2066 2036 2017 2017 2017 2048 2110 2110 2110 2098 2098 2098 2117 2132 2135 2154 2178 2185 2188 2194 2194 2185 2183 2177 2177 2172 2169 2177 2180 2180 2200 2200 2200 2186 2186 2182 2185 2185 2185 0 0 0 0 0 0 0 0 2503 2533 2565 2573 2577 2582 2584 2587 2592 2605 2605 2605 2608 2607 2607 2608 2611 2623 2643 2658 2668 2668 2668 2667 2664 2664 2662 2643 2628 2616 2597 0 0 0 2240 2221 2184 2157 2141 2130 2123 2114 2105 2098 2089 2085 2082 2076 2070 2065 2059 2053 2048 2043 2035 2030 2027 2023 2018 2012 2008 2004 2001 1996 1993 1990 1986 1982 1977 1973 1968 1964 1961 1957 1954 1950 1948 1946 1942 1940 1937 1935 1932 1929 1925 1922 1919 1917 1915 1914 1912 1912 1910 1908 1908 1906 1905 1904 1903 1903 1902 1901 1900 1900 1899 1897 1895 1893 1891 1889 1888 1887 1884 1882 1881 1880 1879 1877 1876 1874 1874 1873 1873 1873 1873 1873 1873 1872 1872 1872 1872 1872 1871 1871 1871 1871 1871 1871 1870 1870 1869 1869 1869 1869 1868 1867 1866 1865 1863 1862 1861 1859 1858 1857 1856 1855 1853 1852 1851 1851 1851 1850 1850 1850 1849 1848 1847 1847 1846 1845 1845 1844 1843 1842 1841 1840 1839 1838 1837 1833 1828 1823 1813 1796 1776 0 0 0 0 0 0 0 0 1349 1330 1315 1303 1292 1279 1268 1263 1257 1253 1248 1245 1240 1232 1229 1225 1221 1218 1213 1208 1202 1200 1196 1191 1185 1181 1176 1170 1163 1158 1155 1151 1148 1145 1142 1141 1139 1139 1138 1137 1137 1136 1134 1133 1131 1128 1125 1123 1119 1116 1114 1113 1111 1111 1110 1110 1110 1110 1110 1112 1112 1114 1115 1116 1117 1117 1118 1118 1118 1118 1117 1115 1112 1108 1105 1102 1100 1096 1093 1090 1088 1087 1086 1085 1083 1083 1083 1083 1083 1083 1084 1085 1087 1089 1090 1093 1095 1097 1100 1101 1102 1102 1102 1102 1102 1101 1100 1097 1094 1091 1087 1083 1077 1075 1072 1071 1068 1066 1063 1060 1059 1059 1059 1060 1060 1060 1060 1058 1058 1058 1059 1060 1062 1063 1064 1065 1066 1068 1069 1070 1073 1078 1084 1087 1090 1093 1095 1098 1099 1101 1103 1104 1104 1104 1104 1104 1104 1104 1105 1108 1108
1412 1413 1414 1421 1421 1421 1415 1406 1396 1390 1386 1383 1380 1380 1380 1383 1392 1398 1402 1403 1403 1403 1402 1402 1402 1414 1415 1415 1415 1411 1407 1404 1398 1394 1394 1394 1395 1399 1403 1410 1416 1421 1424 1427 1428 1428 1429 1433 1444 1452 1455 1455 1461 1465 1475 1491 1497 1497 1499 1501 1504 1517 1551 1562 1582 0 0 0 1828 1836 1843 1852 1857 1858 1859 1860 1862 1862 1862 1862 1863 1866 1867 1870 1870 1870 1870 1870 1870 1870 1872 1872 1872 1873 1874 1876 1880 1887 1890 1890 1896 1906 1910 1910 1911 1913 1923 1932 1937 1939 1943 1949 1952 1957 1961 1961 1961 1952 1952 1952 1952 1952 1954 1956 1959 1978 1996 2004 2020 2039 2052 2065 2088 2103 2126 2141 2153 2166 2166 2166 2152 2145 2145 2145 2153 2161 2169 2169 2204 2217 2223 2223 2223 2224 2225 2231 2238 2238 2239 2239 2239 2241 2244 2244 2244 2245 2244 2243 2242 2242 2242 2243 2245 2249 2252 2259 2260 2261 2264 2265 2266 2266 2270 2277 2277 2280 2281 2290 2290 2290 2288 2288 2288 2292 2297 2297 2298 2298 2300 2301 2304 2304 2304 2304 2299 2293 2293 2293 2293 2300 2303 2303 2303 2298 2291 2283 2282 2282 2281 2281 2278 2262 2250 2238 2222 2214 2209 2200 2186 2171 0 2144 2134 2134 2134 2102 2071 2044 2018 2018 2018 2048 2096 2096 2096 2078 2072 2072 2072 2093 2113 2137 2175 2175 2180 2180 2180 2180 2180 2180 2183 2186 2186 2186 2186 2186 2205 2205 2205 2186 2186 2184 2185 2185 0 0 0 0 0 0 0 0 2514 2537 2562 2567 2577 2585 2586 2586 2590 2595 2605 2605 2605 2608 2608 2608 2608 2611 2625 2648 2658 2668 2668 2668 2674 2674 2677 2677 2677 2653 2633 2605 0 0 2273 2254 2235 2208 2167 2141 2131 2124 2117 2108 2098 2089 2086 2083 2077 2070 2064 2059 2053 2048 2042 2034 2030 2027 2023 2018 2012 2008 2005 2002 1999 1993 1990 1985 1981 1977 1972 1967 1964 1959 1956 1954 1951 1948 1946 1942 1940 1937 1935 1932 1931 1928 1924 1920 1918 1917 1916 1915 1913 1911 1910 1908 1907 1906 1905 1905 1903 1902 1902 1901 1900 1899 1898 1895 1893 1891 1891 1889 1888 1884 1882 1881 1880 1879 1877 1876 1874 1874 1873 1873 1873 1873 1873 1873 1873 1872 1872 1872 1872 1871 1871 1871 1871 1871 1871 1870 1870 1869 1869 1869 1868 1868 1867 1866 1865 1863 1861 1859 1858 1857 1857 1856 1855 1854 1853 1852 1852 1851 1850 1850 1850 1849 1848 1848 1847 1846 1845 1844 1844 1843 1842 1841 1839 1838 1836 1836 1833 1826 1816 1801 1777 1749 0 0 0 0 0 0 0 1346 1327 1312 1299 1291 1281 1270 1262 1256 1251 1247 1241 1239 1232 1226 1222 1222 1218 1214 1208 1203 1199 1197 1194 1189 1183 1179 1173 1167 1161 1158 1153 1149 1146 1142 1141 1140 1138 1137 1136 1134 1134 1133 1132 1130 1128 1125 1123 1119 1117 1114 1112 1111 1110 1109 1109 1109 1109 1109 1110 1110 1112 1113 1113 1115 1116 1116 1116 1116 1115 1115 1113 1111 1109 1105 1102 1100 1097 1094 1091 1089 1088 1087 1085 1084 1083 1083 1083 1082 1082 1082 1084 1085 1087 1089 1090 1093 1095 1097 1100 1101 1101 1101 1101 1101 1100 1098 1095 1092 1089 1087 1083 1079 1075 1073 1071 1069 1067 1064 1060 1059 1058 1058 1058 1058 1059 1059 1059 1058 1058 1058 1059 1060 1061 1063 1064 1065 1067 1070 1071 1072 1076 1081 1086 1089 1090 1094 1096 1099 1101 1102 1103 1103 1103 1103 1103 1103 1103 1103 1103 1106 1106
1394 1394 1394 1395 1396 1396 1396 1394 1380 1374 1372 1372 1372 1373 1373 1378 1392 1398 1400 1400 1400 1395 1394 1394 1394 1398 1399 1405 1405 1405 1405 1404 1398 1392 1391 1391 1391 1392 1395 1401 1404 1408 1410 1410 1411 1411 1413 1418 1428 1438 1441 1444 1446 1449 1459 1472 1480 1487 1488 1491 1491 1505 1535 1554 1575 0 0 0 1828 1832 1840 1842 1844 1853 1853 1855 1859 1861 1861 1861 1862 1862 1864 1866 1866 1866 1862 1862 1862 1862 1864 1865 1866 1866 1868 1873 1879 1882 1882 1882 1886 1895 1904 1907 1910 1912 1919 1924 1927 1931 1935 1942 1950 1951 1951 1951 1945 1945 1945 1945 1945 1942 1942 1942 1948 1978 2004 2021 2027 2039 2049 2065 2088 2112 2128 2141 2153 2166 2166 2166 2156 2144 2144 2144 2144 2147 2155 2164 2192 2210 2220 2220 2220 2220 2217 2217 2217 2229 2231 2231 2234 2236 2236 2236 2236 2235 2235 2235 2236 2239 2241 2241 2242 2245 2247 2253 2256 2258 2258 2261 2261 2262 2262 2269 2269 2270 2275 2284 2284 2284 2276 2276 2276 2281 2285 2290 2292 2293 2294 2294 2294 2296 2296 2296 2293 2288 2288 2288 2290 2298 2303 2303 2303 2298 2291 2283 2282 2282 2281 2281 2279 2277 2266 2242 2242 2242 2263 2263 2263 2184 2144 2144 2134 2134 2134 2102 2084 2072 2049 2048 2048 2048 2085 2085 2085 2064 2064 2064 2072 2093 2110 2135 2172 2172 2176 2177 2177 2180 2183 2186 2189 2203 2208 2214 2216 2217 2217 2217 2214 2195 0 0 0 0 0 0 0 2514 2532 2532 2532 2542 2542 2553 2562 2569 2583 2593 2593 2593 2597 2597 2606 2610 2614 2614 2614 2610 2614 2616 2625 2654 2658 2672 2672 2675 2676 2676 2691 2691 2691 2684 2652 2619 0 0 2273 2258 2242 2209 2167 2142 2132 2125 2118 2109 2100 2093 2088 2084 2077 2070 2064 2059 2052 2048 2041 2034 2029 2027 2024 2020 2013 2009 2005 2003 1999 1995 1990 1985 1981 1977 1972 1967 1962 1958 1956 1954 1951 1949 1946 1942 1939 1936 1934 1932 1931 1929 1927 1923 1921 1918 1917 1916 1914 1912 1910 1909 1907 1906 1905 1905 1905 1903 1902 1901 1901 1900 1898 1896 1894 1892 1892 1890 1888 1885 1882 1882 1880 1879 1877 1876 1874 1874 1873 1873 1873 1873 1873 1873 1873 1873 1872 1872 1872 1871 1871 1871 1871 1871 1871 1870 1870 1869 1869 1869 1868 1868 1867 1866 1864 1863 1861 1859 1858 1857 1857 1856 1855 1854 1853 1852 1852 1852 1852 1851 1851 1850 1849 1848 1848 1847 1845 1844 1844 1843 1841 1840 1839 1837 1834 1831 1827 1817 1802 1778 1753 0 0 0 0 0 0 0 1349 1329 1313 1299 1287 1280 1272 1262 1255 1249 1243 1240 1238 1232 1227 1223 1221 1217 1213 1209 1204 1200 1196 1192 1190 1186 1179 1174 1169 1163 1157 1154 1151 1148 1144 1141 1139 1138 1137 1135 1134 1132 1132 1130 1130 1127 1125 1122 1119 1117 1114 1112 1110 1108 1108 1107 1107 1107 1108 1109 1109 1109 1111 1112 1113 1114 1114 1114 1114 1113 1112 1112 1110 1107 1105 1102 1100 1099 1095 1093 1090 1088 1086 1086 1085 1083 1083 1082 1082 1082 1082 1082 1084 1085 1087 1089 1090 1093 1095 1097 1099 1099 1099 1099 1098 1097 1096 1094 1091 1088 1085 1083 1079 1076 1072 1070 1067 1067 1065 1062 1060 1058 1057 1057 1057 1058 1058 1058 1058 1058 1058 1058 1059 1059 1060 1062 1064 1065 1067 1070 1071 1072 1076 1081 1086 1089 1091 1094 1096 1099 1101 1102 1103 1103 1103 1103 1103 1103 1103 1103 1103 1103 1103
1381 1375 1380 1378 1378 1378 1378 1378 1369 1363 1363 1363 1367 1370 1371 1378 1391 1397 1397 1397 1396 1386 1386 1386 1388 1390 1391 1395 1395 1398 1398 1398 1397 1390 1385 1385 1385 1386 1388 1391 1393 1394 1394 1395 1395 1395 1399 1405 1414 1421 1427 1429 1435 1441 1443 1452 1463 1474 1477 1483 1484 1490 1527 1551 1570 0 0 0 1800 1817 1828 1829 1835 1841 1843 1847 1850 1855 1858 1859 1861 1861 1861 1863 1863 1863 1856 1855 1855 1855 1856 1858 1860 1862 1867 1871 1874 1875 1876 1877 1883 1892 1896 1898 1903 1907 1909 1913 1916 1921 1929 1934 1936 1937 1938 1938 1938 1938 1942 1942 1942 1937 1937 1937 1945 1978 2004 2021 2027 2039 2048 2065 2088 2113 2128 2141 2153 2166 2166 2166 2156 2141 2139 2139 2141 2143 2155 2157 2187 2208 2219 2219 2219 2218 2211 2211 2211 2215 2224 2226 2227 2227 2227 2226 2226 2225 2225 2225 2229 2231 2234 2235 2236 2238 2241 2247 2255 2256 2258 2258 2256 2254 2254 2254 2254 2260 2268 2276 2276 2276 2275 2273 2273 2273 2281 2287 2290 2290 2290 2290 2290 2290 2290 2290 2286 2284 2284 2284 2287 2296 2303 2303 2303 2296 2288 2283 2282 2282 2282 2283 2283 2283 2282 2269 2263 2263 2263 2285 2285 2285 2205 2164 2164 2157 2157 2149 2129 2104 2079 2054 2054 2054 2070 2070 2070 2063 2063 2063 2072 2093 2103 2128 2159 2170 2176 2177 2177 2180 2183 2207 2208 2211 2226 2232 2245 2247 0 0 0 0 0 0 0 0 0 0 2523 2548 2565 2565 2565 2562 2562 2562 2563 2569 2586 2607 2607 2607 2606 2606 2606 2610 2614 2614 2614 2624 2625 2638 2657 2658 2658 2672 2679 2679 2682 2682 2691 2694 2694 2694 2675 2629 0 0 2284 2268 2246 2209 2169 2144 2133 2129 2120 2111 2102 2096 2092 2085 2078 2071 2064 2059 2051 2047 2041 2033 2029 2027 2024 2020 2015 2009 2005 2003 2000 1995 1990 1985 1982 1978 1972 1967 1962 1958 1955 1954 1950 1948 1945 1942 1939 1936 1934 1932 1931 1930 1928 1925 1922 1920 1919 1918 1915 1913 1911 1909 1908 1907 1906 1906 1905 1904 1903 1902 1901 1901 1900 1897 1894 1894 1892 1891 1889 1886 1883 1882 1880 1879 1877 1876 1875 1874 1873 1873 1873 1874 1874 1874 1874 1873 1872 1872 1872 1872 1872 1872 1871 1871 1871 1870 1870 1869 1869 1869 1868 1867 1866 1866 1864 1862 1860 1859 1858 1857 1856 1856 1855 1854 1853 1853 1853 1852 1852 1852 1852 1850 1850 1848 1848 1846 1845 1844 1843 1843 1841 1840 1838 1832 1826 1818 1812 1797 1781 1757 0 0 0 0 0 0 0 1354 1334 1318 1303 1289 1279 1271 1263 1255 1249 1242 1239 1236 1233 1229 1225 1219 1215 1211 1209 1205 1201 1196 1193 1189 1187 1183 1175 1170 1164 1159 1155 1152 1149 1146 1142 1140 1139 1137 1135 1134 1132 1131 1130 1129 1128 1125 1123 1120 1118 1115 1111 1110 1108 1107 1107 1106 1106 1106 1107 1108 1108 1109 1111 1112 1112 1112 1112 1112 1111 1110 1109 1108 1106 1104 1101 1099 1098 1096 1094 1091 1088 1087 1086 1085 1085 1083 1083 1082 1082 1082 1082 1082 1084 1086 1087 1089 1090 1092 1093 1095 1096 1096 1096 1096 1095 1094 1092 1089 1087 1084 1081 1078 1076 1073 1069 1066 1065 1065 1062 1060 1058 1056 1056 1056 1056 1056 1057 1057 1057 1057 1057 1058 1059 1059 1060 1061 1063 1064 1067 1070 1071 1072 1076 1081 1086 1089 1091 1094 1096 1099 1101 1101 1101 1101 1101 1101 1101 1101 1101 1101 1101 1101 1103
1370 1370 1372 1372 1372 1372 1371 1368 1367 1363 1363 1363 1364 1368 1371 1378 1386 1386 1386 1385 1384 1382 1382 1382 1386 1386 1388 1388 1389 1390 1392 1392 1392 1387 1381 1380 1380 1380 1382 1384 1384 1384 1384 1383 1383 1384 1389 1395 1400 1405 1407 1413 1420 1428 1437 1445 1446 1453 1474 1477 1482 1488 1513 1543 1566 0 0 0 0 1775 1805 1814 1825 1830 1833 1835 1841 1853 1856 1856 1856 1852 1852 1852 1853 1853 1853 1852 1852 1852 1855 1857 1858 1861 1862 1863 1866 1867 1868 1871 1876 1880 1886 1893 1897 1900 1902 1903 1905 1911 1919 1925 1926 1927 1928 1931 1936 1936 1937 1937 1937 1934 1934 1934 1942 1976 2004 2021 2027 2034 2043 2061 2087 2113 2128 2141 2149 2166 2166 2166 2156 2131 2130 2127 2130 2131 2134 2155 2186 2207 2218 2218 2218 2210 2205 2205 2205 2215 2218 2218 2218 2218 2218 2219 2219 2219 2218 2218 2218 2219 2220 2225 2227 2231 2234 2241 2248 2253 2253 2253 2249 2245 2240 2240 2240 2247 2255 2267 2274 2274 2274 2271 2271 2271 2280 2286 2286 2286 2284 2284 2284 2285 2285 2285 2283 2276 2275 2275 2275 2292 2303 2303 2303 2296 2288 2288 2288 2292 2299 2299 2299 2298 2295 2294 2286 2286 2286 2286 2286 2286 2206 2206 2188 2188 2197 2188 2183 2158 2113 2066 2066 2066 2070 2070 2070 2069 2069 2069 2081 2094 2103 2128 2159 2181 2181 2181 2181 2181 2206 2210 2211 2219 2247 2261 2274 0 0 0 0 0 0 0 2501 2503 2505 2525 2536 2548 2565 2565 2566 2571 2571 2571 2573 2575 2589 2613 2623 2623 2623 2622 2622 2622 2631 2631 2631 2634 2635 2638 2657 2673 2680 2682 2682 2680 2680 2682 2691 2694 2694 2694 2677 2649 2544 0 0 2273 2250 2209 2184 2152 2140 2135 2123 2111 2104 2098 2093 2087 2078 2073 2066 2059 2051 2047 2041 2034 2028 2025 2024 2020 2015 2010 2006 2003 2000 1996 1991 1986 1982 1977 1972 1967 1962 1958 1954 1954 1950 1948 1945 1942 1939 1936 1934 1932 1931 1930 1929 1926 1923 1921 1921 1918 1916 1915 1912 1910 1908 1907 1906 1906 1906 1904 1903 1902 1902 1901 1900 1898 1896 1894 1894 1892 1890 1888 1884 1882 1880 1879 1877 1876 1875 1874 1874 1874 1874 1874 1874 1874 1874 1873 1873 1872 1872 1872 1872 1871 1871 1871 1870 1870 1870 1869 1869 1869 1867 1866 1866 1865 1864 1862 1860 1859 1858 1857 1856 1856 1855 1854 1854 1854 1853 1853 1853 1853 1852 1850 1850 1849 1848 1847 1845 1844 1844 1844 1843 1838 1834 1827 1821 1810 1796 1781 1761 0 0 0 0 0 0 0 1368 1339 1324 1308 1294 1281 1271 1264 1256 1252 1245 1240 1238 1233 1229 1225 1219 1215 1210 1207 1205 1202 1197 1193 1188 1186 1183 1180 1173 1167 1161 1156 1153 1150 1147 1143 1141 1139 1137 1135 1134 1133 1131 1130 1129 1128 1126 1123 1121 1118 1115 1113 1111 1109 1108 1107 1105 1105 1105 1106 1106 1107 1108 1109 1110 1110 1110 1110 1110 1110 1109 1107 1105 1104 1102 1101 1099 1096 1094 1093 1091 1090 1087 1087 1085 1085 1084 1083 1083 1082 1082 1082 1082 1084 1085 1087 1088 1089 1090 1092 1093 1094 1095 1095 1095 1094 1091 1090 1087 1085 1083 1081 1078 1075 1072 1068 1065 1063 1063 1061 1060 1058 1057 1056 1055 1055 1055 1056 1056 1056 1056 1057 1057 1058 1058 1059 1059 1059 1059 1061 1061 1066 1069 1071 1074 1080 1085 1089 1091 1094 1096 1098 1098 1098 1097 1097 1097 1097 1098 1098 1098 1099 1099 1099 1101
1361 1362 1364 1370 1370 1370 1368 1367 1367 1363 1361 1361 1361 1364 1369 1372 1374 1374 1374 1374 1374 1375 1377 1379 1382 1386 1386 1386 1386 1386 1386 1386 1386 1382 1378 1377 1377 1377 1377 1378 1378 1378 1377 1377 1377 1378 1385 1391 1394 1394 1395 1395 1404 1411 1420 1431 1439 1440 1461 1465 1481 1487 1497 1526 1549 0 0 0 0 1747 1783 1800 1814 1817 1820 1823 1834 1850 1856 1856 1856 1849 1844 1844 1844 1848 1849 1849 1850 1851 1852 1854 1856 1858 1858 1859 1859 1859 1859 1859 1859 1862 1873 1882 1889 1894 1898 1899 1899 1902 1908 1915 1919 1923 1925 1928 1933 1934 1934 1934 1934 1934 1934 1934 1943 1973 1997 2010 2020 2026 2040 2060 2072 2112 2119 2132 2149 2159 2159 2159 2156 2127 2126 2105 2105 2105 2123 2148 2186 2206 2207 2207 2207 2199 2199 2199 2200 2212 2212 2212 2210 2207 2207 2207 2210 2210 2210 2210 2210 2210 2211 2217 2219 2223 2226 2230 2238 2242 2242 2242 2241 2237 2233 2229 2229 2229 2240 2255 2272 2272 2272 2270 2270 2270 2278 2283 2283 2283 2283 2283 2283 2284 2284 2284 2281 2270 2270 2270 2275 2286 2295 2295 2295 2293 2288 2288 2288 2295 2299 2299 2299 2299 2299 2298 2296 2291 2291 2291 2286 2286 2281 2232 2207 2206 2206 2197 2197 2197 0 2066 2066 2066 2070 2070 2075 2077 2081 2096 2103 2105 2113 2128 2159 2183 2191 2197 2199 2201 2212 2213 2219 2261 2310 0 0 0 0 0 0 2489 2504 2510 2521 2522 2525 2529 2536 2548 2565 2565 2566 2571 2571 2583 2589 2594 2603 2614 2623 2623 2623 2623 2623 2628 2635 2635 2635 2635 2635 2638 2657 2673 2680 2682 2682 2680 2680 2682 2690 2694 2694 2694 2677 2652 2599 0 0 0 2255 2213 2186 2169 2149 2138 2127 2117 2108 2102 2099 2092 2084 2078 2070 2060 2051 2047 2041 2034 2028 2025 2021 2020 2015 2011 2006 2003 2000 1996 1991 1985 1981 1977 1972 1966 1962 1958 1954 1952 1950 1948 1945 1942 1939 1936 1934 1932 1931 1930 1929 1927 1924 1923 1921 1918 1916 1915 1913 1911 1908 1908 1907 1907 1906 1905 1903 1902 1902 1902 1901 1899 1897 1895 1894 1893 1891 1888 1884 1882 1880 1879 1877 1876 1875 1875 1874 1874 1874 1874 1874 1874 1874 1873 1873 1872 1872 1872 1872 1871 1871 1871 1870 1869 1869 1869 1869 1868 1867 1866 1865 1865 1863 1862 1860 1859 1858 1857 1856 1855 1855 1855 1855 1854 1854 1853 1853 1853 1852 1851 1850 1849 1848 1847 1845 1844 1844 1844 1844 1838 1831 1820 1813 1803 1788 1764 0 0 0 0 0 0 0 1372 1340 1325 1309 1298 1285 1274 1265 1258 1252 1248 1242 1237 1234 1230 1225 1222 1217 1211 1206 1202 1201 1198 1195 1190 1186 1183 1180 1177 1171 1166 1160 1155 1151 1149 1146 1143 1140 1137 1136 1134 1133 1131 1130 1128 1128 1126 1124 1121 1119 1116 1114 1112 1110 1108 1107 1106 1105 1105 1105 1106 1106 1106 1107 1109 1109 1109 1109 1108 1108 1108 1106 1104 1101 1100 1098 1097 1095 1094 1092 1091 1090 1088 1087 1086 1085 1085 1084 1084 1083 1083 1083 1083 1083 1084 1086 1087 1088 1089 1090 1092 1092 1093 1093 1093 1092 1091 1090 1087 1084 1082 1079 1077 1075 1072 1069 1066 1063 1061 1060 1059 1058 1056 1054 1054 1054 1054 1054 1055 1055 1055 1056 1056 1056 1057 1058 1059 1059 1059 1059 1059 1060 1063 1067 1068 1072 1077 1082 1087 1090 1092 1094 1097 1097 1097 1095 1095 1095 1095 1095 1095 1096 1096 1096 1098 1099
1356 1356 1362 1367 1368 1368 1368 1367 1367 1363 1360 1359 1359 1359 1361 1362 1364 1364 1366 1366 1367 1372 1372 1375 1380 1384 1384 1384 1383 1381 1381 1381 1381 1379 1377 1376 1375 1375 1375 1374 1374 1374 1374 1374 1375 1376 1383 1387 1387 1387 1387 1387 1390 1398 1409 1416 1426 1434 1450 1453 1457 1466 1479 1501 1527 0 0 0 0 0 1757 1789 1802 1803 1806 1823 1833 1850 1855 1855 1855 1848 1844 1844 1844 1844 1848 1848 1848 1848 1848 1851 1853 1853 1853 1853 1853 1852 1852 1852 1855 1857 1861 1869 1877 1885 1894 1896 1898 1899 1901 1908 1911 1915 1920 1922 1928 1930 1932 1934 1934 1934 1934 1934 1945 1973 1995 2003 2011 2017 2025 2044 2064 2101 2106 2126 2148 2157 2157 2157 2156 2127 2126 2084 2084 2084 2090 2148 2181 2203 2203 2203 2197 2195 2191 2191 2191 2198 2199 2199 2201 2201 2201 2206 2206 2206 2202 2202 2202 2203 2204 2208 2214 2218 2220 2228 2233 2234 2235 2235 2234 2233 2232 2229 2228 2228 2228 2236 2255 2260 2264 2264 2264 2268 2278 2280 2280 2280 2280 2280 2282 2282 2282 2281 2277 2270 2270 2270 2275 2284 2292 2293 2293 2293 2289 2289 2289 2295 2300 2300 2300 2300 2300 2300 2300 2300 2300 2300 2305 2305 2305 2278 2259 2219 2219 2217 2217 2217 0 0 2112 2112 2100 2100 2102 2102 2102 2130 2136 2144 2144 2144 2174 2199 2209 2217 2219 2228 2228 2256 2287 2318 0 0 2372 2396 2457 2487 2505 2519 2522 2524 2528 2533 2533 2533 2544 2544 2549 2553 2557 2559 2571 2587 2609 2611 2612 2617 2623 2623 2623 2623 2623 2628 2636 2636 2636 2636 2636 2638 2653 2673 2680 2680 2680 2680 2680 2685 2689 2689 2689 2687 2681 2663 2616 2507 0 0 0 2219 2187 2177 2163 2151 2133 2117 2111 2104 2102 2099 2095 2085 2075 2064 2054 2050 2042 2037 2028 2025 2021 2018 2015 2011 2006 2003 2000 1996 1991 1984 1980 1977 1972 1967 1962 1958 1954 1952 1948 1944 1942 1940 1939 1936 1934 1932 1931 1930 1929 1927 1925 1923 1921 1918 1916 1915 1913 1911 1909 1908 1907 1907 1906 1905 1904 1902 1902 1902 1901 1899 1898 1896 1894 1893 1891 1888 1884 1882 1882 1880 1879 1878 1876 1876 1874 1874 1874 1874 1874 1874 1874 1873 1873 1872 1872 1872 1872 1871 1871 1870 1869 1869 1869 1869 1868 1868 1867 1866 1865 1863 1862 1862 1860 1859 1858 1857 1856 1855 1855 1855 1855 1855 1855 1854 1854 1853 1852 1851 1849 1849 1848 1847 1846 1845 1845 1844 1842 1838 1828 1819 1808 1793 1775 0 0 0 0 0 0 0 1359 1333 1319 1307 1297 1286 1277 1268 1259 1253 1249 1245 1239 1237 1231 1226 1221 1216 1212 1208 1203 1201 1197 1195 1192 1188 1185 1181 1177 1174 1169 1163 1157 1152 1149 1146 1144 1142 1139 1136 1133 1132 1130 1130 1128 1128 1127 1124 1122 1119 1117 1115 1113 1111 1109 1107 1106 1105 1104 1104 1104 1105 1105 1106 1106 1107 1107 1107 1107 1107 1106 1105 1103 1101 1099 1097 1095 1094 1093 1092 1091 1089 1088 1087 1086 1085 1085 1085 1084 1084 1083 1083 1083 1083 1084 1085 1086 1087 1088 1089 1091 1092 1092 1092 1092 1092 1090 1088 1087 1084 1081 1079 1077 1074 1072 1069 1066 1064 1061 1059 1058 1057 1055 1054 1054 1053 1053 1053 1053 1053 1054 1055 1056 1056 1056 1057 1057 1058 1058 1058 1059 1059 1060 1063 1065 1068 1071 1077 1082 1085 1088 1089 1092 1094 1094 1094 1093 1092 1092 1092 1093 1094 1094 1095 1095 1096 1099
1355 1356 1361 1367 1368 1368 1368 1367 1367 1363 1360 1355 1353 1353 1353 1353 1354 1355 1355 1359 1366 1370 1370 1372 1377 1382 1382 1382 1380 1379 1379 1378 1378 1378 1376 1374 1373 1371 1371 1371 1372 1372 1372 1372 1374 1376 1379 1379 1379 1378 1378 1378 1380 1389 1396 1405 1411 1419 1430 1446 1449 1452 1466 1478 1489 1504 0 0 0 0 0 1773 1789 1794 1800 1812 1825 1835 1845 1845 1845 1844 1844 1844 1844 1844 1845 1845 1846 1846 1847 1848 1848 1849 1849 1849 1848 1846 1846 1846 1848 1850 1853 1858 1865 1875 1891 1891 1893 1895 1895 1896 1898 1903 1912 1918 1920 1924 1930 1935 1935 1935 1936 1936 1945 1973 1995 1995 1999 2008 2018 2025 2049 2084 2098 2117 2138 2157 2161 2161 2161 2127 2121 2077 2077 2077 2090 2144 2172 2200 2200 2200 2194 2188 2177 2177 2177 2185 2192 2192 2193 2195 2198 2198 2198 2198 2195 2194 2194 2194 2198 2202 2205 2215 2217 2223 2231 2231 2231 2231 2231 2231 2231 2229 2227 2227 2227 2230 2241 2248 2250 2250 2255 2265 2275 2275 2275 2277 2277 2277 2282 2282 2282 2280 2276 2271 2271 2271 2276 2283 2291 2293 2293 2293 2292 2292 2292 2300 2300 2300 2302 2302 2301 2301 2301 2301 2301 2301 2309 2309 2309 2301 2291 2286 2243 2227 2224 2221 0 0 0 2128 2135 2135 2136 2137 0 0 0 0 0 0 0 0 2254 2254 2254 2254 0 0 0 0 2371 2382 2414 2466 2475 2489 2506 2519 2533 2545 2551 2551 2551 2546 2546 2544 2546 2546 2548 2554 2569 2587 2609 2611 2612 2617 2617 2617 2614 2614 2614 2628 2636 2636 2636 2636 2636 2638 2653 2662 2662 2663 2663 2663 2679 2685 2687 2687 2687 2684 2681 2665 2627 2606 0 0 0 2225 2198 2177 2163 2151 2133 2117 2111 2104 2102 2099 2095 2085 2075 2064 2056 2050 2043 2038 2033 2025 2021 2018 2014 2011 2006 2003 1998 1994 1989 1984 1980 1976 1971 1966 1963 1958 1955 1952 1948 1944 1942 1938 1937 1936 1933 1932 1931 1929 1929 1927 1925 1923 1920 1918 1916 1914 1913 1911 1909 1908 1907 1907 1906 1905 1904 1902 1902 1902 1901 1899 1898 1896 1894 1893 1891 1888 1886 1883 1882 1880 1879 1878 1877 1876 1874 1873 1873 1873 1874 1874 1874 1873 1873 1872 1872 1872 1871 1871 1871 1870 1869 1869 1869 1869 1868 1868 1867 1866 1865 1863 1862 1861 1860 1859 1858 1857 1856 1856 1856 1856 1856 1855 1855 1855 1854 1853 1852 1851 1849 1848 1848 1847 1846 1845 1845 1844 1842 1838 1828 1815 1795 1772 0 0 0 0 0 0 0 1350 1333 1317 1306 1294 1285 1277 1272 1262 1254 1249 1245 1241 1237 1231 1225 1220 1215 1211 1208 1205 1201 1198 1194 1192 1189 1186 1183 1180 1176 1172 1167 1162 1157 1152 1148 1144 1142 1140 1137 1134 1131 1131 1130 1129 1128 1126 1125 1123 1120 1117 1115 1114 1111 1110 1108 1105 1105 1104 1104 1104 1104 1105 1105 1105 1105 1105 1106 1106 1106 1106 1105 1103 1100 1097 1096 1094 1092 1091 1090 1089 1088 1087 1086 1086 1085 1085 1085 1084 1084 1084 1084 1084 1084 1085 1085 1086 1086 1087 1088 1090 1091 1092 1092 1092 1091 1090 1089 1087 1085 1083 1080 1076 1074 1072 1069 1066 1063 1060 1059 1057 1056 1056 1054 1053 1053 1052 1052 1052 1052 1053 1054 1055 1056 1056 1056 1056 1057 1057 1058 1058 1059 1059 1059 1062 1065 1066 1071 1077 1082 1085 1086 1088 1090 1092 1092 1092 1092 1091 1091 1091 1092 1092 1093 1093 1094 1096 1099
1344 1346 1356 1358 1364 1369 1369 1369 1367 1362 1353 1349 1349 1348 1346 1345 1345 1345 1349 1356 1366 1367 1368 1368 1372 1378 1378 1378 1376 1374 1374 1374 1374 1374 1374 1371 1370 1368 1368 1368 1370 1370 1370 1370 1369 1369 1370 1370 1369 1363 1363 1363 1372 1382 1389 1394 1400 1410 1424 1436 1445 1448 1456 1467 1477 1486 1500 0 0 0 0 0 1766 1789 1800 1810 1822 1824 1835 1835 1835 1835 1839 1840 1842 1844 1844 1844 1844 1844 1844 1845 1845 1845 1845 1844 1842 1842 1842 1844 1848 1850 1853 1858 1865 1872 1879 1879 1883 1884 1887 1887 1891 1899 1904 1910 1914 1919 1929 1934 1936 1937 1941 1948 1962 1983 1992 1993 1995 2004 2012 2016 2021 2059 2085 2103 2124 2140 2156 2156 2156 2127 2121 2077 2077 2077 2090 2132 2156 2186 2186 2186 2183 2182 2176 2175 2175 2175 2180 2184 2186 2191 2197 2197 2197 2192 2187 2187 2187 2189 2193 2197 2201 2213 2213 2213 2213 2215 2217 2220 2223 2227 2227 2227 2227 2227 2227 2227 2239 2239 2240 2241 2248 2258 2272 2272 2273 2273 2273 2276 2276 2277 2276 2276 2276 2274 2274 2274 2278 2284 2291 2295 2295 2295 2295 2295 2299 2302 2302 2302 2302 2302 2304 2304 2304 2302 2302 2302 2313 2327 2327 2327 2320 2311 2307 2301 2289 2285 0 0 0 0 0 0 0 0 0 0 0 0 0 0 0 0 0 0 0 0 0 0 0 2409 2427 2432 2475 2489 2491 2500 2510 2527 2537 2555 2573 2573 2573 2566 2550 2546 2546 2546 2548 2554 2569 2587 2609 2611 2613 2617 2617 2617 2613 2613 2613 2626 2636 2636 2637 2638 2639 2647 2653 2655 2655 2661 2663 2663 2680 2689 2689 2689 2688 2684 2677 2666 2648 2621 2535 0 0 2252 2198 2177 2163 2151 2133 2117 2111 2104 2102 2099 2095 2085 2075 2064 2057 2050 2043 2038 2033 2025 2021 2017 2014 2010 2006 2001 1996 1993 1988 1983 1980 1976 1971 1966 1963 1960 1957 1952 1948 1944 1942 1938 1937 1935 1934 1932 1931 1929 1928 1927 1925 1923 1920 1918 1916 1914 1912 1911 1909 1908 1907 1907 1906 1904 1904 1902 1902 1901 1900 1899 1898 1896 1894 1893 1890 1888 1886 1884 1882 1881 1880 1879 1877 1876 1875 1874 1874 1874 1874 1874 1874 1874 1874 1872 1872 1872 1871 1871 1871 1870 1869 1869 1869 1868 1868 1868 1867 1865 1864 1863 1862 1860 1859 1859 1858 1857 1856 1856 1856 1856 1856 1855 1855 1855 1855 1854 1852 1851 1849 1847 1847 1846 1846 1845 1845 1844 1842 1838 1828 1811 1778 0 0 0 0 0 0 0 1360 1339 1322 1307 1297 1284 1277 1271 1265 1259 1251 1245 1241 1234 1232 1225 1217 1213 1208 1205 1203 1201 1198 1195 1192 1189 1187 1184 1182 1178 1174 1170 1167 1161 1157 1152 1148 1144 1140 1138 1135 1133 1131 1129 1129 1127 1127 1126 1124 1121 1119 1116 1113 1111 1110 1108 1106 1105 1103 1102 1102 1102 1103 1103 1104 1104 1105 1105 1105 1105 1105 1105 1103 1101 1098 1096 1093 1091 1089 1089 1087 1087 1086 1086 1085 1084 1084 1084 1084 1084 1084 1085 1085 1085 1085 1085 1085 1087 1087 1087 1088 1090 1091 1091 1091 1091 1089 1088 1087 1085 1082 1080 1077 1075 1072 1069 1066 1063 1060 1059 1058 1057 1056 1055 1054 1053 1052 1052 1052 1052 1052 1053 1054 1055 1056 1056 1056 1057 1057 1057 1058 1059 1059 1059 1060 1062 1063 1066 1071 1077 1081 1084 1085 1086 1088 1090 1091 1091 1091 1091 1091 1091 1091 1091 1091 1091 1091 1096 1099
1337 1337 1337 1342 1353 1364 1367 1367 1367 1359 1349 1345 1345 1345 1345 1345 1345 1345 1345 1354 1362 1363 1364 1364 1368 1372 1372 1372 1369 1368 1368 1368 1368 1369 1369 1369 1367 1366 1366 1366 1366 1366 1365 1363 1363 1362 1362 1362 1359 1358 1358 1358 1368 1376 1383 1385 1390 1395 1412 1424 1436 1440 1452 1464 1464 1476 1486 1509 0 0 0 0 0 1772 1799 1809 1813 1820 1823 1827 1829 1830 1833 1837 1839 1839 1839 1840 1842 1842 1842 1842 1842 1841 1841 1841 1839 1839 1841 1844 1848 1850 1853 1858 1865 1872 1877 1879 1879 1879 1880 1884 1890 1899 1904 1910 1914 1919 1924 1933 1936 1937 1941 1957 1973 1983 1989 1990 1995 1997 2009 2012 2015 2050 2074 2092 2104 2126 2147 2147 2147 2121 2120 2075 2075 2075 2092 2122 2137 2157 2157 2159 2162 2171 2171 2172 2172 2172 2174 2175 2181 2185 2193 2193 2193 2187 2184 2184 2184 2187 2189 2191 2194 2204 2204 2204 2197 2197 2197 2202 2215 2216 2220 2223 2223 2225 2227 2227 2238 2238 2239 2241 2245 2252 2255 2257 2261 2262 2265 2269 2273 2274 2276 2276 2276 2276 2276 2277 2280 2285 2292 2298 2300 2300 2301 2302 2302 2303 2303 2305 2305 2309 2312 2312 2312 2311 2311 2311 2329 2329 2329 2328 2327 2324 2323 2321 2305 2297 2293 0 0 0 0 0 0 0 0 2290 2312 2401 2401 2401 2394 2384 2361 2361 2361 2381 2411 2438 2444 2468 2469 2477 2496 2503 2509 2514 2517 2527 2537 2555 2573 2577 2577 2577 2563 2555 2548 2548 2548 2554 2569 2587 2604 2607 2612 2616 2616 2616 2612 2612 2612 2616 2625 2628 2629 2630 2639 2654 2655 2655 2655 2655 2658 2663 2680 2689 2689 2689 2688 2681 2675 2666 2648 2621 2562 0 0 2255 2198 2177 2162 2136 2122 2109 2104 2103 2098 2092 2087 2084 2075 2064 2057 2050 2043 2038 2033 2025 2021 2017 2014 2010 2004 2000 1996 1992 1987 1982 1978 1975 1970 1966 1963 1960 1957 1953 1950 1946 1942 1938 1937 1935 1934 1932 1931 1929 1928 1926 1924 1922 1920 1917 1916 1914 1912 1910 1908 1907 1906 1906 1905 1904 1904 1903 1901 1901 1899 1899 1898 1895 1894 1892 1890 1888 1886 1884 1882 1881 1880 1879 1878 1876 1875 1874 1874 1874 1874 1874 1874 1874 1874 1874 1873 1872 1872 1871 1871 1869 1869 1869 1869 1868 1868 1867 1867 1865 1864 1863 1862 1860 1859 1859 1858 1857 1856 1856 1856 1856 1856 1856 1856 1855 1855 1854 1852 1851 1849 1847 1846 1846 1845 1843 1840 1838 1834 1830 1816 1797 0 0 0 0 0 0 0 1364 1341 1325 1309 1297 1287 1278 1272 1269 1261 1251 1245 1241 1235 1233 1225 1218 1213 1208 1203 1200 1198 1196 1194 1192 1188 1187 1184 1182 1181 1176 1172 1168 1165 1160 1156 1151 1147 1142 1138 1136 1134 1131 1130 1129 1127 1127 1125 1125 1123 1121 1117 1115 1112 1111 1108 1106 1105 1103 1101 1101 1101 1101 1101 1102 1103 1103 1103 1103 1103 1103 1103 1102 1100 1098 1095 1093 1091 1089 1086 1085 1085 1085 1085 1084 1084 1084 1084 1084 1084 1084 1084 1085 1085 1086 1086 1087 1087 1087 1088 1088 1089 1090 1090 1090 1090 1088 1087 1087 1085 1084 1081 1078 1076 1074 1071 1067 1064 1061 1059 1057 1056 1056 1054 1054 1053 1053 1052 1052 1052 1052 1052 1053 1054 1055 1056 1057 1057 1057 1057 1057 1059 1059 1059 1060 1060 1062 1063 1066 1070 1077 1081 1084 1084 1084 1085 1087 1088 1089 1091 1091 1091 1091 1091 1091 1091 1091 1091 1096 1103
1337 1337 1337 1340 1346 1355 1364 1364 1364 1353 1346 1342 1342 1342 1343 1344 1344 1345 1345 1351 1357 1358 1359 1359 1362 1362 1362 1362 1360 1360 1360 1361 1363 1365 1365 1365 1364 1363 1363 1363 1363 1363 1361 1359 1357 1357 1357 1356 1355 1355 1355 1358 1365 1373 1376 1380 1381 1384 1395 1406 1417 1430 1433 1447 1461 1472 1479 1503 0 0 0 0 0 0 0 1804 1811 1819 1822 1826 1828 1828 1830 1830 1832 1832 1833 1834 1836 1839 1839 1839 1838 1838 1838 1838 1838 1839 1839 1845 1850 1856 1859 1865 1870 1872 1877 1879 1879 1879 1880 1884 1890 1899 1904 1910 1914 1919 1922 1927 1928 1932 1941 1957 1973 1983 1988 1988 1992 1991 1992 1993 2012 2045 2045 2076 2088 2110 2132 2132 2132 2118 2083 2072 2072 2072 2092 2120 2124 2143 2145 2147 2156 2157 2167 2167 2168 2170 2173 2174 2175 2177 2186 2186 2186 2182 2182 2182 2182 2186 2186 2186 2188 2189 2191 2192 2193 2192 2193 2193 2202 2204 2206 2208 2209 2212 2214 2227 2232 2235 2238 2238 2243 2248 2250 2254 2258 2259 2265 2268 2272 2274 2275 2276 2276 2276 2277 2279 2282 2285 2291 2298 2301 2301 2302 2302 2305 2305 2305 2305 2305 2309 2318 2320 2322 2323 2335 2336 2336 2335 2334 2334 2334 2331 2331 2331 2323 2322 2321 2321 0 0 0 0 0 0 2336 2353 2380 2402 2402 2402 2394 2386 2385 2385 2386 2396 2422 2445 2467 2468 2469 2480 2498 2508 2510 2514 2517 2527 2537 2555 2573 2577 2577 2577 2574 2570 2566 2565 2565 2565 2571 2587 2604 2607 2610 2614 2614 2614 2611 2606 2606 2606 2613 2617 2621 2628 2639 2652 2652 2655 2655 2655 2655 2667 2682 2683 2683 2683 2681 2679 2675 2666 2648 2621 2562 0 0 2256 2196 2172 2143 2131 2112 2105 2098 2096 2090 2086 2081 2077 2070 2060 2057 2049 2041 2036 2032 2025 2020 2017 2014 2010 2004 1999 1994 1989 1986 1981 1976 1971 1967 1965 1963 1960 1957 1953 1950 1947 1943 1940 1937 1935 1934 1932 1931 1930 1928 1926 1924 1922 1920 1917 1916 1914 1911 1910 1908 1907 1906 1906 1905 1904 1904 1903 1901 1901 1899 1899 1897 1895 1894 1892 1890 1888 1886 1884 1883 1882 1881 1880 1878 1877 1876 1876 1876 1876 1876 1875 1875 1875 1875 1874 1873 1873 1872 1871 1871 1869 1869 1869 1869 1868 1868 1867 1867 1866 1864 1863 1862 1860 1859 1858 1858 1857 1856 1856 1856 1856 1856 1856 1856 1855 1855 1854 1852 1851 1849 1846 1845 1842 1840 1838 1833 1830 1822 1808 1797 0 0 0 0 0 0 0 1388 1355 1331 1315 1301 1287 1284 1275 1266 1264 1256 1246 1238 1234 1232 1226 1220 1214 1209 1204 1199 1196 1193 1192 1190 1189 1187 1184 1182 1181 1179 1176 1171 1166 1161 1157 1152 1149 1145 1140 1136 1134 1133 1131 1128 1128 1126 1125 1124 1123 1122 1119 1116 1113 1110 1108 1107 1105 1102 1100 1100 1099 1099 1099 1101 1101 1101 1102 1102 1102 1102 1102 1102 1100 1098 1096 1093 1091 1088 1086 1085 1083 1083 1083 1084 1084 1084 1083 1083 1083 1083 1083 1084 1085 1085 1086 1086 1087 1087 1088 1088 1089 1089 1089 1089 1089 1088 1087 1087 1085 1084 1081 1079 1075 1074 1072 1070 1066 1064 1061 1058 1057 1056 1055 1054 1053 1053 1052 1052 1052 1052 1052 1052 1053 1054 1055 1056 1057 1058 1058 1058 1058 1059 1060 1061 1061 1062 1062 1063 1066 1070 1076 1080 1082 1083 1083 1084 1086 1087 1089 1091 1091 1091 1093 1093 1093 1091 1091 1091 1103 1108
