1823 1820 1820 1815 1806 1795 1794 1792 1790 1790 1790 1790 1790 1788 1788 1782 1778 1778 1778 1777 1777 1777 1777 1777 1778 1778 1778 1775 1772 1771 1771 1771 1770 1770 1769 1768 1767 1761 1755 1751 1745 1743 1740 1729 1727 1717 1706 1704 1702 1678 1656 0 0 0 0 0 0 0 0 0 0 0 0 0 0 0 0 0 0 0 0 0 0 0 0 0 0 0 0 0 0 0 0 0 0 0 0 0 0 0 0 0 0 0 0 0 0 0 0 0 0 0 0 0 0 0 0 0 0 0 0 0 0 0 0 0 0 0 0 0 0 0 0 0 0 0 0 0 0 0 0 0 0 0 0 0 0 0 0 0 0 0 0 0 0 0 0 0 0 0 0 0 0 0 0 0 0 0 0 0 0 0 0 0 0 0 0 0 0 0 0 0 0 0 0 0 0 0 0 0 0 0 0 0 0 0 0 0 0 0 0 0 0 0 0 0 0 0 0 0 0 0 0 0 0 0 0 0 0 0 0 0 0 0 1952 1952 1952 1943 1943 1943 0 0 0 0 0 0 0 0 2372 2401 2413 2417 2420 2425 2434 2441 2446 2446 2451 2462 2473 2482 2487 2487 2487 2485 2484 2482 2477 2474 2474 2474 2475 2485 2494 2501 2501 2501 2501 2500 2497 2497 2497 2502 2511 2511 2511 2513 2513 2510 2510 2510 2503 0 0 0 0 0 0 0 0 0 0 0 0 0 0 0 0 0 0 0 0 0 0 0 0 0 0 0 0 0 0 0 0 2383 2545 2624 2644 2650 2650 2655 2655 2664 2674 2682 2685 2685 2685 2683 2679 2679 2678 2678 2676 2676 2676 2683 2688 2696 2696 2696 2696 2696 2696 2697 2700 2709 2709 2709 2708 2708 2708 2710 2715 2716 2716 2716 2716 2716 2715 2714 2707 2707 2707 2711 2719 2721 2721 2721 2717 2698 2680 2672 2670 2665 2643 2593 0 0 2271 2262 2251 2231 2181 2153 2153 2150 2149 2147 2138 2131 2125 2114 2104 2097 2092 2092 2087 2079 2071 2062 2054 2045 2034 2024 2017 2009 2005 2001 1999 1995 1992 1989 1986 1982 1979 1977 1974 1971 1968 1965 1963 1960 1959 1955 1953 1952 1950 1946 1944 1944 1942 1940 1939 1938 1936 1935 1933 1931 1930 1928 1927 1926 1924 1923 1922 1919 1918 1916 1914 1912 1911 1908 1907 1905 1902 1900 1898 1897 1895 1894 1892 1890 1888 1886 1884 1882 1880 1878 1876 1875 1873 1871 1869 1868 1866 1866 1866 1865 1864 1860 1854 1849 1848 1846 1833 1827 1827 1827 1826 1825 1823 1820 1819 1819 1819 1820 1820 1821 1821 1820 1819 1818 1818 1818 1818 1817 1817 1814 1813 1813 1811 1811 1808 1808 1807 1806 1806 1806 1806 1805 1805 1804 1803 1803 1801 1801 1799 1797 1797 1795 1794 1793 1792 1791 1790 1788 1787 1786 1785 1784 1784 1784 1783 1784 1784 1785 1786 1788 1789 1791 1792 1794 1796 1799 1801 1804 1806 1806 1806 1807 1807 1808 1808 1809 1810 1810 1810 1809 1807 1807 1805 1805 1805 1805 1806 1806 1806 1806 1806 1806 1806 1805 1805 1805 1805 1804 1804 1803 1802 1801 1800 1800 1799 1799 1798 1796 1794 1792 1791 1790 1788 1787 1785 1784 1783 1783 1783 1783 1783 1783 1781 1781 1781 1781 1781 1782 1782 1782 1782 1782 1781 1781 1781 1781 1781 1781 1781 1781 1781 1781 1781 1781 1780 1780 1760 1760 1760 1786 1798 1814 1814 0
1807 1791 1796 1791 1789 1789 1789 1789 1789 1789 1789 1789 1789 1789 1789 1785 1778 1776 1776 1773 1772 1772 1772 1776 1776 1776 1775 1771 1769 1768 1768 1768 1768 1768 1768 1767 1765 1759 1754 1751 1745 1743 1743 1737 1727 1717 1708 1707 1704 1704 1703 0 0 0 0 0 0 0 0 0 0 0 0 0 0 0 0 0 0 0 0 0 0 0 0 0 0 0 0 0 0 0 0 0 0 0 0 0 0 0 0 0 0 0 0 0 0 0 0 0 0 0 0 0 0 0 0 0 0 0 0 0 0 0 0 0 0 0 0 0 0 0 0 0 0 0 0 0 0 0 0 0 0 0 0 0 0 0 0 0 0 0 0 0 0 0 0 0 0 0 0 0 0 0 0 0 0 0 0 0 0 0 0 0 0 0 0 0 0 0 0 0 0 0 0 0 0 0 0 0 0 0 0 0 0 0 0 0 0 0 0 0 0 0 0 0 0 0 0 0 0 0 0 0 0 0 0 0 0 0 0 0 0 1892 1951 1951 1951 1943 1943 1943 1949 0 0 0 0 0 0 0 2331 2353 2355 2382 2396 2410 2421 2428 2431 2436 2441 2449 2459 2471 2471 2471 2470 2468 2468 2468 2464 2463 2463 2463 2465 2472 2482 2488 2488 2488 2489 2490 2491 2491 2491 2495 2502 2506 2507 2507 2507 2507 2503 2487 2463 0 0 0 0 0 0 0 0 0 0 0 0 0 0 0 0 0 0 0 0 0 0 0 0 0 0 0 0 0 0 0 0 2185 2319 2490 2585 2598 2617 2626 2633 2644 2661 2673 2681 2681 2681 2674 2672 2672 2672 2672 2672 2673 2673 2673 2684 2694 2694 2694 2694 2691 2691 2691 2696 2702 2702 2702 2702 2702 2702 2703 2704 2709 2713 2715 2715 2715 2713 2706 2699 2699 2699 2704 2708 2719 2723 2723 2723 2702 2680 2672 2669 2663 2634 2593 0 0 2265 2262 2250 2231 2177 2152 2150 2150 2149 2140 2134 2126 2117 2107 2098 2093 2092 2090 2086 2078 2071 2062 2053 2045 2036 2027 2022 2012 2006 2002 1999 1994 1991 1988 1985 1981 1978 1975 1973 1970 1967 1964 1962 1959 1956 1953 1952 1949 1948 1946 1944 1942 1941 1939 1938 1937 1935 1934 1933 1931 1930 1928 1927 1926 1924 1923 1921 1919 1918 1916 1914 1912 1910 1908 1906 1904 1902 1900 1898 1897 1895 1894 1892 1890 1888 1886 1884 1883 1881 1879 1878 1876 1874 1873 1871 1869 1867 1867 1867 1866 1865 1862 1859 1854 1850 1848 1846 1841 1835 1831 1829 1825 1823 1820 1819 1819 1819 1820 1820 1820 1818 1818 1817 1816 1814 1814 1814 1813 1813 1813 1812 1812 1810 1809 1807 1806 1805 1805 1804 1804 1804 1804 1804 1804 1803 1802 1801 1800 1798 1797 1795 1794 1793 1792 1791 1791 1790 1788 1786 1785 1784 1783 1783 1783 1782 1782 1782 1782 1784 1784 1786 1787 1790 1790 1793 1795 1799 1802 1805 1806 1806 1806 1806 1806 1806 1807 1809 1809 1809 1809 1807 1806 1805 1803 1803 1803 1803 1804 1804 1804 1804 1804 1804 1804 1804 1804 1804 1803 1803 1803 1802 1802 1802 1801 1800 1799 1799 1797 1795 1793 1791 1790 1788 1788 1787 1784 1784 1783 1783 1783 1783 1783 1781 1781 1781 1781 1781 1781 1781 1780 1780 1781 1781 1781 1781 1780 1780 1779 1779 1779 1780 1780 1781 1781 1781 1781 1761 1761 1761 1775 1792 1814 1814 0
1796 1789 1789 1781 1781 1781 1785 1787 1787 1787 1789 1789 1789 1789 1789 1785 1778 1776 1775 1773 1770 1770 1770 1773 1773 1773 1772 1769 1766 1766 1766 1766 1767 1767 1767 1767 1764 1759 1754 1750 1750 1750 1745 1737 1727 1717 1710 1710 1710 1710 1710 1694 1686 1667 1634 0 0 0 0 0 0 0 0 0 0 0 0 0 0 0 0 0 0 0 0 0 0 0 0 0 0 0 0 0 0 0 0 0 0 0 0 0 0 0 0 0 0 0 0 0 0 0 0 0 0 0 0 0 0 0 0 0 0 0 0 0 0 0 0 0 0 0 0 2263 2278 2280 2284 2331 2335 2343 2343 2343 2343 0 0 0 0 0 0 0 0 0 0 0 0 0 0 0 0 0 0 0 0 0 0 0 0 0 0 0 0 0 0 0 0 0 0 0 0 0 0 0 0 0 0 0 0 0 0 0 0 0 0 0 0 0 0 0 0 0 0 0 0 0 0 0 0 0 0 0 0 0 0 0 0 0 0 0 0 0 0 0 0 0 0 0 0 0 1936 1936 1932 1932 1932 1922 0 0 0 0 0 0 0 0 0 0 2399 2409 2421 2426 2432 2440 2448 2451 2451 2451 2450 2450 2450 2452 2452 2453 2455 2458 2459 2465 2471 2476 2476 2477 2481 2484 2484 2484 2484 2484 2489 2494 2499 2501 2501 2501 2490 2478 2440 0 0 0 0 0 0 0 0 0 0 0 0 0 0 0 0 0 0 0 0 0 0 0 0 0 0 0 0 0 0 0 0 0 0 0 0 2513 2582 2609 2624 2634 2648 2664 2674 2674 2674 2665 2665 2665 2665 2671 2671 2671 2671 2671 2672 2688 2691 2691 2691 2688 2688 2688 2689 2698 2698 2698 2698 2698 2698 2698 2699 2700 2708 2713 2713 2713 2704 2703 2696 2696 2696 2702 2705 2714 2723 2723 2723 2702 2691 2679 2669 2663 2634 0 0 2301 2264 2259 2250 2228 2176 2149 2149 2146 2144 2133 2127 2121 2113 2102 2095 2091 2090 2090 2081 2075 2070 2062 2053 2045 2036 2028 2023 2016 2009 2005 1999 1994 1990 1988 1985 1981 1977 1972 1970 1969 1967 1964 1961 1958 1956 1953 1951 1947 1946 1944 1942 1942 1940 1939 1937 1935 1935 1934 1933 1931 1930 1928 1927 1926 1924 1923 1921 1919 1918 1916 1913 1912 1910 1908 1906 1904 1902 1900 1898 1897 1895 1893 1892 1890 1889 1887 1885 1883 1881 1879 1878 1878 1876 1874 1873 1871 1869 1868 1868 1867 1866 1864 1859 1856 1853 1853 1852 1850 1844 1836 1833 1829 1825 1820 1819 1819 1819 1820 1820 1820 1818 1817 1816 1814 1813 1812 1811 1811 1811 1811 1810 1810 1809 1808 1806 1804 1803 1803 1803 1803 1803 1802 1802 1802 1802 1801 1801 1800 1798 1796 1795 1794 1793 1792 1791 1790 1789 1787 1786 1785 1784 1783 1782 1782 1781 1780 1780 1780 1782 1782 1783 1783 1786 1787 1789 1792 1796 1800 1803 1805 1805 1805 1805 1805 1806 1806 1807 1807 1807 1807 1806 1804 1803 1802 1802 1802 1802 1803 1803 1803 1803 1803 1803 1803 1803 1803 1803 1803 1803 1803 1802 1802 1802 1802 1801 1800 1799 1798 1796 1794 1791 1790 1789 1789 1788 1785 1785 1785 1785 1784 1784 1783 1781 1780 1780 1780 1780 1780 1780 1780 1780 1780 1781 1781 1781 1780 1778 1777 1776 1775 1775 1775 1780 1783 1783 1783 1763 1755 1755 1755 1774 1774 0 0
1792 1789 1789 1781 1781 1781 1783 1785 1786 1786 1787 1787 1787 1787 1787 1785 1778 1776 1774 1772 1770 1770 1770 1771 1771 1771 1770 1767 1765 1765 1765 1765 1766 1766 1766 1766 1762 1758 1754 1750 1750 1750 1745 1737 1727 1717 1710 1710 1710 1710 1710 1700 1699 1691 1690 0 0 0 0 0 0 0 0 0 0 0 0 0 0 0 0 0 0 0 0 0 0 0 0 0 0 0 0 0 0 0 0 0 0 0 0 0 0 0 0 0 0 0 0 0 0 0 0 0 0 0 0 0 0 0 0 0 0 0 0 0 0 0 0 0 0 0 0 2320 2330 2331 2331 2332 2336 2343 2355 2355 2355 2356 2356 2356 2356 0 0 0 0 0 0 0 0 0 0 0 0 0 0 0 0 0 0 0 0 0 0 0 0 0 0 0 0 0 0 0 0 0 0 0 0 0 0 0 0 0 0 0 0 0 0 0 0 0 0 0 0 0 0 0 0 0 0 0 0 0 0 0 0 0 0 0 0 0 0 0 0 0 0 0 0 0 0 0 0 0 0 1923 1923 1923 1904 0 0 0 0 0 0 0 0 0 0 0 0 2395 2407 2421 2430 2437 2440 2440 2440 2435 2435 2435 2436 2439 2440 2445 2453 2456 2459 2463 2468 2469 2469 2471 2473 2475 2475 2475 2474 2474 2474 2483 2491 2496 2496 2496 2487 2466 2437 0 0 0 0 0 0 0 0 0 0 0 0 0 0 0 0 0 0 0 0 0 0 0 0 0 0 0 0 0 0 0 0 0 0 0 0 0 2578 2605 2619 2629 2644 2661 2670 2670 2670 2660 2660 2660 2661 2666 2666 2666 2666 2666 2668 2684 2686 2686 2686 2684 2684 2684 2686 2692 2694 2694 2694 2695 2694 2695 2696 2697 2704 2710 2710 2710 2701 2690 2684 2684 2684 2687 2697 2707 2718 2718 2718 2698 2691 2679 2667 2655 2582 0 0 2276 2264 2255 2239 2219 2175 2150 2146 2143 2138 2130 2119 2114 2109 2101 2094 2089 2085 2080 2076 2071 2066 2060 2053 2045 2036 2029 2023 2017 2010 2005 2002 1994 1990 1986 1984 1981 1976 1972 1969 1966 1965 1963 1960 1957 1955 1953 1950 1947 1945 1943 1942 1941 1939 1938 1936 1935 1935 1933 1932 1931 1930 1928 1927 1925 1924 1923 1921 1919 1918 1916 1913 1911 1910 1908 1906 1904 1902 1900 1898 1897 1895 1893 1892 1890 1889 1887 1885 1883 1882 1881 1879 1878 1877 1875 1873 1872 1872 1871 1871 1869 1867 1864 1863 1860 1858 1855 1855 1854 1850 1848 1841 1835 1828 1822 1822 1820 1820 1820 1820 1818 1817 1817 1816 1814 1813 1812 1811 1811 1810 1809 1808 1808 1808 1807 1804 1802 1802 1802 1802 1802 1801 1801 1801 1801 1801 1800 1800 1799 1797 1796 1795 1793 1793 1791 1791 1789 1788 1787 1786 1784 1783 1782 1782 1781 1780 1779 1779 1779 1780 1780 1780 1780 1782 1784 1786 1788 1794 1797 1800 1801 1803 1803 1804 1804 1805 1805 1805 1805 1805 1805 1805 1803 1801 1800 1800 1800 1800 1801 1801 1802 1802 1802 1802 1802 1801 1801 1801 1801 1802 1802 1802 1802 1802 1802 1801 1800 1799 1798 1796 1795 1792 1791 1790 1790 1789 1787 1786 1785 1785 1784 1784 1783 1781 1780 1780 1780 1780 1780 1779 1779 1780 1780 1780 1780 1780 1780 1776 1776 1776 1774 1774 1774 1775 1782 1782 1782 1774 1758 1749 1747 1747 0 0 0
1789 1789 1789 1781 1781 1781 1783 1784 1784 1784 1781 1781 1781 1781 1781 1781 1777 1775 1773 1770 1769 1769 1768 1768 1768 1767 1766 1765 1764 1764 1764 1765 1765 1765 1763 1762 1758 1755 1752 1750 1750 1750 1745 1736 1727 1718 1709 1709 1709 1709 1709 1711 1711 1711 1708 1691 1639 1630 0 0 0 0 0 0 0 0 0 0 0 0 0 0 0 0 0 0 0 0 0 0 0 0 0 0 0 0 0 0 0 0 0 0 0 0 0 0 0 0 0 0 0 0 0 0 0 0 0 0 0 0 0 0 0 0 0 0 0 0 0 0 0 0 2319 2347 2348 2348 2347 2344 2344 2344 2355 2362 2363 2365 2371 2381 2381 2381 2373 2373 2373 2394 0 0 0 0 0 0 0 0 0 0 0 0 0 0 0 0 0 0 0 0 0 0 0 0 0 0 0 0 0 0 0 0 0 0 0 0 0 0 0 0 0 0 0 0 0 0 0 0 0 0 0 0 0 0 0 0 0 0 0 0 0 0 0 0 0 0 0 0 0 0 0 0 0 0 0 0 0 0 0 0 0 0 0 0 0 0 0 0 0 0 0 0 0 0 2379 2406 2422 2429 2430 2432 2432 2430 2429 2427 2427 2427 2430 2439 2445 2449 2454 2459 2461 2464 2464 2464 2464 2465 2465 2468 2470 2471 2472 2477 2484 2491 2491 2491 2482 2458 2433 2365 0 0 0 0 0 0 0 0 0 0 0 0 0 0 0 0 0 0 0 0 0 0 0 0 0 0 0 0 0 0 0 0 0 0 0 0 0 2544 2605 2628 2637 2648 2658 2658 2658 2645 2645 2645 2646 2660 2661 2661 2661 2661 2664 2671 2678 2680 2680 2680 2680 2680 2681 2687 2687 2687 2687 2689 2689 2692 2693 2693 2694 2701 2701 2701 2701 2687 2674 2674 2674 2678 2691 2700 2700 2700 2699 2698 2691 2679 2666 2646 2567 0 0 2273 2262 2246 2231 2202 2168 2151 2143 2136 2134 2125 2112 2104 2100 2099 2091 2088 2084 2079 2074 2069 2064 2058 2053 2043 2036 2030 2023 2017 2011 2006 2002 1997 1990 1986 1983 1979 1976 1972 1969 1966 1964 1963 1960 1957 1954 1951 1949 1946 1944 1943 1942 1941 1939 1937 1936 1935 1934 1933 1932 1931 1930 1928 1926 1925 1924 1922 1921 1919 1917 1915 1913 1911 1910 1908 1906 1905 1903 1900 1898 1896 1895 1893 1892 1890 1889 1887 1885 1884 1882 1881 1880 1878 1877 1876 1874 1874 1872 1872 1871 1870 1869 1866 1864 1862 1861 1859 1858 1855 1853 1849 1845 1842 1838 1831 1826 1824 1823 1822 1820 1818 1817 1817 1816 1814 1813 1812 1811 1811 1810 1809 1808 1808 1807 1805 1803 1801 1800 1800 1800 1800 1801 1801 1801 1799 1799 1799 1798 1797 1796 1795 1793 1793 1793 1791 1790 1789 1788 1786 1785 1784 1783 1782 1781 1780 1779 1779 1778 1778 1779 1778 1779 1779 1779 1781 1783 1787 1790 1794 1798 1799 1799 1799 1801 1801 1802 1802 1802 1802 1803 1803 1803 1801 1799 1798 1798 1798 1799 1799 1800 1800 1800 1800 1800 1800 1800 1800 1800 1800 1801 1802 1802 1802 1802 1802 1801 1800 1799 1798 1796 1795 1793 1791 1790 1790 1789 1787 1787 1786 1785 1785 1784 1783 1781 1781 1780 1779 1779 1779 1779 1779 1780 1780 1780 1780 1780 1780 1775 1774 1774 1774 1774 1774 1775 1779 1779 1779 1774 1758 1742 1727 1727 0 0 0
1788 1793 1793 1793 1783 1783 1782 1782 1782 1779 1775 1775 1775 1774 1774 1774 1773 1773 1772 1769 1768 1768 1766 1766 1766 1763 1762 1762 1762 1762 1762 1764 1764 1764 1760 1758 1755 1750 1746 1743 1741 1740 1739 1735 1727 1721 1713 1710 1709 1709 1709 1713 1714 1714 1714 1695 1674 1639 1596 0 0 0 0 0 0 0 0 0 0 0 0 0 0 0 0 0 0 0 0 0 0 0 0 0 0 0 0 0 0 0 0 0 0 0 0 0 0 0 0 0 0 0 0 0 0 0 0 0 0 0 0 0 0 0 0 0 0 0 0 0 0 0 2343 2355 2355 2355 2350 2350 2350 2352 2355 2362 2363 2365 2371 2381 2384 2384 2384 2384 2384 2396 2406 2406 2411 2423 2423 2423 2394 0 0 0 0 0 0 0 0 0 0 0 0 0 0 0 0 0 0 0 0 0 0 0 0 0 0 0 0 0 0 0 0 0 0 0 0 0 0 0 0 0 0 0 0 0 0 0 0 0 0 0 0 0 0 0 0 0 0 0 0 0 0 0 0 0 0 0 0 0 0 0 0 0 0 0 0 0 0 0 0 0 0 0 0 0 0 0 0 2357 2363 2387 2407 2425 2428 2428 2428 2421 2421 2421 2421 2429 2431 2436 2443 2446 2452 2454 2454 2454 2456 2457 2458 2464 2469 2469 2470 2472 2478 2482 2482 2482 2474 2454 2433 2366 2366 2366 2369 2410 0 0 0 0 0 0 0 0 0 0 0 0 0 0 0 0 0 0 0 0 0 0 0 0 0 0 0 0 0 0 0 0 0 0 2556 2610 2627 2635 2645 2645 2645 2645 2645 2645 2645 2655 2655 2656 2656 2656 2658 2661 2669 2669 2669 2669 2672 2674 2674 2676 2680 2680 2680 2680 2680 2686 2686 2689 2690 2692 2699 2699 2699 2685 2667 2666 2666 2666 2684 2689 2689 2689 2684 2682 2680 2677 2650 2596 2525 0 0 2273 2261 2245 2226 2200 2168 2151 2142 2130 2129 2124 2112 2104 2098 2093 2090 2085 2081 2077 2071 2066 2062 2056 2051 2043 2035 2030 2025 2019 2013 2007 2002 1997 1991 1986 1983 1979 1976 1972 1969 1966 1964 1961 1959 1957 1954 1951 1948 1946 1944 1943 1942 1940 1939 1937 1936 1935 1934 1933 1932 1931 1929 1928 1926 1925 1924 1922 1921 1919 1917 1915 1913 1911 1910 1908 1906 1905 1903 1900 1898 1896 1895 1893 1892 1890 1889 1887 1885 1884 1883 1881 1880 1879 1878 1877 1876 1875 1873 1872 1872 1871 1869 1868 1866 1863 1862 1860 1860 1859 1857 1852 1849 1845 1840 1837 1835 1833 1829 1823 1820 1820 1818 1818 1818 1817 1816 1815 1815 1810 1810 1809 1808 1808 1807 1805 1803 1801 1800 1800 1800 1799 1799 1799 1799 1797 1797 1797 1796 1796 1795 1794 1793 1793 1793 1791 1790 1789 1787 1786 1785 1784 1783 1782 1781 1779 1778 1778 1778 1778 1778 1778 1778 1779 1779 1779 1781 1784 1788 1791 1794 1795 1796 1796 1798 1798 1798 1798 1799 1799 1799 1799 1799 1799 1797 1797 1797 1798 1798 1798 1797 1797 1797 1798 1798 1798 1798 1799 1799 1800 1800 1801 1801 1801 1801 1800 1798 1798 1797 1797 1796 1795 1793 1791 1790 1790 1789 1788 1787 1787 1785 1785 1784 1783 1782 1781 1780 1779 1779 1779 1779 1779 1779 1779 1779 1779 1777 1777 1775 1774 1774 1774 1774 1775 1777 1778 1777 1777 1774 1758 1729 1706 0 0 0 0
1784 1793 1793 1793 1783 1782 1782 1780 1780 1776 1774 1773 1772 1771 1770 1770 1769 1768 1768 1768 1765 1765 1764 1764 1764 1761 1759 1759 1759 1761 1762 1762 1762 1760 1756 1752 1750 1743 1738 1734 1734 1733 1732 1729 1727 1722 1716 1712 1712 1712 1712 1714 1717 1717 1717 1700 1687 1675 1641 1595 1591 1559 1526 0 0 0 0 0 0 0 0 0 0 0 0 0 0 0 0 0 0 0 0 0 0 0 0 0 0 0 0 0 0 0 0 0 0 0 0 0 0 0 0 0 0 0 0 0 0 0 0 0 0 0 0 0 0 0 0 0 0 2325 2349 2361 2361 2361 2358 2353 2353 2353 2353 2358 2362 2366 2371 2381 2386 2386 2386 2386 2386 2396 2406 2406 2411 2423 2423 2423 2404 2376 2345 2329 0 0 0 0 0 0 0 0 0 0 0 0 0 0 0 0 0 0 0 0 0 0 0 0 0 0 0 0 0 0 0 0 0 0 0 0 0 0 0 0 0 0 0 0 0 0 0 0 0 0 0 0 0 0 0 0 0 0 0 0 0 0 0 0 0 0 0 0 0 0 0 0 0 0 0 0 0 0 0 0 0 0 0 0 0 0 0 0 0 0 2426 2426 2426 2417 2412 2412 2412 2415 2419 2423 2426 2431 2438 2443 2446 2446 2447 2447 2451 2457 2466 2468 2469 2469 2469 2470 2470 2470 2461 2450 2433 2389 2369 2369 2369 2410 2433 2449 2449 2449 2446 2443 2442 2442 2428 0 0 0 0 0 0 0 0 0 0 0 0 0 0 0 0 0 0 0 0 0 0 0 0 0 2556 2609 2621 2627 2637 2638 2638 2638 2638 2638 2642 2646 2649 2649 2650 2651 2653 2657 2657 2657 2660 2660 2660 2663 2670 2670 2672 2674 2675 2675 2675 2680 2685 2686 2687 2689 2689 2689 2689 2684 2663 2663 2663 2664 2680 2686 2686 2686 2684 2676 2669 2664 2647 2594 0 0 0 2272 2258 2241 2226 2198 2167 2146 2136 2126 2126 2122 2112 2104 2098 2092 2088 2083 2079 2074 2070 2065 2059 2054 2049 2042 2035 2031 2027 2021 2015 2008 2002 1997 1992 1987 1983 1979 1976 1972 1969 1966 1963 1961 1959 1957 1954 1951 1948 1945 1943 1943 1942 1940 1938 1937 1935 1935 1934 1932 1931 1930 1929 1928 1926 1925 1924 1922 1921 1919 1917 1915 1913 1911 1910 1908 1906 1905 1903 1900 1898 1896 1895 1893 1892 1890 1889 1888 1886 1885 1883 1882 1880 1879 1879 1878 1876 1875 1875 1873 1872 1871 1870 1869 1866 1865 1864 1863 1863 1861 1859 1856 1851 1847 1845 1841 1840 1840 1840 1840 1839 1831 1825 1822 1822 1818 1818 1816 1815 1814 1812 1811 1809 1808 1807 1805 1803 1801 1800 1800 1800 1799 1798 1797 1797 1797 1797 1796 1796 1795 1794 1794 1793 1793 1793 1790 1789 1787 1787 1785 1784 1783 1783 1781 1780 1779 1778 1778 1778 1778 1778 1778 1778 1778 1778 1778 1779 1780 1784 1787 1789 1791 1791 1792 1794 1794 1795 1795 1795 1796 1796 1796 1796 1796 1796 1796 1796 1796 1796 1796 1796 1795 1795 1795 1796 1796 1797 1797 1798 1798 1799 1800 1800 1800 1798 1797 1796 1795 1794 1794 1794 1794 1793 1791 1790 1789 1789 1788 1787 1787 1785 1784 1784 1784 1782 1782 1780 1779 1779 1779 1779 1779 1778 1775 1775 1775 1775 1775 1775 1775 1775 1775 1777 1777 1777 1777 1769 1767 1761 1752 1727 0 0 0 0 0
1784 1793 1793 1793 1782 1782 1780 1779 1778 1776 1773 1773 1771 1769 1767 1767 1767 1766 1765 1763 1762 1762 1762 1762 1760 1757 1757 1757 1757 1757 1762 1762 1762 1755 1751 1746 1745 1739 1735 1730 1728 1727 1724 1724 1722 1722 1716 1715 1711 1711 1711 1713 1714 1714 1714 1700 1688 1677 1662 1635 1592 1560 1559 0 0 0 0 0 0 0 0 0 0 0 0 0 0 0 0 0 0 0 0 0 0 0 0 0 0 0 0 0 0 0 0 0 0 0 0 0 0 0 0 0 0 0 0 0 0 0 0 0 0 0 0 0 0 0 0 0 0 2346 2350 2368 2373 2373 2373 2362 2356 2356 2356 2358 2362 2366 2371 2381 2386 2386 2390 2390 2390 2396 2399 2401 2409 2423 2423 2423 2404 2377 2360 2338 2323 0 0 0 0 0 0 0 0 0 0 0 0 0 0 0 0 0 0 0 0 0 0 0 0 0 0 0 0 0 0 0 0 0 0 0 0 0 0 0 0 0 0 0 0 0 0 0 0 0 0 0 0 0 0 0 0 0 0 0 0 0 0 0 0 0 0 0 0 0 0 0 0 0 0 0 0 0 0 0 0 0 0 0 0 0 0 0 0 0 0 2410 2410 2410 2405 2404 2404 2404 2408 2412 2413 2421 2429 2438 2439 2440 2441 2441 2443 2448 2455 2461 2464 2464 2464 2464 2464 2458 2449 2433 2432 2395 2376 2376 2376 2410 2433 2449 2457 2457 2457 2451 2450 2450 2450 2449 0 0 0 0 0 0 0 0 0 0 0 0 0 0 0 0 0 0 0 0 0 0 0 0 2553 2607 2615 2615 2626 2637 2637 2637 2635 2633 2633 2633 2637 2638 2640 2642 2647 2647 2647 2645 2645 2645 2648 2654 2657 2659 2665 2670 2671 2673 2674 2676 2685 2685 2685 2685 2685 2682 2682 2671 2655 2655 2655 2655 2668 2677 2677 2677 2677 2672 2664 2653 2625 2574 0 0 0 2265 2258 2240 2221 2193 2167 2142 2134 2126 2125 2121 2110 2105 2094 2090 2088 2081 2076 2073 2068 2065 2059 2053 2047 2041 2035 2031 2027 2021 2015 2009 2002 1997 1992 1987 1983 1979 1976 1972 1969 1966 1963 1961 1959 1957 1953 1951 1947 1945 1943 1941 1940 1939 1938 1937 1935 1934 1933 1932 1931 1930 1929 1927 1926 1926 1924 1922 1921 1919 1917 1915 1913 1911 1909 1908 1906 1903 1902 1900 1898 1896 1895 1893 1891 1890 1889 1888 1887 1885 1883 1882 1881 1880 1879 1878 1877 1876 1875 1874 1873 1872 1870 1869 1867 1866 1865 1864 1864 1864 1862 1859 1854 1851 1848 1847 1846 1845 1845 1843 1842 1839 1836 1832 1828 1824 1818 1816 1815 1815 1815 1814 1813 1811 1810 1808 1808 1805 1803 1801 1800 1799 1798 1797 1797 1796 1796 1796 1796 1795 1794 1793 1793 1792 1791 1790 1788 1787 1786 1785 1783 1783 1782 1781 1779 1778 1777 1777 1777 1777 1776 1776 1776 1777 1777 1777 1777 1778 1780 1783 1784 1785 1787 1789 1789 1790 1792 1792 1793 1794 1794 1794 1793 1793 1793 1794 1795 1795 1795 1794 1793 1793 1793 1793 1793 1795 1796 1796 1797 1798 1799 1799 1799 1798 1796 1795 1793 1793 1793 1793 1793 1793 1793 1791 1789 1788 1788 1788 1787 1785 1784 1784 1784 1784 1783 1783 1780 1779 1779 1779 1779 1779 1778 1775 1775 1775 1776 1776 1778 1778 1778 1778 1782 1782 1782 1776 1759 1758 1749 1748 0 0 0 0 0 0
1778 1786 1786 1786 1782 1781 1780 1777 1777 1776 1773 1771 1769 1768 1767 1767 1766 1764 1761 1760 1759 1759 1759 1759 1758 1754 1749 1749 1749 1755 1760 1760 1760 1755 1750 1745 1739 1739 1732 1728 1725 1720 1720 1720 1720 1720 1716 1715 1711 1711 1711 1711 1714 1714 1714 1695 1688 1677 1671 1658 1612 1578 1560 0 0 0 0 0 0 0 0 0 0 0 0 0 0 0 0 0 0 0 0 0 0 0 0 0 0 0 0 0 0 0 0 0 0 0 0 0 0 0 0 0 0 0 0 0 0 0 0 0 0 0 0 0 0 0 0 0 0 2346 2351 2368 2376 2376 2376 2367 2362 2358 2358 2358 2362 2366 2373 2381 2386 2386 2389 2389 2390 2396 2397 2399 2407 2420 2420 2420 2404 2394 2383 2354 2323 0 0 0 0 0 0 0 0 0 0 0 0 0 0 0 0 0 0 0 0 0 0 0 0 0 0 0 0 0 0 0 0 0 0 0 0 0 0 0 0 0 0 0 0 0 0 0 0 0 0 0 0 0 0 0 0 0 0 0 0 0 0 0 0 0 0 0 0 0 0 0 0 0 0 0 0 0 0 0 0 0 0 0 0 0 0 0 0 0 0 0 0 2376 2383 2384 2389 2392 2398 2404 2406 2415 2425 2436 2439 2440 2440 2439 2439 2440 2442 2449 2456 2456 2456 2456 2454 2447 2435 2432 2431 2398 2391 2376 2376 2376 2416 2449 2457 2457 2457 2449 2449 2449 2450 2450 2450 2450 0 0 0 0 0 0 0 0 0 0 0 0 0 0 0 0 0 0 0 0 0 0 2553 2590 2596 2602 2606 2620 2630 2630 2630 2625 2622 2622 2623 2624 2624 2628 2635 2637 2637 2637 2634 2634 2634 2635 2645 2646 2657 2664 2670 2671 2672 2673 2685 2685 2685 2680 2679 2676 2676 2670 2654 2641 2641 2641 2647 2654 2659 2664 2664 2664 2662 2653 2625 2516 0 0 2273 2262 2258 2239 2212 2193 2156 2135 2134 2126 2124 2120 2110 2105 2094 2090 2085 2079 2073 2071 2068 2063 2059 2053 2047 2040 2035 2031 2027 2021 2015 2009 2002 1996 1992 1987 1983 1979 1976 1972 1969 1965 1962 1960 1959 1956 1953 1951 1947 1945 1943 1941 1940 1939 1938 1937 1935 1934 1933 1932 1931 1930 1929 1927 1926 1926 1924 1923 1921 1919 1917 1915 1913 1911 1909 1907 1904 1902 1900 1898 1897 1896 1894 1893 1891 1890 1889 1888 1887 1886 1884 1883 1881 1881 1879 1879 1877 1876 1876 1874 1873 1872 1871 1870 1869 1867 1866 1865 1865 1865 1864 1862 1857 1854 1851 1851 1851 1850 1850 1848 1846 1844 1841 1839 1835 1833 1830 1829 1826 1823 1821 1820 1818 1815 1811 1810 1808 1806 1804 1803 1802 1800 1798 1797 1797 1796 1796 1796 1796 1795 1794 1793 1793 1792 1791 1790 1788 1787 1786 1785 1783 1783 1782 1781 1779 1778 1777 1777 1777 1776 1776 1776 1776 1776 1776 1776 1777 1777 1778 1780 1780 1780 1783 1785 1786 1788 1788 1788 1789 1790 1791 1791 1791 1791 1791 1792 1793 1793 1793 1793 1792 1792 1792 1792 1792 1793 1793 1795 1797 1797 1797 1797 1797 1796 1794 1793 1792 1791 1791 1791 1792 1792 1792 1790 1789 1787 1787 1786 1785 1784 1784 1784 1784 1784 1784 1784 1782 1779 1779 1779 1779 1779 1778 1775 1775 1775 1776 1780 1780 1780 1781 1781 1782 1782 1782 1776 1757 1746 1741 0 0 0 0 0 0 0
1778 1779 1782 1782 1781 1780 1780 1777 1774 1774 1768 1764 1764 1764 1764 1764 1764 1760 1756 1756 1756 1757 1757 1757 1755 1752 1749 1749 1749 1751 1758 1758 1758 1754 1749 1745 1739 1737 1731 1725 1721 1718 1718 1718 1718 1718 1716 1715 1711 1709 1709 1709 1707 1707 1701 1695 1687 1677 1671 1660 1637 1593 1564 0 0 0 0 0 0 0 0 0 0 0 0 0 0 0 0 0 0 0 0 0 0 0 0 0 0 0 0 0 0 0 0 0 0 0 0 0 0 0 0 0 0 0 0 0 0 0 0 0 0 0 0 0 0 0 0 0 0 2346 2350 2367 2376 2376 2376 2370 2364 2364 2364 2364 2368 2373 2373 2374 2381 2385 2386 2387 2392 2396 2397 2399 2402 2408 2408 2408 2404 2394 2383 2354 2323 0 0 0 0 0 0 0 0 0 0 0 0 0 0 0 0 0 0 0 0 0 0 0 0 0 0 0 0 0 0 0 0 0 0 0 0 0 0 0 0 0 0 0 0 0 0 0 0 0 0 0 0 0 0 0 0 0 0 0 0 0 0 0 0 0 0 0 0 0 0 0 0 0 0 0 0 0 0 0 0 0 0 0 0 0 0 0 0 0 0 0 0 0 2351 2369 2374 2391 2394 2394 2400 2412 2425 2436 2438 2438 2438 2438 2438 2438 2438 2443 2447 2448 2448 2448 2446 2441 2435 2432 2431 2413 2399 2377 2369 2369 2369 2381 2440 2447 2447 2449 2449 2449 2451 2452 2454 2454 2454 2434 0 0 0 0 0 0 0 0 0 0 0 0 0 0 0 0 0 0 0 0 2553 2575 2579 2581 2581 2594 2613 2613 2613 2602 2602 2602 2613 2614 2617 2618 2623 2623 2623 2623 2620 2617 2617 2617 2625 2625 2641 2653 2669 2669 2670 2670 2677 2678 2678 2678 2667 2660 2660 2658 2654 2634 2617 2608 2608 2608 2610 2616 2618 2636 2636 2636 2620 2513 0 2271 2269 2262 2258 2239 2209 2188 2151 2135 2134 2125 2120 2115 2110 2105 2094 2084 2081 2075 2070 2067 2064 2062 2058 2053 2046 2039 2034 2030 2026 2021 2015 2009 2001 1996 1992 1986 1982 1979 1975 1972 1968 1964 1961 1960 1958 1956 1953 1950 1947 1945 1943 1941 1940 1939 1937 1937 1935 1934 1933 1932 1931 1929 1929 1927 1926 1926 1924 1923 1921 1919 1917 1915 1913 1909 1907 1906 1904 1902 1900 1898 1897 1896 1894 1893 1892 1891 1889 1889 1887 1886 1884 1883 1882 1881 1880 1879 1879 1877 1876 1875 1874 1873 1872 1870 1869 1868 1866 1866 1866 1865 1864 1863 1860 1856 1854 1854 1854 1854 1853 1850 1849 1848 1845 1842 1841 1839 1838 1837 1836 1835 1833 1829 1826 1818 1815 1814 1813 1810 1806 1803 1803 1803 1800 1797 1796 1796 1796 1795 1795 1794 1794 1794 1793 1792 1791 1790 1788 1787 1786 1785 1783 1783 1782 1781 1779 1778 1778 1777 1777 1776 1776 1776 1776 1775 1775 1776 1776 1776 1777 1778 1778 1779 1781 1783 1784 1784 1784 1785 1786 1787 1789 1790 1790 1790 1790 1792 1792 1792 1792 1792 1792 1791 1791 1791 1791 1791 1791 1793 1794 1795 1795 1795 1794 1794 1792 1792 1791 1791 1790 1790 1790 1790 1790 1790 1788 1786 1786 1786 1784 1784 1784 1784 1785 1785 1785 1784 1782 1779 1779 1779 1779 1779 1779 1777 1777 1777 1777 1778 1780 1781 1781 1781 1781 1781 1781 1775 1749 0 0 0 0 0 0 0 0 0
1778 1779 1779 1780 1779 1779 1779 1774 1770 1769 1763 1755 1755 1755 1759 1759 1759 1755 1751 1751 1751 1753 1753 1753 1753 1750 1749 1749 1749 1751 1753 1753 1753 1753 1747 1744 1735 1734 1727 1721 1717 1717 1716 1716 1716 1714 1714 1712 1706 1699 1699 1694 1694 1691 1690 1687 1679 1672 1671 1660 1641 1599 1567 1567 0 0 0 0 0 0 0 0 0 0 0 0 0 0 0 0 0 0 0 0 0 0 0 0 0 0 0 0 0 0 0 0 0 0 0 0 0 0 0 0 0 0 0 0 0 0 0 0 0 0 0 0 0 0 0 0 0 2340 2349 2355 2371 2375 2375 2375 2373 2373 2373 2378 2378 2378 2376 2376 2376 2376 2380 2386 2392 2396 2396 2397 2402 2408 2408 2408 2404 2394 2383 2354 0 0 0 0 0 0 0 0 0 0 0 0 0 0 0 0 0 0 0 0 0 0 0 0 0 0 0 0 0 0 0 0 0 0 0 0 0 0 0 0 0 0 0 0 0 0 0 0 0 0 0 0 0 0 0 0 0 0 0 0 0 0 0 0 0 0 0 0 0 0 0 0 0 0 0 0 0 0 0 0 0 0 0 0 0 0 0 0 0 0 0 0 0 0 0 0 2349 2374 2393 2394 2396 2407 2419 2430 2435 2438 2438 2438 2435 2435 2435 2437 2438 2440 2440 2440 2440 2440 2435 2434 2431 2426 2417 2402 2378 2369 2369 2369 2378 2414 2439 2442 2444 2446 2450 2451 2454 2454 2454 2454 2451 0 0 0 0 0 0 0 0 0 0 0 0 0 0 0 0 0 0 0 2551 2559 2561 2563 2563 2581 2596 2596 2596 2595 2595 2595 2605 2607 2611 2611 2613 2613 2613 2611 2608 2606 2606 2606 2610 2610 2621 2630 2642 2652 2654 2658 2669 2669 2669 2666 2639 2637 2633 2627 2625 2607 2586 2574 2571 2565 2565 2571 2579 2602 2605 2605 2605 0 0 2268 2262 2259 2258 2239 2209 2182 2150 2134 2132 2124 2116 2110 2105 2100 2088 2079 2073 2073 2068 2064 2060 2058 2055 2050 2044 2039 2034 2030 2026 2021 2015 2007 2001 1996 1992 1986 1982 1978 1975 1970 1967 1963 1961 1958 1956 1954 1952 1950 1947 1945 1943 1941 1940 1939 1937 1936 1935 1934 1933 1931 1931 1929 1929 1927 1926 1925 1924 1923 1921 1918 1917 1914 1911 1909 1907 1905 1904 1901 1899 1898 1896 1895 1894 1893 1892 1891 1889 1888 1888 1886 1885 1883 1882 1882 1881 1879 1879 1877 1876 1875 1875 1873 1873 1871 1870 1868 1867 1867 1866 1866 1865 1864 1862 1859 1858 1857 1857 1857 1855 1853 1852 1850 1850 1848 1847 1846 1844 1844 1841 1839 1837 1835 1832 1829 1825 1825 1824 1822 1817 1810 1809 1807 1801 1798 1796 1796 1796 1796 1795 1795 1795 1794 1794 1793 1792 1792 1789 1789 1788 1786 1786 1784 1783 1782 1781 1780 1780 1778 1777 1776 1776 1776 1775 1775 1775 1775 1776 1776 1776 1777 1777 1778 1779 1781 1781 1782 1782 1782 1784 1786 1786 1788 1788 1789 1789 1790 1791 1791 1791 1791 1790 1790 1790 1789 1789 1789 1789 1791 1792 1792 1792 1792 1792 1791 1790 1790 1790 1789 1789 1789 1789 1789 1789 1789 1787 1786 1786 1786 1784 1783 1783 1783 1785 1785 1785 1784 1781 1779 1779 1779 1779 1779 1779 1779 1779 1778 1778 1779 1780 1781 1781 1780 1780 1777 1776 1772 0 0 0 0 0 0 0 0 0 0
1780 1778 1780 1780 1779 1779 1779 1773 1767 1758 1758 1749 1749 1749 1754 1754 1754 1749 1746 1746 1746 1749 1750 1750 1750 1750 1750 1750 1750 1750 1750 1747 1746 1744 1744 1742 1731 1723 1722 1718 1713 1710 1710 1709 1708 1707 1706 1703 1694 1687 1681 1678 1671 1670 1666 1665 1663 1662 1657 1652 1650 1612 1590 1582 1566 0 0 0 0 0 0 0 0 0 0 0 0 0 0 0 0 0 0 0 0 0 0 0 0 0 0 0 0 0 0 0 0 0 0 0 0 0 0 0 0 0 0 0 0 0 0 0 0 0 0 0 0 0 0 0 0 2326 2339 2349 2358 2374 2374 2374 2374 2374 2374 2378 2379 2379 2379 2376 2376 2376 2378 2386 2392 2395 2396 2397 2402 2406 2406 2406 2400 2393 2378 0 0 0 0 0 0 0 0 0 0 0 0 0 0 0 0 0 0 0 0 0 0 0 0 0 0 0 0 0 0 0 0 0 0 0 0 0 0 0 0 0 0 0 0 0 0 0 0 0 0 0 0 0 0 0 0 0 0 0 0 0 0 0 0 0 0 0 0 0 0 0 0 0 0 0 0 0 0 0 0 0 0 0 0 0 0 0 0 0 0 0 0 0 0 0 0 0 0 0 2373 2377 2391 2401 2416 2421 2425 2433 2434 2434 2434 2431 2431 2431 2431 2433 2434 2437 2440 2440 2440 2439 2437 2432 2426 2422 2403 2371 2371 2371 2371 2372 2377 2391 2425 2445 2448 2449 2453 2453 2454 2454 2451 2438 0 0 0 0 0 0 0 0 0 0 0 0 0 0 0 0 0 0 2541 2542 2543 2546 2550 2564 2579 2591 2591 2593 2594 2594 2597 2598 2600 2601 2607 2609 2609 2609 2603 2597 2595 2595 2595 2603 2607 2614 2619 2625 2628 2647 2658 2658 2658 2642 2614 2604 2597 2594 2584 2561 2545 2524 2513 2513 2513 2526 2564 2569 2570 2570 2570 0 0 2268 2262 2262 2259 2239 2188 2164 2150 2134 2129 2127 2116 2110 2102 2095 2085 2078 2073 2069 2068 2063 2059 2055 2052 2047 2041 2036 2032 2028 2024 2017 2011 2006 2001 1996 1992 1986 1982 1978 1975 1969 1964 1961 1959 1956 1954 1952 1951 1949 1947 1945 1943 1941 1940 1938 1937 1936 1935 1934 1933 1931 1930 1929 1928 1927 1925 1924 1924 1922 1920 1917 1915 1913 1910 1908 1906 1904 1903 1901 1899 1897 1896 1895 1894 1893 1892 1891 1890 1889 1888 1886 1885 1883 1882 1882 1881 1880 1879 1878 1877 1876 1875 1874 1873 1872 1871 1870 1868 1867 1867 1866 1865 1864 1863 1862 1860 1859 1858 1857 1856 1855 1854 1853 1853 1851 1851 1850 1850 1848 1845 1843 1841 1839 1837 1833 1829 1827 1827 1827 1824 1820 1811 1809 1805 1802 1801 1797 1796 1796 1795 1796 1795 1794 1794 1793 1793 1792 1790 1789 1789 1789 1788 1786 1785 1782 1782 1781 1780 1779 1778 1777 1777 1776 1775 1775 1775 1775 1776 1776 1776 1777 1777 1778 1779 1779 1780 1780 1780 1780 1782 1784 1785 1785 1786 1786 1789 1789 1789 1788 1788 1788 1788 1788 1788 1788 1787 1787 1787 1787 1787 1787 1787 1787 1787 1787 1787 1788 1788 1788 1788 1788 1788 1788 1788 1788 1786 1786 1786 1785 1784 1783 1783 1783 1783 1783 1783 1782 1781 1779 1779 1779 1780 1780 1780 1780 1780 1780 1780 1780 1780 1781 1781 1780 1774 1772 1772 0 0 0 0 0 0 0 0 0 0 0
1782 1778 1782 1781 1779 1779 1779 1767 1761 1756 1756 1748 1748 1748 1748 1748 1748 1747 1744 1744 1744 1744 1746 1748 1748 1749 1750 1750 1750 1749 1742 1735 1731 1731 1730 1728 1727 1723 1721 1716 1712 1701 1697 1694 1692 1691 1690 1689 1689 1674 1671 1671 1671 1670 1666 1665 1663 1662 1656 1652 1650 1649 1641 1634 1624 0 0 0 0 0 0 0 0 0 0 0 0 0 0 0 0 0 0 0 0 0 0 0 0 0 0 0 0 0 0 0 0 0 0 0 0 0 0 0 0 0 0 0 0 0 0 0 0 0 0 0 0 0 0 0 0 0 2332 2337 2352 2363 2374 2374 2374 2374 2374 2378 2379 2379 2379 2379 2377 2377 2377 2385 2388 2389 2391 2392 2402 2408 2408 2408 2395 2383 0 0 0 0 0 0 0 0 0 0 0 0 0 0 0 0 0 0 0 0 0 0 0 0 0 0 0 0 0 0 0 0 0 0 0 0 0 0 0 0 0 0 0 0 0 0 0 0 0 0 0 0 0 0 0 0 0 0 0 0 0 0 0 0 0 0 0 0 0 0 0 0 0 0 0 0 0 0 0 0 0 0 0 0 0 0 0 0 0 0 0 0 0 0 0 0 0 0 0 0 0 0 0 0 2405 2410 2415 2422 2430 2430 2430 2425 2425 2425 2426 2431 2433 2435 2443 2443 2443 2441 2437 2432 2426 2424 2419 2411 2383 2372 2372 2372 2373 2377 2378 2405 2439 2444 2446 2451 2454 2454 2451 2438 2431 2420 0 0 0 0 0 0 0 0 0 0 0 0 0 0 0 0 2524 2532 2538 2538 2550 2556 2562 2579 2584 2584 2584 2584 2584 2584 2584 2589 2597 2604 2604 2604 2603 2597 2593 2591 2591 2591 2598 2608 2617 2620 2621 2629 2629 2629 2618 2597 2578 2563 2552 2527 2505 0 0 0 2478 2478 2479 2496 2532 2532 2532 2530 2522 0 0 2271 2268 2262 2259 2239 2180 2151 2145 2135 2132 2127 2116 2110 2102 2091 2085 2077 2073 2069 2068 2062 2058 2054 2050 2043 2038 2033 2029 2025 2019 2013 2008 2003 1999 1996 1991 1989 1983 1978 1973 1968 1963 1960 1958 1956 1953 1951 1949 1948 1946 1945 1943 1941 1939 1938 1936 1936 1935 1934 1933 1931 1930 1929 1928 1926 1925 1924 1923 1922 1920 1917 1915 1911 1909 1907 1905 1903 1901 1899 1898 1897 1896 1894 1894 1893 1892 1891 1890 1889 1888 1886 1885 1884 1882 1882 1881 1880 1879 1878 1877 1876 1875 1874 1873 1873 1871 1870 1870 1868 1868 1867 1866 1865 1865 1864 1862 1861 1860 1858 1857 1856 1856 1855 1854 1854 1853 1852 1851 1850 1848 1848 1846 1844 1842 1838 1834 1834 1832 1831 1827 1823 1820 1818 1815 1810 1807 1804 1798 1798 1798 1798 1798 1798 1798 1795 1793 1792 1790 1790 1789 1789 1789 1787 1785 1783 1782 1782 1781 1780 1779 1778 1778 1777 1775 1775 1775 1776 1776 1776 1776 1777 1777 1778 1779 1779 1780 1780 1780 1780 1781 1782 1783 1783 1784 1786 1787 1787 1787 1787 1787 1787 1787 1787 1787 1786 1786 1786 1785 1785 1784 1783 1782 1782 1782 1784 1785 1786 1786 1786 1786 1786 1786 1786 1786 1786 1786 1786 1786 1785 1784 1783 1783 1783 1783 1783 1781 1781 1780 1780 1780 1780 1780 1781 1783 1783 1783 1782 1780 1779 1777 1776 1776 1769 1769 1767 0 0 0 0 0 0 0 0 0 0 0 0
1787 1780 1783 1780 1779 1777 1768 1759 1758 1754 1753 1747 1741 1741 1741 1745 1745 1745 1744 1743 1742 1742 1742 1746 1748 1748 1750 1750 1750 1744 1732 1725 1722 1721 1721 1720 1718 1718 1715 1715 1710 1693 1683 1682 1682 1680 1679 1675 1671 1671 1669 1669 1669 1666 1666 1664 1663 1662 1656 1655 1655 1655 1655 1659 1666 0 0 0 0 0 0 0 0 0 0 0 0 0 0 0 0 0 0 0 0 0 0 0 0 0 0 0 0 0 0 0 0 0 0 0 0 0 0 0 0 0 0 0 0 0 0 0 0 0 0 0 0 0 0 0 0 0 0 0 0 2348 2364 2365 2367 2368 2372 2372 2374 2374 2374 2374 2376 2376 2375 2376 2376 2377 2378 2384 2402 2402 2402 2390 0 0 0 0 0 0 0 0 0 0 0 0 0 0 0 0 0 0 0 0 0 0 0 0 0 0 0 0 0 0 0 0 0 0 0 0 0 0 0 0 0 0 0 0 0 0 0 0 0 0 0 0 0 0 0 0 0 0 0 0 0 0 0 0 0 0 0 0 0 0 0 0 0 0 0 0 0 0 0 0 0 0 0 0 0 0 0 0 0 0 0 0 0 0 0 0 0 0 0 0 0 0 0 0 0 0 0 2395 2403 2408 2411 2413 2413 2413 2413 2413 2421 2427 2431 2435 2443 2443 2443 2441 2437 2432 2428 2426 2426 2421 2421 2402 2377 2373 2373 2373 2373 2372 2372 2372 2391 2406 2424 2429 2431 2431 2431 2420 2416 2410 2410 2408 2399 2392 2389 2386 2369 2367 2363 2363 2363 2372 2424 2478 2514 2531 2538 2538 2550 2556 2560 2573 2578 2578 2578 2573 2573 2573 2576 2579 2583 2596 2603 2603 2603 2597 2593 2583 2583 2583 2590 2605 2607 2607 2607 2600 2590 2561 2538 2525 0 0 0 0 0 0 0 0 0 2431 2438 2455 2481 2485 2485 2485 2433 0 2316 2283 2282 2274 2262 2219 2170 2151 2145 2138 2135 2127 2121 2113 2102 2091 2085 2077 2072 2068 2065 2062 2057 2054 2049 2043 2035 2030 2026 2021 2015 2010 2004 2000 1999 1996 1991 1989 1983 1978 1972 1966 1962 1959 1958 1955 1952 1948 1947 1946 1944 1943 1942 1940 1939 1937 1936 1935 1935 1934 1932 1931 1930 1929 1928 1926 1924 1923 1922 1920 1919 1916 1913 1910 1908 1906 1904 1901 1900 1898 1897 1896 1895 1894 1894 1893 1892 1891 1889 1889 1888 1886 1885 1884 1882 1882 1881 1880 1879 1878 1877 1876 1875 1874 1874 1873 1872 1871 1870 1870 1869 1868 1867 1866 1866 1865 1863 1862 1861 1860 1858 1858 1858 1857 1856 1856 1855 1853 1853 1852 1850 1849 1849 1848 1847 1844 1840 1838 1834 1833 1833 1830 1829 1828 1828 1827 1824 1821 1814 1811 1806 1803 1803 1802 1801 1797 1795 1793 1792 1791 1791 1791 1789 1787 1785 1785 1785 1784 1783 1780 1779 1779 1779 1777 1777 1777 1778 1778 1778 1777 1777 1777 1777 1778 1779 1779 1780 1780 1780 1780 1781 1782 1782 1783 1783 1784 1785 1785 1785 1785 1785 1785 1785 1785 1784 1784 1784 1784 1784 1782 1781 1781 1781 1781 1781 1783 1784 1785 1785 1785 1785 1785 1785 1786 1786 1786 1786 1786 1786 1785 1784 1783 1783 1783 1783 1783 1781 1780 1780 1781 1782 1782 1783 1783 1783 1783 1783 1783 1782 1775 1773 1773 1769 1769 1767 1765 0 0 0 0 0 0 0 0 0 0 0 0
1791 1782 1783 1782 1781 1775 1762 1755 1755 1750 1745 1744 1740 1740 1740 1740 1743 1743 1743 1742 1740 1740 1740 1745 1747 1748 1748 1748 1746 1738 1728 1721 1720 1717 1715 1712 1712 1712 1712 1712 1707 1682 1679 1679 1679 1679 1679 1675 1671 1671 1669 1667 1666 1664 1664 1664 1664 1664 1664 1664 1661 1661 1661 1663 1669 1669 0 0 0 0 0 0 0 0 0 0 0 0 0 0 0 0 0 0 0 0 0 0 0 0 0 0 0 0 0 0 0 0 0 0 0 0 0 0 0 0 0 0 0 0 0 0 0 0 0 0 0 0 0 0 0 0 0 0 0 0 0 0 0 0 0 0 0 2351 2373 2373 2373 2373 2371 2365 2361 2361 2361 2374 2393 2393 2393 0 0 0 0 0 0 0 0 0 0 0 0 0 0 0 0 0 0 0 0 0 0 0 0 0 0 0 0 0 0 0 0 0 0 0 0 0 0 0 0 0 0 0 0 0 0 0 0 0 0 0 0 0 0 0 0 0 0 0 0 0 0 0 0 0 0 0 0 0 0 0 0 0 0 0 0 0 0 0 0 0 0 0 0 0 0 0 0 0 0 0 0 0 0 0 0 0 0 0 0 0 0 0 0 0 0 0 0 2387 2387 2398 2400 2400 2400 2400 2400 2409 2413 2421 2422 2431 2443 2443 2443 2441 2435 2431 2431 2431 2431 2431 2431 2425 2425 2419 2393 2378 2373 2372 2372 2371 2372 2372 2400 2416 2422 2422 2420 2420 2416 2410 2410 2408 2399 2392 2389 2386 2369 2367 2363 2363 2363 2375 2431 2474 2511 2529 2535 2535 2538 2549 2553 2557 2563 2569 2569 2569 2567 2567 2567 2574 2579 2585 2593 2597 2597 2597 2589 2578 2578 2578 2590 2594 2594 2594 2562 2513 0 0 0 0 0 0 0 0 0 0 0 0 0 2382 2391 2407 2435 2450 2450 2450 2408 2333 2293 2285 2282 2274 2253 2194 2156 2151 2145 2138 2133 2127 2121 2113 2102 2091 2085 2078 2073 2067 2064 2059 2055 2052 2049 2042 2035 2027 2022 2017 2012 2007 2002 1999 1997 1994 1991 1989 1983 1978 1971 1965 1960 1958 1956 1953 1950 1948 1946 1944 1943 1942 1941 1939 1938 1937 1936 1935 1934 1932 1932 1930 1930 1928 1927 1925 1923 1921 1920 1918 1916 1914 1911 1909 1908 1905 1903 1901 1899 1898 1896 1895 1895 1894 1893 1892 1891 1890 1889 1888 1887 1886 1884 1883 1883 1882 1881 1880 1879 1878 1877 1876 1875 1875 1874 1873 1872 1872 1871 1871 1870 1869 1868 1867 1866 1866 1864 1863 1862 1862 1860 1860 1859 1858 1857 1857 1856 1855 1854 1853 1853 1852 1851 1850 1849 1847 1842 1840 1839 1838 1836 1836 1834 1834 1834 1830 1828 1826 1824 1821 1816 1813 1811 1808 1807 1804 1803 1800 1798 1797 1796 1793 1789 1789 1789 1788 1788 1787 1786 1784 1780 1779 1779 1778 1778 1778 1778 1779 1780 1780 1779 1780 1779 1779 1780 1780 1780 1781 1781 1781 1781 1782 1782 1783 1783 1784 1784 1784 1784 1784 1785 1785 1785 1785 1784 1784 1782 1782 1782 1781 1781 1781 1780 1780 1780 1782 1783 1783 1783 1783 1783 1783 1783 1785 1786 1786 1786 1786 1786 1786 1784 1783 1783 1783 1783 1783 1780 1779 1779 1779 1782 1783 1783 1783 1783 1783 1783 1783 1782 1771 1771 1771 1765 1765 1765 0 0 0 0 0 0 0 0 0 0 0 0 0
1794 1783 1783 1781 1780 1774 1759 1752 1751 1748 1744 1741 1740 1738 1738 1738 1738 1738 1738 1738 1738 1738 1739 1743 1744 1745 1746 1746 1746 1735 1722 1717 1713 1710 1706 1704 1704 1702 1702 1691 1691 1679 1679 1679 1679 1679 1679 1681 1677 1675 1669 1669 1668 1668 1667 1666 1666 1666 1666 1666 1666 1666 1671 1677 1678 1678 1678 0 0 0 0 0 0 0 0 0 0 0 0 0 0 0 0 0 0 0 0 0 0 0 0 0 0 0 0 0 0 0 0 0 0 0 0 0 0 0 0 0 0 0 0 0 0 0 0 0 0 0 0 0 0 0 0 0 0 0 0 0 0 0 0 0 0 0 0 0 0 0 2349 2337 2323 2323 2323 2334 2351 2351 0 0 0 0 0 0 0 0 0 0 0 0 0 0 0 0 0 0 0 0 0 0 0 0 0 0 0 0 0 0 0 0 0 0 0 0 0 0 0 0 0 0 0 0 0 0 0 0 0 0 0 0 0 0 0 0 0 0 0 0 0 0 0 0 0 0 0 0 0 0 0 0 0 0 0 0 0 0 0 0 0 0 0 0 0 0 0 0 0 0 0 0 0 0 0 0 0 0 0 0 0 0 0 0 0 0 0 0 0 0 0 2347 2376 2392 2394 2395 2397 2403 2408 2410 2414 2420 2433 2434 2434 2434 2431 2431 2431 2436 2436 2436 2434 2431 2427 2427 2426 2415 2394 2372 2372 2371 2369 2372 2372 2377 2378 2393 2396 2408 2410 2410 2408 2408 2399 2392 2390 2386 2369 2367 2363 2363 2363 2376 2437 2474 2507 2522 2533 2535 2538 2538 2540 2546 2547 2553 2560 2561 2561 2563 2565 2572 2578 2583 2589 2596 2596 2596 2586 2563 2563 2563 2551 2508 0 0 0 0 0 0 0 0 0 0 0 0 0 0 0 0 0 2355 2369 2407 2425 2425 2425 2387 2371 2322 2293 2285 2282 2274 2233 2180 2156 2151 2150 2141 2133 2127 2121 2113 2104 2098 2087 2078 2073 2065 2060 2055 2050 2047 2045 2041 2033 2025 2019 2015 2010 2005 2001 1997 1995 1992 1990 1988 1983 1978 1971 1965 1960 1956 1954 1952 1949 1947 1946 1944 1943 1941 1940 1939 1938 1937 1936 1934 1933 1932 1930 1930 1929 1927 1927 1925 1922 1920 1918 1917 1915 1913 1911 1908 1906 1903 1903 1900 1898 1897 1896 1895 1894 1893 1892 1892 1891 1890 1889 1888 1887 1886 1884 1883 1882 1882 1881 1879 1879 1878 1877 1876 1875 1875 1874 1873 1872 1872 1872 1872 1871 1870 1869 1867 1866 1866 1866 1865 1863 1863 1861 1861 1861 1860 1859 1858 1858 1857 1857 1856 1855 1855 1854 1854 1852 1849 1847 1843 1842 1840 1840 1839 1838 1837 1836 1834 1832 1828 1826 1823 1819 1819 1819 1818 1817 1815 1814 1812 1809 1806 1803 1800 1800 1798 1796 1794 1794 1792 1791 1789 1785 1780 1779 1779 1778 1778 1778 1779 1780 1780 1781 1781 1782 1782 1781 1781 1781 1781 1781 1781 1782 1782 1782 1782 1783 1784 1784 1784 1784 1784 1784 1785 1785 1785 1784 1784 1782 1782 1781 1781 1781 1781 1780 1780 1780 1780 1780 1782 1782 1782 1782 1782 1782 1785 1786 1786 1786 1786 1786 1786 1784 1784 1784 1784 1784 1783 1779 1779 1779 1779 1782 1783 1783 1783 1783 1783 1782 1782 1782 1770 1770 1765 1761 1761 1760 0 0 0 0 0 0 0 0 0 0 0 0 0
1794 1783 1783 1780 1778 1769 1756 1751 1749 1747 1743 1741 1739 1738 1737 1734 1734 1733 1733 1733 1734 1735 1737 1738 1738 1739 1739 1739 1732 1726 1718 1709 1702 1697 1694 1692 1686 1681 1674 1674 1674 1674 1675 1677 1688 1688 1689 1688 1687 1686 1677 1674 1668 1668 1668 1667 1667 1667 1667 1668 1669 1669 1678 1679 1679 1679 1678 1655 0 0 0 0 0 0 0 0 0 0 0 0 0 0 0 0 0 0 0 0 0 0 0 0 0 0 0 0 0 0 0 0 0 0 0 0 0 0 0 0 0 0 0 0 0 0 0 0 0 0 0 0 0 0 0 0 0 0 0 0 0 0 0 0 0 0 0 0 0 0 0 2281 2282 2284 2285 2291 0 0 0 0 0 0 0 0 0 0 0 0 0 0 0 0 0 0 0 0 0 0 0 0 0 0 0 0 0 0 0 0 0 0 0 0 0 0 0 0 0 0 0 0 0 0 0 0 0 0 0 0 0 0 0 0 0 0 0 0 0 0 0 0 0 0 0 0 0 0 0 0 0 0 0 0 0 0 0 0 0 0 0 0 0 0 0 0 0 0 0 0 0 0 0 0 0 0 0 0 0 0 0 0 0 0 0 0 0 0 0 0 0 0 2314 2344 2382 2388 2397 2401 2403 2405 2406 2412 2417 2417 2422 2422 2423 2427 2429 2436 2436 2436 2434 2431 2427 2427 2426 2415 2413 2411 2403 2380 2372 2372 2372 2377 2378 2393 2396 2396 2396 2379 2365 2365 2365 2386 2386 2386 2369 2368 2365 2365 2365 2400 2448 2474 2495 2513 2529 2535 2535 2535 2530 2530 2530 2532 2549 2553 2555 2555 2560 2563 2565 2567 2573 2580 2580 2580 2539 2535 2533 2503 0 0 0 0 0 0 0 0 0 0 0 0 0 0 0 0 0 0 0 0 2364 2383 2413 2413 2413 2386 2324 2322 2289 2285 2282 2259 2205 2176 2156 2154 2151 2141 2133 2125 2117 2110 2104 2098 2089 2081 2073 2064 2057 2050 2045 2042 2040 2036 2031 2023 2017 2012 2009 2005 1999 1995 1992 1989 1987 1985 1981 1976 1970 1965 1960 1956 1952 1950 1948 1946 1946 1943 1942 1941 1940 1938 1937 1937 1935 1934 1933 1932 1930 1929 1927 1927 1925 1923 1921 1919 1917 1916 1914 1913 1909 1907 1905 1903 1902 1899 1898 1897 1896 1894 1894 1893 1891 1891 1890 1890 1889 1888 1887 1886 1884 1883 1882 1881 1881 1879 1879 1878 1877 1876 1876 1875 1874 1874 1874 1873 1872 1872 1871 1870 1870 1868 1868 1867 1866 1865 1864 1863 1863 1862 1862 1861 1860 1860 1859 1859 1859 1858 1857 1857 1856 1854 1853 1852 1851 1847 1845 1843 1841 1841 1840 1839 1839 1836 1834 1831 1829 1828 1827 1826 1826 1824 1823 1821 1820 1819 1817 1814 1811 1810 1808 1807 1806 1804 1804 1802 1798 1794 1791 1791 1789 1782 1780 1780 1780 1780 1780 1781 1784 1786 1786 1786 1785 1784 1784 1784 1784 1785 1785 1785 1783 1783 1783 1784 1784 1784 1784 1784 1784 1785 1785 1785 1784 1784 1782 1782 1781 1781 1781 1781 1780 1780 1780 1780 1780 1782 1782 1782 1782 1781 1781 1781 1782 1785 1786 1786 1786 1785 1784 1784 1784 1784 1783 1782 1779 1776 1776 1776 1782 1783 1783 1783 1778 1778 1778 1777 1771 1766 1765 1765 1761 1761 1760 0 0 0 0 0 0 0 0 0 0 0 0 0
1794 1783 1783 1778 1765 1760 1755 1751 1749 1747 1743 1739 1737 1737 1736 1732 1730 1726 1726 1726 1726 1726 1726 1726 1726 1726 1726 1726 1722 1716 1707 1696 1688 1683 1679 1666 1666 1666 1668 1672 1674 1675 1679 1683 1690 1690 1690 1689 1687 1687 1680 1675 1668 1668 1668 1668 1668 1668 1669 1669 1669 1673 1678 1680 1680 1680 1678 1655 0 0 0 0 0 0 0 0 0 0 0 0 0 0 0 0 0 0 0 0 0 0 0 0 0 0 0 0 0 0 0 0 0 0 0 0 0 0 0 0 0 0 0 0 0 0 0 0 0 0 0 0 0 0 0 0 0 0 0 0 0 0 0 0 0 0 0 0 0 0 0 2231 2243 2247 2247 2247 0 0 0 0 0 0 0 0 0 0 0 0 0 0 0 0 0 0 0 0 0 0 0 0 0 0 0 2301 2319 2319 2319 2318 0 0 0 0 0 0 0 0 0 0 0 0 0 0 0 0 0 0 0 0 0 0 0 0 0 0 0 0 0 0 0 0 0 0 0 0 0 0 0 0 0 0 0 0 0 0 0 0 0 0 0 0 0 0 0 0 0 0 0 0 0 0 0 0 0 0 0 0 0 0 0 0 0 0 0 0 0 0 0 0 0 0 0 2300 2322 2354 2387 2396 2400 2401 2402 2404 2404 2408 2408 2408 2412 2418 2429 2436 2436 2436 2434 2431 2427 2427 2426 2415 2415 2415 2413 2413 2403 2393 2379 2378 2378 2393 2396 2396 2396 2379 2365 2365 2365 2386 2386 2386 2371 2368 2368 2368 2400 2424 2449 2464 2480 2496 2513 2519 2519 2519 2515 2515 2515 2522 2532 2534 2538 2539 2539 2539 2539 2539 2540 2540 2540 2504 0 0 0 0 0 0 0 0 0 0 0 0 0 0 0 0 0 0 0 0 0 0 0 0 0 2383 2396 2396 2396 2375 2317 2286 2276 2270 2262 2220 2181 2173 2161 2157 2151 2141 2131 2123 2117 2110 2104 2098 2089 2081 2073 2064 2055 2050 2043 2038 2036 2034 2029 2021 2016 2011 2006 2002 1997 1993 1988 1986 1983 1981 1978 1974 1970 1965 1960 1956 1952 1950 1948 1946 1944 1943 1941 1940 1939 1938 1935 1934 1934 1933 1933 1931 1930 1928 1926 1925 1924 1923 1920 1918 1916 1915 1913 1911 1908 1905 1903 1902 1899 1898 1897 1896 1895 1894 1893 1892 1891 1891 1890 1889 1889 1888 1887 1886 1884 1883 1882 1881 1881 1879 1879 1878 1877 1876 1876 1875 1874 1874 1874 1873 1872 1872 1871 1871 1870 1869 1868 1867 1866 1866 1865 1864 1863 1863 1862 1861 1861 1860 1860 1860 1860 1859 1859 1858 1857 1855 1854 1853 1851 1849 1846 1844 1844 1843 1842 1841 1840 1838 1835 1833 1833 1833 1832 1832 1832 1832 1831 1829 1827 1825 1822 1818 1815 1815 1814 1814 1813 1813 1812 1811 1810 1805 1804 1802 1790 1784 1782 1782 1782 1782 1782 1782 1788 1791 1791 1791 1791 1789 1788 1788 1788 1788 1788 1786 1784 1784 1784 1784 1784 1784 1784 1784 1785 1785 1785 1785 1784 1784 1784 1782 1782 1781 1781 1781 1780 1780 1780 1780 1780 1782 1782 1782 1782 1781 1781 1781 1782 1785 1785 1785 1785 1785 1785 1785 1784 1784 1783 1780 1779 1776 1776 1776 1782 1783 1783 1783 1778 1778 1777 1773 1770 1766 1765 1765 1761 1761 1760 0 0 0 0 0 0 0 0 0 0 0 0 0
1781 1781 1781 1766 1753 1752 1752 1751 1748 1745 1741 1737 1737 1736 1735 1729 1726 1724 1723 1717 1716 1715 1715 1716 1716 1715 1714 1714 1710 1707 1701 1693 1684 1675 1668 1658 1658 1658 1668 1672 1674 1675 1682 1688 1690 1690 1690 1689 1687 1687 1682 1678 1675 1672 1670 1670 1670 1670 1670 1671 1671 1673 1678 1680 1680 1680 1674 1667 1636 0 0 0 0 0 0 0 0 0 0 0 0 0 0 0 0 0 0 0 0 0 0 0 0 0 0 0 0 0 0 0 0 0 0 0 0 0 0 0 0 0 0 0 0 0 0 0 0 0 0 0 0 0 0 0 0 0 0 0 0 0 0 0 0 0 0 0 0 0 2137 2157 2204 2204 2204 2190 0 0 0 0 0 0 0 0 0 0 0 0 0 0 0 0 0 0 0 0 0 0 0 2288 2291 2303 2309 2319 2339 2339 2339 2330 2311 0 0 0 0 0 0 0 0 0 0 0 0 0 0 0 0 0 0 0 0 0 0 0 0 0 0 0 0 0 0 0 0 0 0 0 0 0 0 0 0 0 0 0 0 0 0 0 0 0 0 0 0 0 0 0 0 0 0 0 0 0 0 0 0 0 0 0 0 0 0 0 0 0 0 0 0 0 0 0 0 0 0 0 0 0 0 0 2360 2375 2399 2399 2399 2395 2395 2395 2396 2404 2416 2428 2428 2428 2427 2423 2418 2417 2417 2413 2413 2413 2416 2416 2416 2411 2404 2403 2401 2403 2403 2400 2400 2379 2365 2365 2365 2393 2393 2393 2399 2399 2407 2411 2425 2438 2450 2464 2480 2484 2498 2505 2507 2508 2510 2510 2512 2516 2520 2522 2522 2522 2515 2514 2502 0 0 0 0 0 0 0 0 0 0 0 0 0 0 0 0 0 0 0 0 0 0 0 0 0 0 0 0 0 0 0 2359 2359 2359 2355 2292 2271 2260 2254 2236 2196 2179 2170 2161 2157 2151 2141 2131 2122 2116 2107 2102 2095 2089 2081 2073 2063 2055 2049 2042 2037 2032 2029 2026 2021 2015 2009 2004 2000 1995 1990 1986 1983 1979 1977 1974 1972 1969 1965 1961 1956 1952 1950 1947 1946 1944 1943 1941 1940 1939 1937 1935 1933 1932 1932 1931 1931 1930 1927 1925 1923 1922 1921 1920 1918 1915 1913 1912 1909 1907 1904 1902 1900 1899 1897 1896 1894 1894 1893 1893 1892 1891 1891 1890 1889 1888 1887 1886 1885 1883 1882 1882 1881 1881 1880 1879 1878 1877 1877 1876 1875 1874 1874 1874 1873 1872 1872 1871 1871 1870 1869 1868 1868 1867 1867 1865 1865 1864 1863 1862 1862 1861 1861 1860 1860 1860 1860 1859 1859 1858 1857 1856 1853 1852 1850 1847 1846 1845 1845 1844 1843 1841 1840 1838 1835 1834 1834 1834 1834 1834 1832 1832 1832 1832 1831 1827 1823 1823 1822 1822 1822 1819 1816 1815 1814 1814 1810 1805 1805 1802 1798 1790 1787 1787 1787 1791 1792 1794 1794 1794 1793 1792 1791 1791 1791 1789 1789 1789 1786 1785 1785 1785 1785 1788 1788 1789 1789 1790 1790 1790 1790 1787 1786 1784 1783 1783 1782 1782 1781 1781 1782 1784 1784 1784 1784 1784 1784 1784 1784 1781 1781 1781 1784 1785 1785 1785 1785 1785 1785 1783 1783 1782 1780 1779 1776 1776 1776 1782 1784 1786 1786 1784 1781 1778 1773 1770 1770 1770 1772 1772 1774 1772 0 0 0 0 0 0 0 0 0 0 0 0 0
1757 1753 1753 1746 1744 1744 1744 1744 1742 1740 1737 1735 1734 1734 1732 1727 1722 1722 1720 1716 1710 1710 1710 1710 1711 1713 1713 1713 1708 1703 1696 1690 1675 1658 1654 1653 1653 1658 1668 1676 1678 1682 1683 1688 1690 1690 1690 1687 1687 1686 1682 1678 1675 1672 1670 1670 1670 1670 1670 1671 1671 1673 1674 1676 1676 1674 1673 1668 1667 1641 0 0 0 0 0 0 0 0 0 0 0 0 0 0 0 0 0 0 0 0 0 0 0 0 0 0 0 0 0 0 0 0 0 0 0 0 0 0 0 0 0 0 0 0 0 0 0 0 2072 2105 2115 2115 0 0 0 0 0 0 0 0 0 0 0 0 0 0 0 2131 2137 2157 2165 2165 2165 2159 2115 0 0 0 0 0 0 0 0 0 0 0 0 0 0 0 0 0 0 0 0 2311 2313 2318 2321 2324 2338 2338 2355 2355 2355 2342 2336 2324 0 0 0 0 0 0 0 0 0 0 0 0 0 0 0 0 0 0 0 0 0 0 0 0 0 0 0 0 0 0 0 0 0 0 0 0 0 0 0 0 0 0 0 0 0 0 0 0 0 0 0 0 0 0 0 0 0 0 0 0 0 0 0 0 0 0 0 0 0 0 0 0 0 0 0 0 0 0 0 0 0 0 0 0 0 0 0 2332 2377 2383 2383 2383 2377 2377 2377 2395 2409 2409 2409 2408 2407 2406 2407 2407 2409 2409 2410 2412 2416 2416 2416 2413 2413 2413 2416 2417 2419 2421 2421 2419 2401 2401 2401 2404 2415 2426 2442 2444 2448 2448 2448 2456 2460 2464 2480 2484 2498 2504 2505 2505 2505 2507 2507 2511 2512 2519 2519 2519 0 0 0 0 0 0 0 0 0 0 0 0 0 0 0 0 0 0 0 0 0 0 0 0 0 0 0 0 0 0 0 0 0 0 2274 2280 2288 2288 2288 2269 2259 2246 2218 2180 2179 2166 2161 2157 2150 2140 2131 2122 2113 2104 2091 2083 2080 2074 2070 2063 2055 2048 2042 2037 2032 2028 2023 2018 2013 2009 2004 1999 1995 1990 1986 1982 1979 1976 1973 1971 1969 1965 1961 1956 1952 1949 1947 1946 1944 1942 1940 1938 1938 1936 1935 1933 1932 1931 1931 1930 1929 1926 1924 1922 1921 1920 1918 1916 1913 1912 1910 1908 1907 1904 1902 1900 1898 1897 1895 1894 1894 1893 1892 1892 1891 1890 1889 1888 1888 1887 1886 1885 1883 1882 1881 1881 1881 1880 1879 1878 1877 1876 1876 1875 1874 1874 1874 1873 1873 1872 1872 1871 1870 1870 1869 1868 1868 1867 1866 1865 1864 1863 1863 1862 1862 1861 1861 1860 1860 1860 1860 1859 1858 1857 1856 1854 1853 1851 1849 1848 1847 1846 1845 1844 1844 1843 1841 1838 1836 1835 1834 1834 1834 1833 1833 1833 1833 1833 1832 1830 1829 1829 1827 1823 1821 1818 1816 1815 1814 1811 1808 1805 1804 1799 1798 1798 1798 1800 1805 1805 1805 1803 1800 1798 1797 1796 1795 1795 1794 1794 1790 1789 1789 1789 1789 1789 1789 1789 1789 1790 1791 1791 1791 1790 1788 1786 1785 1784 1783 1782 1782 1782 1786 1788 1788 1788 1786 1786 1786 1784 1784 1784 1781 1781 1781 1784 1785 1785 1785 1786 1786 1786 1785 1783 1782 1780 1779 1779 1779 1779 1782 1788 1791 1791 1791 1788 1779 1779 1779 1780 1783 1783 1783 1787 1780 0 0 0 0 0 0 0 0 0 0 0 0 0
1750 1745 1745 1743 1734 1733 1732 1732 1731 1730 1730 1730 1730 1728 1728 1724 1722 1720 1720 1715 1709 1707 1707 1707 1710 1710 1710 1709 1700 1692 1676 1656 1654 1654 1653 1654 1656 1658 1675 1677 1678 1683 1684 1688 1688 1688 1687 1686 1685 1685 1682 1678 1675 1672 1670 1670 1670 1670 1670 1671 1671 1671 1671 1671 1671 1670 1670 1670 1668 1667 1658 1645 1641 1620 1572 0 0 0 0 0 0 0 0 0 0 0 0 0 0 0 0 0 0 0 0 0 0 0 0 0 0 0 0 0 0 0 0 0 0 0 0 0 0 0 0 0 0 2067 2073 2105 2127 2140 2145 2162 2184 2210 2210 0 0 0 0 0 0 0 0 0 2130 2131 2137 2157 2164 2164 2164 2159 2115 0 0 0 0 0 0 0 0 0 0 0 0 0 0 0 0 0 0 0 2333 2338 2338 2345 2353 2353 2356 2357 2358 2358 2358 2356 2354 2351 2350 0 0 0 0 0 0 0 0 0 0 0 0 0 0 0 0 0 0 0 0 0 0 0 0 0 0 0 0 0 0 0 0 0 0 0 0 0 0 0 0 0 0 0 0 0 0 0 0 0 0 0 0 0 0 0 0 0 0 0 0 0 0 0 0 0 0 0 0 0 0 0 0 0 0 0 0 0 0 0 0 0 0 0 0 0 0 0 2343 2353 2356 2359 2359 2359 2366 2387 2390 2390 2395 2395 2395 2396 2398 2400 2409 2409 2410 2410 2410 2415 2415 2415 2416 2416 2419 2421 2425 2427 2427 2426 2426 2426 2424 2424 2424 2439 2452 2453 2453 2456 2456 2456 2460 2475 2483 2484 2498 2501 2501 2501 2501 2501 2501 2502 2502 2502 2500 0 0 0 0 0 0 0 0 0 0 0 0 0 0 0 0 0 0 0 0 0 0 0 0 0 0 0 0 0 0 0 0 0 0 0 2252 2263 2265 2266 2266 2265 2255 2242 2203 2175 2173 2168 2161 2155 2147 2139 2130 2121 2110 2100 2090 2081 2078 2073 2068 2061 2055 2047 2042 2037 2032 2028 2023 2017 2012 2007 2003 1999 1995 1990 1986 1982 1979 1976 1973 1970 1969 1965 1961 1956 1952 1949 1947 1946 1943 1941 1939 1938 1936 1935 1934 1933 1931 1931 1929 1928 1927 1926 1924 1922 1920 1917 1915 1914 1912 1910 1908 1907 1904 1903 1901 1900 1898 1897 1895 1894 1893 1892 1892 1891 1890 1889 1889 1888 1888 1887 1886 1884 1883 1882 1881 1881 1880 1880 1879 1878 1877 1876 1876 1875 1874 1874 1873 1873 1873 1872 1872 1871 1870 1870 1869 1869 1868 1867 1866 1865 1864 1863 1863 1862 1862 1862 1861 1861 1860 1860 1860 1859 1858 1857 1856 1855 1853 1852 1850 1849 1848 1847 1846 1845 1845 1845 1843 1841 1839 1837 1836 1835 1834 1834 1834 1834 1834 1834 1833 1831 1830 1829 1829 1828 1827 1825 1820 1817 1816 1816 1813 1808 1808 1808 1808 1808 1808 1808 1808 1808 1808 1805 1805 1805 1806 1808 1808 1808 1807 1804 1802 1802 1802 1805 1805 1805 1804 1798 1795 1793 1793 1792 1792 1792 1789 1788 1786 1786 1783 1783 1783 1786 1789 1790 1790 1790 1787 1787 1787 1787 1785 1785 1783 1783 1783 1785 1786 1787 1789 1789 1789 1788 1785 1785 1785 1785 1785 1782 1782 1782 1789 1795 1799 1799 1799 1797 1790 1789 1787 1787 1787 1788 1788 1792 1796 0 0 0 0 0 0 0 0 0 0 0 0 0
1747 1743 1743 1740 1725 1720 1720 1720 1723 1724 1724 1724 1717 1717 1717 1717 1718 1718 1718 1714 1705 1697 1697 1696 1694 1689 1644 1642 1642 1642 1642 1651 1653 1654 1654 1663 1676 1676 1676 1678 1681 1683 1683 1683 1683 1683 1682 1682 1681 1681 1679 1677 1672 1670 1669 1669 1669 1669 1670 1670 1670 1669 1668 1666 1666 1664 1664 1664 1668 1668 1668 1663 1646 1645 1619 1570 1549 0 0 0 0 0 0 0 0 0 0 0 0 0 0 0 0 0 0 0 0 0 0 0 0 0 0 0 0 0 0 0 0 0 0 0 0 0 0 0 2055 2065 2073 2097 2127 2140 2145 2162 2184 2210 2232 2243 2244 2248 2252 2253 0 0 0 0 2200 2199 2198 2197 2189 2175 2164 2159 2159 0 0 0 0 0 0 0 0 0 0 0 0 0 0 0 0 0 0 0 2340 2342 2345 2349 2353 2353 2358 2361 2361 2361 2361 2361 2361 2367 2367 2367 2352 0 0 0 0 0 0 0 0 0 0 0 0 0 0 0 0 0 0 0 0 0 0 0 0 0 0 0 0 0 0 0 0 0 0 0 0 0 0 0 0 0 0 0 0 0 0 0 0 0 0 0 0 0 0 0 0 0 0 0 0 0 0 0 0 0 0 0 0 0 0 0 0 0 0 0 0 0 0 0 0 0 0 0 0 0 0 2345 2346 2348 2352 2353 2366 2385 2389 2390 2392 2392 2391 2392 2392 2395 2408 2408 2408 2408 2408 2410 2413 2413 2418 2418 2419 2422 2426 2427 2427 2435 2438 2438 2438 2438 2438 2443 2457 2457 2457 2456 2456 2456 2460 2475 2484 2491 2494 2495 2498 2498 2494 2489 2453 0 0 0 0 0 0 0 0 0 0 0 0 0 0 0 0 0 0 0 0 0 0 0 0 0 0 0 0 0 0 0 0 0 0 0 0 0 0 0 2252 2263 2263 2263 2253 2250 2249 2242 2198 2175 2173 2168 2160 2152 2145 2138 2130 2120 2110 2100 2090 2081 2076 2073 2067 2062 2056 2048 2042 2038 2032 2027 2022 2017 2011 2004 2002 1999 1994 1990 1985 1982 1979 1975 1972 1970 1968 1964 1961 1956 1951 1948 1946 1945 1943 1940 1939 1938 1936 1935 1933 1933 1931 1930 1929 1928 1927 1925 1923 1921 1918 1915 1913 1911 1910 1909 1907 1905 1902 1901 1900 1898 1897 1896 1894 1893 1893 1892 1891 1890 1890 1889 1888 1888 1888 1887 1885 1884 1883 1882 1881 1881 1880 1879 1878 1878 1877 1876 1875 1875 1874 1874 1873 1873 1873 1872 1872 1871 1870 1870 1869 1869 1868 1867 1866 1865 1864 1863 1863 1862 1862 1862 1861 1861 1860 1860 1860 1860 1858 1857 1856 1855 1853 1853 1851 1850 1849 1848 1847 1846 1845 1845 1844 1843 1841 1839 1838 1837 1835 1835 1834 1834 1834 1834 1833 1831 1830 1830 1830 1829 1827 1825 1822 1820 1820 1820 1820 1819 1817 1817 1816 1816 1815 1815 1815 1815 1814 1812 1812 1812 1815 1819 1820 1820 1820 1816 1809 1806 1806 1806 1813 1813 1813 1810 1805 1798 1796 1794 1793 1792 1791 1791 1790 1790 1788 1788 1788 1791 1791 1791 1791 1790 1790 1789 1789 1789 1787 1786 1784 1784 1784 1787 1790 1792 1795 1795 1795 1795 1795 1794 1794 1794 1794 1798 1800 1803 1803 1807 1805 1803 1803 1803 1803 1802 1801 1801 1801 1803 1803 1803 1803 1800 0 0 0 0 0 0 0 0 0 0 0 0
1743 1743 1743 1736 1722 1716 1716 1716 1722 1724 1724 1724 1717 1712 1712 1712 1717 1717 1717 1713 1701 1683 1679 1674 1668 1636 1636 1636 1636 1641 1641 1651 1656 1656 1674 1676 1676 1677 1678 1678 1683 1683 1683 1683 1682 1680 1680 1680 1680 1680 1677 1675 1672 1669 1669 1669 1669 1669 1670 1670 1670 1668 1665 1664 1664 1663 1660 1660 1660 1677 1677 1677 1664 1655 1639 1609 1597 1591 0 0 0 0 0 0 0 0 0 0 0 0 0 0 0 0 0 0 0 0 0 0 0 0 0 0 0 0 0 0 0 0 0 0 0 0 0 2032 2053 2065 2073 2097 2127 2140 2145 2162 2184 2210 2232 2243 2244 2248 2256 2279 2284 2284 2284 2271 2252 2237 2231 2229 2225 2194 2183 2183 2183 0 0 2300 2303 2303 0 0 0 0 0 0 0 0 0 0 0 0 0 0 2340 2342 2345 2349 2353 2353 2358 2361 2361 2361 2361 2361 2361 2374 2374 2374 2374 2354 0 0 0 0 0 0 0 0 0 0 0 0 0 0 0 0 0 0 0 0 0 0 0 0 0 0 0 0 0 0 0 0 0 0 0 0 0 0 0 0 0 0 0 0 0 0 0 0 0 0 0 0 0 0 0 0 0 0 0 0 0 0 0 0 0 0 0 0 0 0 0 0 0 0 0 0 0 0 0 0 0 0 0 0 0 0 2329 2330 2337 2343 2355 2370 2383 2384 2387 2388 2387 2389 2391 2393 2401 2401 2402 2402 2402 2410 2415 2415 2416 2416 2419 2426 2427 2427 2427 2436 2438 2444 2444 2444 2444 2450 2465 2465 2465 2456 2456 2456 2459 2475 2484 2491 2491 2491 2489 2471 2468 0 0 0 0 0 0 0 0 0 0 0 0 0 0 0 0 0 0 0 0 0 0 0 0 0 0 0 0 0 0 0 0 0 0 0 0 0 0 0 0 0 2252 2263 2263 2263 2249 2247 2241 2229 2189 2175 2173 2166 2159 2149 2141 2133 2125 2120 2110 2100 2090 2081 2076 2072 2067 2061 2056 2048 2042 2037 2031 2027 2022 2016 2009 2003 2000 1997 1993 1989 1985 1980 1976 1973 1971 1969 1965 1963 1960 1956 1951 1948 1945 1944 1942 1940 1938 1937 1936 1934 1933 1932 1930 1930 1929 1927 1925 1922 1920 1917 1916 1913 1911 1909 1907 1907 1905 1903 1902 1900 1899 1896 1895 1894 1894 1893 1892 1890 1890 1890 1889 1888 1888 1888 1888 1886 1885 1883 1882 1881 1881 1880 1880 1879 1878 1878 1877 1876 1875 1875 1874 1874 1873 1872 1872 1872 1871 1871 1870 1870 1869 1869 1868 1867 1866 1865 1864 1864 1863 1863 1862 1862 1861 1861 1860 1860 1860 1859 1858 1857 1856 1855 1854 1853 1851 1850 1849 1849 1847 1847 1846 1846 1844 1844 1842 1841 1840 1839 1837 1836 1835 1835 1835 1834 1834 1832 1831 1831 1830 1830 1828 1826 1824 1823 1822 1822 1821 1821 1820 1820 1819 1819 1818 1818 1818 1820 1820 1820 1821 1822 1822 1829 1829 1829 1828 1824 1817 1817 1817 1818 1818 1818 1816 1811 1806 1800 1799 1797 1796 1795 1794 1793 1794 1795 1797 1799 1799 1799 1793 1792 1792 1792 1794 1794 1794 1791 1789 1789 1789 1790 1793 1793 1794 1795 1798 1806 1807 1807 1806 1800 1800 1800 1804 1806 1814 1814 1814 1814 1814 1814 1814 1817 1824 1824 1824 1822 1822 1821 1820 1821 1821 1821 0 0 0 0 0 0 0 0 0 0 0 0
1743 1743 1743 1735 1722 1715 1715 1715 1721 1724 1724 1724 1717 1712 1712 1712 1714 1714 1714 1709 1690 1680 1675 1646 1627 1627 1627 1636 1636 1641 1641 1661 1661 1670 1674 1676 1677 1678 1678 1679 1684 1684 1684 1683 1681 1678 1678 1678 1678 1678 1676 1673 1669 1667 1667 1667 1667 1668 1669 1669 1669 1668 1665 1664 1664 1662 1659 1659 1659 1669 1669 1669 1666 1665 1648 1640 1620 1620 0 0 0 0 0 0 0 0 0 0 0 0 0 0 0 0 0 0 0 0 0 0 0 0 0 0 0 0 0 0 0 0 0 0 0 0 0 2035 2051 2065 2073 2097 2124 2136 2145 2161 2173 2206 2232 2243 2244 2248 2256 2279 2284 2284 2284 2271 2252 2237 2233 2233 2232 2232 2232 2243 2281 2290 2296 2303 2308 2308 2308 0 0 0 0 0 0 0 0 0 0 0 0 0 2340 2340 2342 2344 2344 2349 2358 2361 2361 2361 2361 2361 2361 2377 2377 2377 2374 2356 2345 0 0 0 0 0 0 0 0 0 0 0 0 0 0 0 0 0 0 0 0 0 0 0 0 0 0 0 0 0 0 0 0 0 0 0 0 0 0 0 0 0 0 0 0 0 0 0 0 0 0 0 0 0 0 0 0 0 0 0 0 0 0 0 0 0 0 0 0 0 0 0 0 0 0 0 0 0 0 0 0 0 0 0 0 0 0 0 0 0 0 2324 2363 2384 2385 2387 2387 2388 2388 2388 2394 2395 2396 2400 2401 2410 2415 2415 2416 2416 2416 2419 2426 2427 2430 2435 2438 2444 2446 2451 2454 2459 2468 2468 2468 2457 2449 2449 2449 2472 2480 2480 2480 0 0 0 0 0 0 0 0 0 0 0 0 0 0 0 0 0 0 0 0 0 0 0 0 0 0 0 0 0 0 0 0 0 0 0 0 0 0 0 0 0 0 0 0 0 2279 2279 2279 2268 2249 2240 2222 2212 2189 2173 2173 2165 2159 2149 2138 2131 2124 2119 2109 2101 2090 2081 2076 2072 2067 2061 2055 2049 2042 2037 2031 2026 2017 2012 2007 2002 1997 1994 1992 1988 1984 1979 1974 1971 1969 1966 1963 1961 1958 1954 1951 1947 1945 1943 1942 1940 1938 1937 1936 1934 1933 1932 1930 1930 1929 1927 1924 1921 1918 1915 1912 1910 1909 1907 1906 1905 1904 1902 1901 1899 1898 1896 1895 1894 1893 1892 1891 1890 1890 1890 1889 1888 1887 1887 1886 1886 1884 1883 1882 1881 1880 1880 1879 1878 1878 1877 1876 1875 1875 1874 1874 1873 1873 1872 1871 1871 1871 1870 1870 1870 1869 1868 1867 1867 1866 1865 1865 1864 1863 1863 1862 1862 1861 1861 1860 1860 1859 1858 1858 1857 1856 1855 1854 1853 1851 1850 1850 1849 1848 1847 1847 1846 1846 1844 1843 1842 1841 1840 1838 1837 1836 1836 1835 1835 1835 1833 1832 1831 1831 1830 1829 1828 1827 1827 1827 1826 1825 1823 1823 1823 1822 1821 1821 1821 1821 1821 1822 1824 1824 1826 1829 1835 1835 1835 1835 1832 1826 1826 1826 1826 1826 1826 1821 1813 1808 1804 1802 1800 1799 1799 1799 1799 1801 1813 1813 1813 1810 1800 1794 1793 1793 1793 1794 1794 1794 1794 1794 1794 1794 1799 1804 1805 1805 1806 1809 1811 1811 1811 1810 1810 1810 1811 1813 1817 1821 1821 1822 1822 1822 1822 1823 1828 1828 1828 1828 1828 1835 1839 1839 1839 1829 1821 0 0 0 0 0 0 0 0 0 0 0 0
1732 1732 1732 1732 1721 1715 1715 1715 1721 1731 1731 1731 1720 1712 1710 1710 1710 1710 1710 1700 1686 1672 1655 1643 1627 1627 1627 1636 1641 1642 1653 1661 1665 1670 1674 1676 1677 1678 1678 1681 1684 1684 1684 1682 1681 1678 1677 1677 1677 1677 1676 1671 1667 1665 1665 1665 1665 1666 1667 1667 1667 1667 1664 1664 1663 1662 1660 1660 1660 1667 1667 1667 1667 1665 1664 1653 1653 1648 1644 0 0 0 0 0 0 0 0 0 0 0 0 0 0 0 0 0 0 0 0 0 0 0 0 0 0 0 0 0 0 0 0 0 0 0 1981 2035 2048 2069 2083 2111 2122 2133 2144 2155 2173 2204 2221 2234 2240 2244 2256 2279 2284 2284 2284 2271 2252 2252 2237 2237 2252 2254 2264 2269 2281 2290 2296 2303 2308 2308 2308 0 0 0 0 0 0 0 0 0 0 0 0 0 2336 2336 2336 2336 2336 2338 2348 2356 2356 2356 2360 2363 2369 2382 2382 2382 2374 2359 2348 2336 2334 0 0 0 0 0 0 0 0 0 0 0 0 0 0 0 0 0 0 0 0 0 0 0 0 0 0 0 0 0 0 0 0 0 0 0 0 0 0 0 0 0 0 0 0 0 0 0 0 0 0 0 0 0 0 0 0 0 0 0 0 0 0 0 0 0 0 0 0 0 0 0 0 0 0 0 0 0 0 0 0 0 0 0 0 0 0 0 0 0 0 2374 2374 2374 2374 2374 2374 2383 2392 2394 2395 2400 2400 2408 2415 2415 2415 2414 2414 2414 2425 2426 2430 2434 2438 2444 2446 2451 2454 2459 2468 2468 2468 2457 2445 2443 2443 2443 2443 0 0 0 0 0 0 0 0 0 0 0 0 0 0 0 0 0 0 0 0 0 0 0 0 0 0 0 0 0 0 0 0 0 0 0 0 0 0 0 0 0 0 0 0 0 0 0 2279 2279 2279 2268 2250 2240 2216 2196 2182 2173 2173 2164 2156 2146 2137 2129 2124 2117 2109 2101 2091 2083 2076 2072 2067 2061 2055 2049 2042 2037 2031 2026 2016 2010 2004 2001 1996 1993 1990 1988 1983 1977 1974 1970 1967 1964 1961 1958 1955 1953 1950 1947 1945 1943 1941 1940 1938 1937 1936 1934 1933 1931 1930 1930 1928 1926 1923 1920 1918 1914 1911 1909 1908 1906 1905 1904 1903 1901 1900 1898 1897 1896 1895 1893 1893 1891 1891 1890 1890 1889 1888 1888 1887 1887 1886 1885 1884 1882 1882 1881 1880 1879 1878 1878 1877 1876 1875 1875 1874 1874 1873 1873 1873 1872 1871 1871 1870 1869 1869 1868 1868 1868 1867 1867 1866 1866 1865 1864 1863 1863 1862 1861 1861 1861 1860 1859 1859 1858 1857 1856 1855 1855 1854 1853 1852 1850 1850 1849 1848 1847 1847 1846 1846 1845 1844 1843 1841 1840 1838 1838 1837 1837 1837 1837 1835 1835 1832 1832 1831 1831 1831 1830 1830 1830 1830 1829 1826 1825 1825 1825 1825 1823 1823 1822 1822 1823 1825 1829 1830 1830 1836 1841 1841 1841 1839 1838 1836 1832 1831 1830 1830 1828 1824 1820 1818 1818 1818 1822 1822 1822 1822 1822 1826 1826 1826 1825 1817 1809 1808 1803 1803 1803 1803 1803 1805 1805 1805 1806 1807 1807 1808 1810 1812 1814 1814 1815 1815 1825 1825 1826 1826 1826 1826 1827 1829 1828 1827 1827 1828 1828 1831 1831 1831 1828 1828 1828 1835 1845 1845 1845 1829 1821 0 0 0 0 0 0 0 0 0 0 0 0
1718 1718 1721 1721 1721 1714 1714 1714 1721 1731 1731 1731 1720 1712 1709 1707 1707 1705 1704 1697 1685 1671 1650 1643 1627 1627 1627 1646 1652 1654 1655 1661 1665 1670 1673 1674 1675 1678 1679 1683 1684 1684 1684 1680 1680 1678 1677 1677 1676 1676 1674 1671 1667 1665 1664 1664 1664 1664 1666 1666 1666 1665 1664 1663 1662 1662 1660 1660 1660 1663 1663 1663 1661 1656 1654 1655 1655 1651 1651 0 0 0 0 0 0 0 0 0 0 0 0 0 0 0 0 0 0 0 0 0 0 0 0 0 0 0 0 0 0 0 0 0 0 0 2010 2035 2046 2069 2083 2108 2111 2121 2135 2152 2168 2200 2205 2212 2220 2228 2236 2248 2248 2248 2242 2232 2232 2235 2242 2252 2259 2260 2268 2269 2281 2290 2296 2300 2308 2308 2308 0 0 0 0 0 0 0 0 0 0 0 0 0 2322 2331 2331 2332 2334 2335 2340 2348 2352 2355 2356 2358 2369 2382 2382 2382 2368 2361 2353 2350 2341 2331 0 0 0 0 0 0 0 0 0 0 0 0 0 0 0 0 0 0 0 0 0 0 0 0 0 0 0 0 0 0 0 0 0 0 0 0 0 0 0 0 0 0 0 0 0 0 0 0 0 0 0 0 0 0 0 0 0 0 0 0 0 0 0 0 0 0 0 0 0 0 0 0 0 0 0 0 0 0 0 0 0 0 0 0 0 0 0 0 0 0 0 2336 2341 2344 2354 2367 2380 2387 2394 2397 2400 2406 2407 2408 2408 2408 2410 2410 2415 2426 2430 2432 2435 2442 2442 2451 2454 2459 2467 2467 2467 2457 2434 2434 2428 2426 0 0 0 0 0 0 0 0 0 0 0 0 0 0 0 0 0 0 0 0 0 0 0 0 0 0 0 0 0 0 0 0 0 0 0 0 0 0 0 0 0 0 0 0 0 0 0 0 2279 2279 2279 2269 2250 2231 2215 2180 2173 2169 2164 2156 2149 2144 2137 2128 2120 2114 2107 2101 2091 2083 2077 2072 2067 2062 2055 2049 2042 2037 2030 2024 2014 2008 2004 2000 1995 1991 1989 1987 1983 1977 1973 1969 1966 1962 1960 1957 1953 1950 1948 1945 1943 1942 1940 1939 1938 1936 1936 1934 1932 1931 1929 1929 1928 1926 1922 1920 1917 1914 1911 1909 1907 1905 1904 1903 1902 1900 1900 1897 1896 1896 1894 1893 1892 1891 1891 1890 1890 1889 1888 1887 1886 1886 1886 1885 1884 1882 1881 1881 1880 1879 1878 1877 1877 1876 1875 1875 1874 1873 1872 1872 1872 1871 1871 1870 1869 1869 1868 1868 1868 1868 1867 1867 1866 1865 1864 1864 1863 1863 1862 1861 1860 1860 1860 1859 1858 1858 1857 1856 1855 1854 1853 1853 1852 1851 1850 1849 1848 1847 1847 1846 1846 1845 1844 1843 1841 1840 1839 1838 1837 1837 1837 1837 1836 1835 1834 1833 1832 1832 1832 1832 1832 1832 1831 1830 1829 1827 1827 1827 1827 1826 1825 1824 1824 1824 1831 1835 1837 1844 1844 1844 1844 1843 1842 1842 1841 1840 1837 1835 1831 1831 1829 1827 1827 1827 1827 1828 1828 1829 1830 1830 1833 1833 1833 1828 1822 1818 1816 1816 1816 1816 1816 1817 1817 1817 1817 1817 1818 1818 1820 1822 1822 1822 1822 1824 1824 1837 1838 1841 1842 1841 1838 1836 1836 1834 1832 1829 1832 1832 1832 1832 1832 1828 1828 1828 1835 1845 1845 1845 1829 0 0 0 0 0 0 0 0 0 0 0 0 0
1698 1701 1707 1713 1713 1713 1713 1713 1717 1728 1728 1728 1720 1712 1707 1707 1701 1696 1689 1684 1680 1666 1650 1643 1643 1643 1644 1646 1652 1658 1658 1661 1665 1669 1672 1673 1675 1678 1681 1683 1684 1684 1684 1680 1680 1678 1677 1676 1676 1676 1673 1671 1666 1665 1664 1664 1663 1663 1663 1664 1664 1664 1663 1662 1662 1662 1660 1658 1658 1658 1656 1658 1658 1658 1658 1658 1655 1655 1651 0 0 0 0 0 0 0 0 0 0 0 0 0 0 0 0 0 0 0 0 0 0 0 0 0 0 0 0 0 0 0 0 0 0 0 2010 2035 2041 2069 2083 2105 2106 2111 2113 2128 2147 2178 2197 2198 2201 2206 2208 2208 2208 2194 2194 2194 2201 2223 2241 2256 2268 2268 2269 2269 2270 2274 2274 2276 2293 2293 2293 0 0 0 0 0 0 0 0 0 0 0 0 0 2316 2318 2318 2323 2323 2327 2336 2344 2347 2352 2354 2356 2369 2377 2377 2377 2364 2363 2362 2358 2356 2349 2336 2304 2247 2246 2240 0 0 0 0 0 0 0 0 0 0 0 0 0 0 0 0 0 0 0 0 0 0 0 0 0 0 0 0 0 0 0 0 0 0 0 0 0 0 0 0 0 0 0 0 0 0 0 0 0 0 0 0 0 0 0 0 0 0 0 0 0 0 0 0 0 0 0 0 0 0 0 0 0 0 0 0 0 0 0 0 0 0 0 0 0 0 0 0 2314 2335 2342 2354 2369 2385 2390 2396 2405 2405 2405 2405 2402 2402 2405 2405 2411 2418 2424 2424 2425 2432 2433 2438 2438 0 0 0 0 0 0 0 0 0 0 0 0 0 0 0 0 0 0 0 0 0 0 0 0 0 0 0 0 0 0 0 0 0 0 0 0 0 0 0 0 0 0 0 0 0 0 0 0 0 0 0 0 0 0 0 0 2261 2269 2269 2269 2250 2231 2204 2177 2166 2163 2160 2154 2147 2141 2132 2124 2114 2108 2101 2096 2091 2083 2077 2072 2067 2061 2055 2048 2042 2036 2030 2023 2014 2008 2003 1999 1994 1990 1988 1985 1982 1977 1972 1968 1965 1962 1959 1956 1953 1950 1947 1945 1943 1942 1940 1939 1938 1936 1935 1933 1931 1930 1929 1927 1927 1924 1922 1920 1917 1914 1911 1909 1907 1905 1904 1902 1900 1899 1897 1896 1894 1894 1894 1893 1892 1891 1891 1890 1890 1889 1888 1887 1886 1885 1885 1884 1884 1882 1881 1879 1879 1879 1878 1877 1876 1875 1875 1874 1873 1872 1871 1871 1870 1870 1869 1869 1869 1869 1868 1868 1868 1867 1867 1866 1866 1865 1864 1863 1863 1863 1862 1861 1860 1859 1859 1858 1858 1857 1857 1856 1855 1854 1853 1853 1852 1851 1850 1849 1849 1848 1847 1847 1846 1845 1844 1843 1842 1840 1839 1838 1837 1837 1837 1837 1836 1835 1835 1834 1833 1833 1833 1833 1832 1832 1831 1830 1829 1827 1827 1827 1827 1827 1827 1827 1827 1830 1834 1838 1841 1844 1845 1845 1845 1845 1843 1843 1843 1843 1838 1837 1834 1833 1833 1833 1834 1834 1835 1836 1834 1835 1837 1837 1837 1837 1837 1832 1828 1827 1826 1826 1826 1829 1829 1829 1828 1828 1828 1828 1828 1828 1828 1828 1829 1828 1828 1829 1836 1847 1851 1851 1851 1848 1843 1838 1838 1838 1834 1833 1837 1837 1837 1837 1837 1828 1828 1828 1833 1836 1836 1836 0 0 0 0 0 0 0 0 0 0 0 0 0 0
1693 1696 1700 1708 1708 1708 1709 1709 1709 1712 1712 1712 1706 1702 1696 1691 1691 1670 1664 1657 1654 1652 1650 1647 1646 1646 1647 1647 1653 1659 1661 1661 1665 1669 1672 1673 1676 1679 1682 1684 1684 1684 1684 1680 1678 1678 1675 1675 1675 1674 1672 1670 1666 1665 1664 1664 1663 1663 1663 1663 1663 1663 1662 1662 1662 1662 1660 1658 1656 1655 1654 1653 1653 1653 1655 1655 1655 1655 1654 1621 0 0 0 0 0 0 0 0 0 0 0 0 0 0 0 0 0 0 0 0 0 0 0 0 0 0 0 0 0 0 0 0 0 0 2011 2026 2040 2055 2067 2072 2074 2084 2102 2118 2140 2165 2182 2192 2192 2192 2189 2183 2179 2175 2175 2175 2201 2220 2241 2256 2269 2270 2270 2270 2266 2258 2258 2258 2265 2265 2265 0 0 0 0 0 0 0 0 0 0 0 0 0 2308 2308 2310 2310 2310 2326 2331 2340 2344 2346 2348 2349 2364 2368 2368 2368 2364 2364 2364 2364 2364 2361 2350 2334 2311 2270 2270 2266 0 0 0 0 0 0 0 0 0 0 0 0 0 0 0 0 0 0 0 0 0 0 0 0 0 0 0 0 0 0 0 0 0 0 0 0 0 0 0 0 0 0 0 0 0 0 0 0 0 0 0 0 0 0 0 0 0 0 0 0 0 0 0 0 0 0 0 0 0 0 0 0 0 0 0 0 0 0 0 0 0 0 0 0 0 0 0 0 2271 2292 2318 2347 2362 2373 2386 2394 2394 2395 2394 2391 2391 2391 2391 2393 2402 2406 2409 2410 2409 2406 2388 2354 0 0 0 0 0 0 0 0 0 0 0 0 0 0 0 0 0 0 0 0 0 0 0 0 0 0 0 0 0 0 0 0 0 0 0 0 0 0 0 0 0 0 0 0 0 0 0 0 0 0 0 0 0 0 0 0 2235 2269 2269 2269 2249 2224 2198 2177 2166 2161 2154 2150 2146 2137 2129 2120 2111 2102 2096 2090 2088 2083 2077 2072 2067 2061 2055 2046 2040 2035 2028 2021 2014 2008 2003 1997 1993 1989 1987 1985 1980 1976 1971 1967 1965 1962 1959 1956 1953 1950 1946 1945 1943 1942 1940 1939 1938 1936 1934 1933 1931 1929 1927 1926 1925 1924 1921 1919 1916 1914 1911 1909 1907 1905 1904 1902 1900 1898 1897 1895 1894 1894 1894 1893 1892 1891 1891 1890 1889 1888 1888 1887 1886 1885 1884 1884 1882 1880 1879 1879 1878 1878 1878 1877 1876 1875 1874 1873 1872 1871 1871 1870 1870 1869 1869 1869 1868 1867 1867 1867 1867 1867 1867 1866 1866 1865 1863 1862 1862 1862 1861 1860 1859 1859 1858 1858 1857 1857 1857 1855 1855 1854 1853 1853 1852 1852 1851 1850 1849 1848 1847 1847 1846 1845 1844 1843 1841 1840 1839 1838 1837 1837 1837 1836 1836 1835 1835 1834 1834 1834 1833 1833 1832 1832 1831 1830 1829 1827 1827 1827 1828 1828 1828 1828 1828 1831 1834 1838 1841 1844 1845 1845 1845 1845 1843 1843 1843 1843 1842 1840 1836 1836 1836 1838 1841 1841 1841 1841 1841 1842 1842 1843 1843 1844 1844 1844 1840 1839 1836 1836 1836 1840 1840 1840 1839 1839 1839 1839 1839 1839 1838 1838 1837 1838 1838 1839 1846 1852 1854 1854 1854 1851 1844 1840 1840 1840 1842 1843 1843 1845 1845 1845 1837 1828 1828 1828 1833 1833 1833 0 0 0 0 0 0 0 0 0 0 0 0 0 0 0
1693 1693 1696 1696 1696 1696 1696 1697 1699 1699 1699 1694 1680 1667 1656 1622 1622 1622 1624 1638 1643 1651 1652 1655 1655 1655 1653 1653 1653 1660 1661 1661 1665 1669 1672 1675 1680 1683 1688 1688 1688 1684 1679 1677 1676 1674 1673 1672 1672 1672 1671 1670 1666 1665 1664 1664 1663 1663 1663 1662 1662 1662 1661 1661 1661 1661 1660 1658 1656 1654 1650 1650 1650 1653 1655 1655 1655 1654 1654 1621 0 0 0 0 0 0 0 0 0 0 0 0 0 0 0 0 0 0 0 0 0 0 0 0 0 0 0 0 0 0 0 0 0 1986 2011 2026 2040 2055 2065 2068 2070 2082 2097 2114 2127 2145 2163 2168 2169 2172 2169 2168 2171 2171 2171 2174 2188 2217 2241 2252 2269 2269 2269 2269 2262 2247 2242 2242 2241 2241 2239 0 0 0 0 0 0 0 0 0 0 0 0 0 2304 2304 2304 2304 2310 2326 2331 2337 2340 2340 2343 2345 2349 2351 2354 2355 2358 2359 2364 2366 2366 2366 2364 2356 2343 2318 2280 2279 2278 0 0 0 0 0 0 0 0 0 0 0 0 0 0 0 0 0 0 0 0 0 0 0 0 0 0 0 0 0 0 0 0 0 0 0 0 0 0 0 0 0 0 0 0 0 0 0 0 0 0 0 0 0 0 0 0 0 0 0 0 0 0 0 0 0 0 0 0 0 0 0 0 0 0 0 0 0 0 0 0 0 0 0 2146 2157 2187 2206 2229 2244 2272 2305 2326 2346 2370 2374 2374 2374 2374 2374 2371 2370 2370 2370 2371 2381 2395 2395 2395 2390 2368 0 0 0 0 0 0 0 0 0 0 0 0 0 0 0 0 0 0 0 0 0 0 0 0 0 0 0 0 0 0 0 0 0 0 0 0 0 0 0 0 0 0 0 0 0 0 0 0 0 0 0 0 0 0 0 0 0 0 2271 2271 2271 2247 2218 2197 2175 2165 2157 2149 2143 2140 2133 2124 2116 2105 2098 2091 2086 2084 2081 2077 2072 2065 2059 2051 2044 2038 2032 2026 2020 2014 2007 2002 1995 1991 1987 1987 1984 1979 1974 1969 1965 1963 1961 1960 1956 1953 1950 1946 1944 1942 1941 1940 1938 1937 1936 1934 1932 1930 1928 1927 1925 1925 1923 1920 1918 1916 1913 1911 1909 1907 1905 1904 1902 1900 1898 1897 1895 1894 1894 1894 1894 1892 1892 1891 1890 1889 1888 1888 1887 1886 1885 1884 1883 1882 1879 1878 1878 1878 1877 1877 1877 1875 1874 1872 1871 1871 1870 1870 1869 1868 1868 1867 1867 1867 1867 1866 1866 1866 1866 1865 1865 1865 1864 1863 1862 1861 1861 1861 1859 1859 1859 1858 1857 1857 1857 1857 1855 1855 1854 1854 1853 1852 1852 1851 1850 1849 1849 1848 1847 1846 1845 1844 1843 1841 1840 1839 1838 1837 1837 1837 1836 1835 1835 1835 1834 1834 1834 1833 1833 1832 1832 1830 1829 1828 1827 1827 1827 1829 1829 1829 1829 1830 1832 1835 1838 1841 1843 1844 1845 1845 1845 1844 1844 1843 1844 1844 1843 1841 1841 1841 1841 1843 1844 1845 1845 1845 1846 1847 1847 1848 1849 1850 1850 1850 1847 1844 1844 1844 1847 1850 1850 1850 1848 1848 1847 1847 1847 1845 1842 1842 1842 1842 1843 1848 1856 1859 1859 1859 1853 1851 1843 1843 1843 1843 1845 1849 1849 1849 1849 1849 1836 1833 1831 1831 1831 0 0 0 0 0 0 0 0 0 0 0 0 0 0 0 0
1693 1690 1690 1689 1685 1685 1685 1691 1692 1692 1691 1681 1655 1632 1616 1606 1606 1616 1624 1638 1643 1651 1658 1662 1662 1662 1662 1662 1663 1666 1666 1666 1667 1669 1684 1687 1691 1691 1691 1691 1688 1684 1679 1677 1676 1671 1670 1667 1667 1667 1666 1666 1665 1664 1664 1664 1663 1662 1662 1662 1662 1662 1661 1660 1660 1660 1659 1658 1656 1652 1649 1649 1649 1650 1655 1655 1655 1654 1649 1649 1616 0 0 0 0 0 0 0 0 0 0 0 0 0 0 0 0 0 0 0 0 0 0 0 0 0 0 0 0 0 0 0 0 1990 2011 2026 2040 2055 2065 2068 2068 2077 2093 2108 2121 2132 2149 2149 2149 2151 2151 2150 2151 2156 2158 2170 2188 2217 2231 2248 2268 2268 2268 2265 2261 2247 2241 2234 2231 2227 2206 0 0 0 0 0 0 0 0 0 0 0 0 2293 2293 2299 2299 2299 2310 2324 2326 2326 2330 2330 2330 2344 2345 2345 2347 2350 2350 2359 2364 2366 2366 2366 2364 2363 2358 2339 2315 2294 2293 0 0 0 0 0 0 0 0 0 0 0 0 0 0 0 0 0 0 0 0 0 0 0 0 0 0 0 0 0 0 0 0 0 0 0 0 0 0 0 0 0 0 0 0 0 0 0 0 0 0 0 0 0 0 0 0 0 0 0 0 0 0 0 0 0 0 0 0 0 0 0 0 0 0 0 0 0 0 0 0 0 0 2124 2139 2151 2166 2191 2208 2224 2239 2261 2291 2317 2346 2358 2359 2359 2359 2359 2354 2349 2344 2344 0 0 0 0 0 0 0 0 0 0 0 0 0 0 0 0 0 0 0 0 0 0 0 0 0 0 0 0 0 0 0 0 0 0 0 0 0 0 0 0 0 0 0 0 0 0 0 0 0 0 0 0 0 0 0 0 0 0 0 0 0 0 0 0 0 2271 2271 2271 2244 2208 2197 2175 2163 2154 2146 2139 2136 2131 2123 2113 2104 2097 2091 2086 2083 2080 2076 2070 2064 2055 2048 2041 2035 2028 2023 2019 2014 2007 2002 1995 1989 1986 1983 1983 1978 1972 1968 1965 1962 1961 1959 1956 1953 1949 1946 1944 1942 1941 1940 1937 1936 1935 1934 1932 1930 1927 1926 1925 1923 1922 1920 1917 1914 1912 1911 1909 1907 1905 1904 1902 1900 1898 1897 1895 1895 1894 1894 1894 1893 1892 1891 1890 1888 1886 1886 1886 1886 1885 1883 1882 1881 1879 1878 1878 1877 1876 1875 1874 1873 1873 1872 1871 1869 1868 1868 1868 1867 1867 1867 1867 1866 1866 1866 1865 1865 1865 1865 1865 1864 1863 1862 1862 1861 1861 1861 1859 1859 1858 1858 1857 1857 1857 1857 1856 1855 1854 1854 1853 1852 1852 1851 1850 1850 1849 1848 1847 1846 1846 1844 1842 1841 1840 1839 1838 1837 1837 1836 1836 1835 1835 1835 1834 1834 1833 1832 1832 1831 1831 1830 1828 1827 1827 1827 1827 1829 1830 1830 1830 1832 1833 1835 1838 1840 1842 1844 1845 1845 1845 1844 1844 1844 1844 1844 1844 1843 1843 1843 1843 1844 1848 1851 1851 1851 1852 1852 1853 1853 1855 1856 1856 1856 1855 1851 1850 1850 1850 1855 1855 1855 1850 1850 1850 1854 1854 1854 1848 1843 1843 1843 1844 1850 1857 1860 1860 1860 1857 1853 1849 1843 1843 1843 1845 1849 1849 1849 1849 1849 1836 1823 1823 1823 1823 0 0 0 0 0 0 0 0 0 0 0 0 0 0 0 0
1692 1689 1689 1672 1672 1672 1668 1668 1666 1653 1646 1643 1628 1618 1616 1606 1606 1616 1624 1638 1643 1651 1667 1671 1671 1671 1674 1674 1673 1673 1673 1673 1673 1675 1685 1689 1696 1696 1696 1694 1689 1684 1679 1677 1676 1671 1667 1665 1664 1663 1663 1663 1663 1664 1664 1664 1662 1661 1661 1661 1661 1661 1661 1660 1659 1658 1658 1656 1654 1652 1648 1648 1648 1648 1653 1653 1654 1653 1653 1653 1653 1634 0 0 0 0 0 0 0 0 0 0 0 0 0 0 0 0 0 0 0 0 0 0 0 0 0 0 0 0 0 0 0 1990 2016 2036 2056 2064 2064 2065 2068 2068 2074 2095 2104 2118 2122 2123 2123 2128 2129 2135 2149 2150 2158 2170 2188 2202 2219 2235 2251 2251 2251 2251 2249 2247 2241 2233 2224 2213 0 0 0 0 0 0 0 0 0 0 0 0 0 2285 2288 2291 2298 2299 2312 2316 2316 2316 2315 2315 2315 2321 2324 2328 2332 2340 2348 2351 2355 2359 2364 2364 2364 2363 2360 2346 2332 2329 2322 0 0 0 0 0 0 0 0 0 0 0 0 0 0 0 0 0 0 0 0 0 0 0 0 0 0 0 0 0 0 0 0 0 0 0 0 0 0 0 0 0 0 0 0 0 0 0 0 0 0 0 0 0 0 0 0 0 0 0 0 0 0 0 0 0 0 0 0 0 0 0 0 0 0 0 0 0 0 0 0 0 0 2113 2123 2129 2147 2188 2193 2203 2210 2217 2241 2293 2331 2334 2335 2335 2335 2335 2302 2302 2280 0 0 0 0 0 0 0 0 0 0 0 0 0 0 0 0 0 0 0 0 0 0 0 0 0 0 0 0 0 0 0 0 0 0 0 0 0 0 0 0 0 0 0 0 0 0 0 0 0 0 0 0 0 0 0 0 0 0 0 0 0 0 0 0 0 0 2261 2261 2261 2236 2201 2179 2171 2162 2154 2144 2136 2133 2127 2119 2111 2103 2096 2090 2086 2082 2079 2075 2069 2062 2053 2046 2038 2033 2027 2021 2017 2013 2006 2001 1994 1989 1986 1982 1978 1974 1970 1965 1964 1961 1960 1958 1956 1953 1949 1946 1944 1942 1941 1938 1937 1936 1935 1933 1931 1929 1927 1925 1924 1922 1921 1918 1917 1914 1912 1911 1909 1907 1905 1904 1902 1901 1898 1897 1895 1895 1895 1894 1894 1893 1892 1891 1890 1888 1886 1886 1885 1884 1884 1883 1882 1881 1879 1878 1877 1876 1876 1875 1874 1873 1872 1871 1870 1869 1868 1867 1866 1866 1866 1866 1866 1865 1865 1865 1864 1864 1864 1864 1864 1863 1863 1862 1862 1861 1860 1860 1859 1859 1858 1858 1857 1857 1857 1857 1856 1855 1854 1854 1854 1853 1852 1851 1850 1850 1849 1849 1847 1847 1845 1844 1842 1840 1839 1839 1838 1837 1837 1836 1836 1835 1835 1835 1834 1832 1832 1832 1831 1831 1830 1830 1828 1828 1828 1828 1829 1831 1831 1832 1833 1833 1835 1836 1838 1840 1842 1844 1845 1845 1845 1845 1845 1845 1845 1845 1844 1845 1845 1845 1848 1849 1851 1854 1855 1855 1856 1856 1858 1859 1862 1862 1862 1861 1859 1856 1856 1856 1856 1856 1856 1856 1851 1851 1851 1859 1859 1859 1854 1847 1846 1846 1846 1852 1864 1864 1864 1860 1857 1853 1850 1845 1845 1845 1845 1848 1849 1849 1849 1849 1836 1823 1823 1821 1814 0 0 0 0 0 0 0 0 0 0 0 0 0 0 0 0
1688 1687 1687 1665 1665 1665 1661 1661 1640 1631 1628 1625 1623 1618 1616 1616 1616 1619 1649 1658 1661 1661 1667 1676 1680 1681 1681 1683 1683 1683 1681 1681 1681 1684 1693 1698 1698 1698 1698 1698 1695 1687 1680 1679 1677 1671 1667 1665 1664 1663 1663 1663 1663 1664 1664 1664 1660 1660 1659 1659 1659 1659 1659 1658 1658 1655 1655 1653 1652 1648 1648 1645 1645 1645 1647 1647 1653 1653 1653 1653 1653 1635 1613 0 0 0 0 0 0 0 0 0 0 0 0 0 0 0 0 0 0 0 0 0 0 0 0 0 0 0 0 0 0 1990 2016 2036 2056 2068 2069 2069 2069 2070 2070 2081 2083 2090 2096 2097 2099 2109 2115 2135 2145 2148 2158 2170 2180 2182 2200 2216 2228 2232 2235 2237 2238 2238 2238 2233 2219 2205 0 0 0 0 0 0 0 0 0 0 0 0 0 2285 2288 2290 2294 2299 2312 2312 2312 2304 2304 2304 2312 2319 2324 2328 2331 2335 2342 2348 2352 2359 2363 2363 2363 2363 2360 2354 2340 2329 2322 2309 0 0 0 0 0 0 0 0 0 0 0 0 0 0 0 0 0 0 0 0 0 0 0 0 0 0 0 0 0 0 0 0 0 0 0 0 0 0 0 0 0 0 0 0 0 0 0 0 0 0 0 0 0 0 0 0 0 0 0 0 0 0 0 0 0 0 0 0 0 0 0 0 0 0 0 0 0 0 0 0 0 2104 2115 2116 2144 2169 2170 2170 2170 2171 2205 0 0 0 0 0 0 0 0 0 0 0 0 0 0 0 0 0 0 0 0 0 0 0 0 0 0 0 0 0 0 0 0 0 0 0 0 0 0 0 0 0 0 0 0 0 0 0 0 0 0 0 0 0 0 0 0 0 0 0 0 0 0 0 0 0 0 0 0 0 0 0 0 0 0 0 0 2254 2254 2254 2215 2181 2165 2164 2160 2154 2144 2135 2131 2126 2117 2110 2103 2096 2090 2084 2081 2077 2071 2065 2060 2053 2044 2037 2030 2026 2020 2017 2013 2006 2001 1994 1989 1986 1982 1978 1973 1970 1965 1964 1961 1960 1957 1956 1952 1949 1946 1944 1941 1939 1937 1936 1935 1934 1932 1930 1928 1926 1925 1923 1922 1920 1918 1916 1914 1912 1911 1909 1907 1905 1904 1902 1901 1899 1898 1897 1896 1896 1895 1894 1893 1892 1891 1890 1888 1886 1886 1885 1884 1884 1883 1882 1881 1879 1878 1876 1876 1875 1874 1873 1873 1871 1871 1870 1868 1867 1866 1866 1866 1865 1865 1865 1864 1864 1864 1864 1864 1864 1864 1863 1863 1862 1862 1861 1860 1860 1860 1859 1858 1858 1857 1857 1857 1857 1857 1856 1855 1854 1854 1854 1853 1852 1851 1851 1850 1849 1849 1848 1847 1846 1844 1842 1840 1839 1839 1838 1837 1837 1836 1836 1835 1835 1835 1833 1832 1832 1831 1830 1830 1829 1829 1828 1828 1828 1828 1830 1831 1832 1833 1833 1833 1835 1837 1838 1840 1842 1844 1846 1846 1846 1846 1846 1847 1847 1847 1846 1846 1846 1849 1851 1852 1854 1856 1858 1858 1858 1858 1858 1861 1862 1863 1863 1863 1863 1862 1862 1862 1862 1862 1862 1858 1853 1853 1853 1862 1862 1862 1860 1858 1852 1852 1852 1858 1865 1865 1865 1860 1857 1853 1851 1845 1845 1845 1844 1844 1843 1842 1836 1832 1824 1817 1809 1799 1787 0 0 0 0 0 0 0 0 0 0 0 0 0 0 0 0
