1822 1822 1857 1882 1892 1897 1900 1908 1919 1919 1926 1926 1926 1926 1921 1888 0 0 0 0 0 0 0 1140 1127 1122 1122 1122 1122 1122 1122 1122 1121 1121 1120 1120 1120 1120 1120 1120 1120 1120 1120 1120 1120 1120 1120 1121 1121 1121 1121 1121 1121 1121 1121 1121 1121 1121 1121 1121 1121 1120 1120 1120 1120 1119 1119 1119 1119 1119 1118 1118 1118 1118 1118 1117 1116 1116 1115 1115 1113 1111 1110 1109 1106 1102 1094 1090 1075 1055 1049 1047 1045 1042 1039 1037 1035 1034 1034 1033 1033 1033 1034 1036 1038 1039 1041 1042 1043 1044 1045 1048 1050 1052 1055 1064 1073 1076 1085 1092 1097 1100 1102 1103 1105 1106 1107 1108 1108 1109 1109 1109 1109 1109 1109 1109 1108 1108 1108 1108 1107 1107 1107 1107 1106 1106 1106 1105 1103 1102 1099 1098 1095 1090 1088 1086 1084 1081 1080 1077 1075 1073 1072 1071 1069 1068 1067 1066 1066 1066 1066 1068 1069 1069 1070 1072 1074 1077 1079 1081 1084 1087 1089 1092 1095 1096 1098 1100 1101 1101 1102 1102 1103 1103 1103 1103 1103 1103 1103 1104 1104 1104 1104 1104 1104 1104 1104 1104 1102 1102 1101 1100 1100 1098 1097 1097 1095 1093 1092 1092 1091 1090 1088 1087 1087 1086 1086 1085 1085 1085 1084 1084 1084 1084 1085 1085 1085 1085 1085 1086 1086 1087 1088 1088 1089 1089 1090 1091 1092 1093 1093 1095 1095 1096 1096 1096 1096 1097 1097 1097 1097 1097 1097 1097 1097 1097 1097 1097 1097 1097 1097 1097 1097 1097 1097 1096 1096 1096 1095 1095 1094 1093 1092 1091 1089 1088 1088 1086 1084 1084 1082 1082 1082 1082 1082 1082 1082 1082 1082 1082 1083 1083 1083 1084 1084 1085 1085 1085 1086 1087 1087 1088 1089 1090 1091 1091 1091 1092 1093 1093 1093 1093 1093 1093 1093 1093 1093 1093 1093 1093 1093 1093 1093 1092 1092 1092 1092 1092 1092 1091 1091 1091 1091 1091 1091 1091 1090 1089 1089 1089 1088 1087 1087 1086 1086 1086 1085 1085 1085 1085 1085 1085 1085 1085 1085 1085 1085 1085 1085 1085 1085 1085 1085 1085 1085 1085 1085 1085 1085 1086 1086 1086 1087 1087 1087 1087 1087 1087 1087 1087 1087 1087 1087 1086 1086 1086 1085 1085 1085 1085 1085 1086 1086 1086 1087 1087 1088 1088 1088 1089 1090 1092 1093 1105 0 0 0 0 1686 1701 1705 1715 1717 1719 1719 1719 1720 1720 1720 1720 1721 1723 1723 1725 1728 1729 1735 1738 1742 1745 1750 1753 1758 1763 1769 1773 1776 1780 1785 1789 1791 1794 1797 1800 1802 1803 1805 1806 1807 1808 1809 1809 1810 1810 1810 1810 1810 1810 1810 1810 1810 1809 1809 1809 1809 1808 1808 1807 1807 1806 1806 1805 1805 1805 1804 1804 1804 1804 1804 1804 1803 1803 1802 1801 1801 1800 1799 1799 1798 1797 1797 1797 1797 1797 1797 1797 1797 1798 1798 1798 1799 1799 1799 1799 1799 1799 1800 1800 1800 1801 1801 1801 1802 1803 1805 1806 1807 1808 1810 1812 1813 1818 1824 1831 1831 1837 1856 1872 1909 1941 1962 1966 1967 1967 1969 1969 1969 1967 1966 1964 1963 1961 1960 1959 1957 1956 1954 1954 1953 1953 1952 1951 1951 1950 1950 1948 1946 1944 1942 1941 1939 1938 1935 1933 1931 1926 1921 1916 1911 1906 1900 1895 1890 1889 1888 1886 1886 1886 1890 1894 1908 1914 1916 1923 1923 1923 1905 0 0 0 0 0 0 0 0 0 0 0 0 0 0 0 0 0 0 0 0 0 0 0 0 0 0 0 0 0 0 0 0 0 0 0 0 0 0 0 0 0 0 0
1830 1830 1857 1882 1892 1899 1912 1913 1914 1914 1919 1919 1921 1921 1921 1893 0 0 0 0 0 0 0 1142 1127 1125 1124 1124 1124 1124 1124 1124 1122 1122 1122 1121 1121 1121 1121 1121 1121 1121 1121 1121 1121 1121 1121 1121 1122 1122 1122 1122 1122 1123 1123 1123 1123 1123 1122 1122 1122 1121 1121 1121 1121 1121 1120 1120 1119 1119 1119 1119 1119 1118 1118 1118 1117 1116 1115 1115 1114 1112 1110 1109 1107 1102 1102 1096 1082 1060 1053 1052 1049 1047 1044 1041 1039 1037 1035 1035 1035 1035 1037 1038 1040 1040 1042 1044 1045 1045 1047 1048 1050 1052 1056 1064 1070 1075 1083 1092 1098 1102 1102 1105 1107 1107 1108 1109 1109 1110 1110 1110 1110 1110 1109 1109 1109 1109 1109 1108 1108 1108 1108 1108 1108 1107 1107 1105 1105 1103 1102 1100 1097 1093 1088 1088 1086 1083 1081 1079 1077 1076 1074 1072 1070 1069 1069 1069 1067 1067 1067 1068 1070 1070 1072 1074 1076 1078 1080 1083 1085 1087 1091 1094 1096 1097 1099 1101 1102 1103 1104 1104 1104 1104 1104 1104 1104 1104 1104 1104 1104 1104 1104 1104 1104 1104 1104 1104 1103 1103 1102 1101 1101 1099 1099 1098 1097 1095 1094 1093 1092 1090 1089 1088 1088 1087 1087 1085 1085 1085 1085 1085 1085 1085 1085 1086 1086 1086 1086 1086 1087 1088 1088 1089 1090 1090 1091 1092 1094 1094 1095 1095 1096 1096 1097 1098 1098 1098 1098 1098 1098 1098 1098 1098 1098 1098 1098 1098 1098 1098 1098 1098 1098 1098 1097 1097 1097 1097 1096 1095 1095 1094 1093 1092 1090 1090 1088 1087 1086 1084 1084 1083 1083 1083 1083 1083 1083 1083 1083 1084 1084 1084 1084 1084 1085 1085 1085 1086 1087 1087 1089 1089 1090 1091 1091 1092 1093 1093 1093 1093 1094 1094 1094 1094 1094 1094 1094 1094 1094 1094 1094 1093 1093 1093 1093 1093 1093 1093 1092 1092 1092 1092 1092 1092 1092 1091 1091 1090 1090 1090 1089 1088 1088 1088 1088 1087 1087 1087 1087 1087 1086 1086 1086 1086 1086 1086 1086 1087 1086 1086 1086 1086 1086 1086 1086 1086 1086 1086 1086 1086 1087 1088 1088 1088 1088 1088 1088 1088 1088 1088 1088 1088 1088 1088 1087 1087 1086 1086 1086 1086 1087 1087 1087 1087 1087 1088 1088 1088 1090 1091 1091 1095 1105 1107 0 0 0 0 1686 1701 1712 1715 1717 1719 1719 1719 1719 1719 1720 1720 1721 1722 1722 1724 1727 1729 1732 1736 1740 1744 1748 1752 1758 1763 1769 1772 1776 1780 1785 1789 1791 1794 1797 1799 1801 1802 1804 1806 1807 1807 1808 1808 1809 1809 1809 1810 1810 1810 1810 1810 1809 1809 1809 1808 1808 1808 1807 1806 1806 1806 1806 1805 1805 1805 1804 1803 1803 1803 1803 1802 1802 1801 1801 1801 1800 1799 1798 1797 1797 1797 1797 1796 1796 1796 1796 1796 1797 1797 1797 1798 1798 1798 1798 1799 1799 1799 1799 1800 1800 1800 1800 1801 1802 1803 1804 1806 1807 1809 1811 1813 1816 1820 1827 1832 1833 1841 1862 1877 1920 1956 1967 1968 1969 1970 1970 1970 1970 1968 1967 1964 1963 1961 1960 1960 1958 1957 1955 1955 1955 1954 1953 1952 1951 1951 1950 1949 1946 1944 1942 1941 1939 1937 1934 1931 1929 1924 1918 1912 1907 1903 1900 1895 1891 1889 1888 1887 1887 1887 1890 1894 1906 1914 1916 1923 1923 1923 1911 1890 0 0 0 0 0 0 0 0 0 0 0 0 0 0 0 0 0 0 0 0 0 0 0 0 0 0 0 0 0 0 0 0 0 0 0 0 0 0 0 0 0 0
1830 1830 1857 1882 1892 1899 1914 1919 1919 1919 1919 1919 1920 1920 1920 1894 1841 0 0 0 0 0 0 1148 1129 1125 1124 1124 1124 1125 1125 1125 1124 1123 1123 1122 1122 1122 1122 1122 1122 1122 1122 1122 1122 1122 1122 1122 1122 1123 1123 1123 1123 1123 1123 1123 1123 1123 1123 1123 1123 1122 1122 1122 1121 1121 1121 1120 1120 1120 1119 1119 1119 1119 1119 1118 1117 1117 1116 1115 1114 1113 1111 1110 1107 1107 1104 1097 1083 1066 1059 1056 1050 1047 1044 1041 1041 1038 1037 1037 1037 1037 1039 1040 1041 1042 1043 1045 1046 1047 1047 1048 1050 1052 1059 1064 1070 1076 1085 1093 1099 1102 1104 1106 1107 1108 1109 1110 1110 1111 1111 1111 1111 1110 1110 1110 1110 1109 1109 1109 1109 1108 1108 1108 1108 1108 1108 1106 1105 1105 1104 1102 1099 1096 1091 1088 1086 1084 1082 1080 1078 1078 1076 1074 1072 1072 1071 1071 1070 1070 1070 1070 1071 1072 1074 1076 1079 1082 1083 1084 1087 1089 1093 1094 1096 1097 1100 1102 1103 1104 1104 1104 1105 1105 1105 1105 1105 1105 1105 1105 1105 1105 1105 1105 1105 1105 1105 1104 1104 1104 1103 1102 1101 1101 1100 1099 1097 1096 1095 1095 1092 1091 1089 1089 1089 1088 1088 1087 1087 1087 1087 1087 1087 1087 1087 1087 1087 1086 1086 1086 1088 1089 1090 1090 1091 1091 1091 1093 1094 1095 1095 1096 1097 1098 1098 1098 1098 1098 1099 1099 1099 1099 1099 1099 1099 1099 1099 1099 1099 1099 1099 1099 1098 1098 1098 1098 1097 1097 1097 1097 1096 1095 1095 1094 1092 1090 1090 1088 1087 1086 1086 1085 1084 1084 1084 1084 1084 1085 1085 1085 1085 1085 1085 1085 1086 1087 1087 1087 1088 1089 1089 1090 1091 1091 1092 1093 1093 1094 1094 1094 1094 1095 1095 1095 1095 1095 1095 1095 1095 1095 1095 1094 1094 1094 1094 1094 1094 1093 1093 1093 1093 1093 1093 1093 1092 1092 1092 1091 1091 1091 1091 1089 1089 1088 1088 1088 1088 1087 1087 1087 1087 1087 1087 1087 1087 1087 1087 1087 1087 1087 1087 1087 1087 1087 1087 1087 1087 1087 1087 1087 1088 1088 1089 1089 1089 1089 1089 1089 1089 1089 1089 1089 1089 1089 1088 1087 1087 1087 1087 1087 1087 1088 1088 1088 1088 1088 1088 1089 1090 1093 1096 1103 1116 0 0 0 0 0 1680 1701 1712 1715 1716 1718 1718 1718 1719 1719 1719 1720 1721 1721 1722 1722 1725 1727 1730 1734 1736 1740 1745 1751 1758 1762 1768 1772 1775 1780 1785 1788 1790 1794 1796 1799 1800 1802 1803 1804 1805 1807 1807 1808 1808 1809 1809 1809 1809 1809 1809 1809 1809 1808 1808 1808 1808 1807 1807 1806 1806 1806 1805 1805 1805 1804 1803 1803 1803 1803 1802 1802 1801 1801 1800 1800 1799 1798 1798 1797 1797 1797 1796 1796 1796 1796 1796 1796 1796 1797 1797 1797 1798 1798 1798 1798 1798 1799 1799 1800 1800 1800 1800 1801 1802 1803 1804 1806 1808 1810 1813 1815 1818 1825 1830 1833 1834 1846 1863 1892 1938 1969 1971 1972 1972 1972 1972 1972 1971 1969 1967 1965 1963 1961 1961 1960 1958 1958 1956 1956 1955 1955 1954 1953 1953 1953 1950 1949 1946 1944 1942 1940 1939 1937 1934 1930 1927 1923 1917 1911 1907 1903 1900 1896 1891 1889 1887 1887 1887 1887 1890 1894 1901 1909 1916 1917 1922 1922 1922 1909 0 0 0 0 0 0 0 0 0 0 0 0 0 0 0 0 0 0 0 0 0 0 0 0 0 0 0 0 0 0 0 0 0 0 0 0 0 0 0 0 0 0
1831 1831 1856 1882 1885 1906 1915 1927 1927 1927 1920 1920 1914 1913 1910 1898 1870 0 0 0 0 0 0 1153 1130 1125 1125 1125 1125 1126 1126 1126 1125 1124 1124 1123 1123 1123 1123 1123 1123 1123 1123 1123 1123 1123 1123 1123 1124 1124 1124 1124 1124 1124 1124 1124 1124 1124 1124 1124 1123 1123 1122 1122 1121 1121 1121 1120 1120 1120 1119 1119 1119 1119 1119 1118 1118 1117 1117 1116 1115 1114 1112 1111 1108 1107 1104 1098 1084 1071 1061 1056 1050 1047 1044 1041 1041 1039 1039 1039 1040 1041 1042 1042 1043 1043 1044 1046 1048 1049 1049 1050 1050 1052 1061 1067 1070 1076 1086 1094 1100 1103 1106 1107 1107 1109 1109 1110 1111 1111 1111 1111 1111 1111 1110 1110 1110 1110 1110 1110 1109 1109 1109 1109 1108 1108 1108 1107 1106 1105 1105 1104 1101 1099 1095 1091 1089 1087 1085 1082 1080 1079 1078 1077 1075 1074 1074 1073 1073 1072 1072 1072 1073 1074 1076 1077 1080 1082 1084 1086 1089 1091 1093 1095 1096 1099 1101 1103 1103 1104 1104 1106 1106 1106 1106 1106 1106 1106 1105 1105 1105 1105 1105 1105 1105 1105 1105 1105 1104 1104 1103 1102 1101 1101 1100 1099 1097 1096 1095 1095 1092 1091 1089 1089 1089 1089 1088 1088 1088 1088 1088 1088 1089 1089 1089 1089 1088 1088 1088 1088 1088 1090 1091 1092 1092 1092 1092 1094 1094 1095 1096 1097 1098 1098 1099 1099 1100 1100 1100 1100 1100 1100 1100 1100 1100 1100 1100 1100 1100 1100 1100 1100 1100 1099 1099 1099 1099 1098 1098 1098 1097 1096 1095 1095 1093 1092 1090 1089 1089 1088 1087 1086 1086 1086 1086 1086 1086 1086 1086 1086 1087 1087 1087 1087 1087 1087 1088 1089 1089 1090 1090 1091 1092 1092 1093 1094 1094 1095 1095 1095 1095 1096 1096 1096 1096 1096 1096 1096 1096 1095 1095 1095 1095 1095 1095 1094 1094 1094 1094 1094 1094 1094 1094 1093 1093 1092 1092 1092 1092 1092 1091 1091 1089 1089 1089 1089 1089 1089 1088 1088 1088 1088 1088 1088 1088 1088 1088 1088 1088 1088 1088 1088 1088 1088 1088 1088 1088 1088 1088 1088 1088 1089 1090 1090 1090 1090 1090 1091 1090 1090 1090 1090 1090 1090 1089 1089 1089 1089 1088 1088 1088 1089 1089 1089 1089 1089 1089 1090 1093 1095 1099 1103 1116 0 0 0 0 0 1680 1701 1712 1714 1716 1718 1718 1718 1718 1718 1719 1720 1720 1720 1721 1722 1723 1725 1728 1731 1733 1736 1741 1748 1754 1761 1767 1772 1775 1779 1784 1786 1790 1793 1795 1798 1800 1802 1803 1804 1805 1806 1806 1807 1807 1807 1808 1808 1808 1808 1809 1808 1808 1808 1808 1808 1807 1807 1807 1806 1806 1805 1805 1805 1804 1804 1803 1803 1803 1802 1802 1802 1801 1800 1800 1799 1798 1798 1798 1797 1796 1796 1796 1796 1796 1795 1795 1795 1796 1797 1797 1797 1797 1797 1797 1798 1798 1798 1798 1799 1800 1800 1800 1801 1802 1803 1804 1806 1808 1811 1814 1817 1821 1825 1830 1834 1837 1851 1868 1900 1941 1969 1973 1974 1974 1974 1974 1973 1972 1969 1967 1965 1964 1962 1961 1960 1959 1958 1957 1957 1956 1955 1954 1954 1953 1953 1951 1949 1947 1944 1942 1940 1938 1936 1933 1929 1926 1922 1917 1911 1907 1903 1901 1896 1891 1888 1887 1887 1887 1887 1891 1894 1901 1909 1916 1917 1922 1924 1924 1924 1898 0 0 0 0 0 0 0 0 0 0 0 0 0 0 0 0 0 0 0 0 0 0 0 0 0 0 0 0 0 0 0 0 0 0 0 0 0 0 0 0 0
1831 1831 1856 1881 1885 1906 1917 1927 1927 1927 1927 1922 1920 1920 1910 1903 1872 1872 0 0 0 0 0 1156 1136 1127 1126 1126 1126 1126 1126 1126 1126 1125 1125 1125 1124 1124 1124 1124 1124 1124 1124 1124 1124 1124 1124 1125 1125 1125 1125 1125 1125 1125 1125 1125 1125 1125 1125 1124 1124 1123 1123 1122 1122 1122 1121 1121 1120 1120 1119 1119 1119 1119 1119 1118 1118 1117 1117 1116 1115 1114 1113 1111 1109 1107 1105 1098 1088 1076 1062 1057 1050 1046 1042 1042 1041 1041 1042 1042 1042 1044 1044 1044 1044 1045 1046 1047 1049 1050 1051 1052 1052 1055 1061 1067 1073 1077 1086 1095 1100 1103 1107 1109 1109 1110 1111 1111 1112 1112 1112 1112 1111 1111 1111 1110 1110 1110 1110 1110 1110 1109 1109 1109 1109 1109 1109 1108 1107 1106 1105 1104 1102 1099 1096 1094 1091 1089 1087 1084 1081 1081 1081 1079 1078 1077 1077 1077 1076 1076 1076 1076 1076 1076 1077 1079 1081 1084 1085 1087 1089 1093 1094 1095 1097 1100 1102 1104 1104 1104 1105 1106 1106 1106 1106 1106 1106 1106 1106 1106 1106 1106 1106 1105 1105 1105 1105 1105 1105 1104 1103 1103 1102 1101 1100 1100 1098 1097 1095 1095 1092 1091 1090 1089 1089 1089 1088 1088 1088 1089 1089 1089 1090 1090 1089 1089 1089 1088 1088 1088 1088 1090 1091 1093 1093 1093 1094 1095 1095 1095 1096 1097 1098 1099 1100 1100 1101 1101 1101 1101 1101 1101 1101 1101 1101 1101 1101 1101 1101 1101 1101 1100 1100 1100 1099 1099 1099 1099 1099 1099 1098 1097 1096 1095 1094 1093 1091 1090 1090 1090 1089 1087 1087 1087 1087 1087 1088 1088 1088 1088 1088 1088 1088 1088 1088 1088 1089 1090 1090 1091 1091 1092 1092 1093 1094 1095 1095 1095 1096 1096 1096 1097 1097 1097 1097 1097 1097 1097 1096 1096 1096 1096 1096 1095 1095 1095 1095 1095 1095 1094 1094 1094 1094 1094 1094 1093 1093 1093 1093 1092 1092 1092 1090 1089 1089 1089 1089 1089 1089 1089 1089 1089 1089 1089 1089 1090 1090 1090 1089 1089 1089 1089 1089 1089 1089 1089 1089 1089 1089 1089 1089 1090 1091 1091 1092 1092 1092 1092 1091 1091 1091 1091 1091 1091 1090 1090 1090 1089 1089 1089 1089 1089 1090 1090 1090 1090 1091 1094 1096 1098 1100 1104 1117 0 0 0 0 0 1680 1701 1712 1714 1716 1717 1718 1718 1718 1718 1719 1719 1720 1720 1720 1721 1722 1724 1726 1728 1731 1735 1741 1746 1752 1758 1763 1769 1775 1779 1782 1784 1789 1792 1794 1798 1799 1801 1802 1803 1805 1805 1805 1807 1807 1807 1807 1807 1807 1808 1808 1808 1808 1808 1808 1807 1807 1807 1807 1806 1805 1805 1805 1804 1804 1803 1803 1802 1802 1802 1801 1801 1800 1800 1799 1799 1798 1798 1797 1796 1796 1796 1796 1795 1795 1795 1795 1795 1795 1796 1796 1796 1796 1797 1797 1797 1797 1798 1798 1799 1800 1800 1800 1801 1802 1803 1804 1806 1808 1811 1814 1817 1821 1825 1830 1835 1845 1862 1878 1912 1952 1969 1974 1975 1976 1976 1976 1974 1972 1970 1967 1965 1964 1962 1961 1960 1959 1958 1958 1957 1956 1956 1954 1954 1954 1953 1951 1949 1947 1945 1942 1940 1938 1936 1933 1929 1926 1921 1917 1911 1909 1906 1902 1896 1890 1888 1887 1887 1887 1887 1891 1898 1901 1909 1917 1917 1922 1924 1924 1924 1908 0 0 0 0 0 0 0 0 0 0 0 0 0 0 0 0 0 0 0 0 0 0 0 0 0 0 0 0 0 0 0 0 0 0 0 0 0 0 0 0 0
1831 1831 1856 1876 1885 1907 1918 1927 1927 1927 1927 1926 1926 1922 1910 1903 1903 1877 0 0 0 0 0 1159 1141 1133 1127 1127 1127 1127 1127 1127 1127 1126 1126 1125 1125 1125 1125 1125 1125 1125 1125 1125 1125 1125 1125 1125 1125 1125 1126 1126 1126 1125 1126 1125 1125 1125 1125 1125 1124 1123 1123 1123 1122 1122 1121 1120 1120 1119 1119 1119 1119 1119 1119 1118 1118 1118 1117 1116 1115 1114 1113 1112 1111 1110 1107 1103 1095 1085 1066 1057 1050 1044 1042 1042 1042 1043 1043 1043 1045 1045 1045 1045 1046 1046 1048 1048 1050 1051 1053 1053 1053 1056 1062 1067 1074 1077 1086 1096 1102 1104 1108 1110 1110 1110 1112 1112 1112 1112 1112 1112 1111 1111 1111 1110 1110 1110 1110 1110 1110 1110 1109 1109 1109 1109 1109 1108 1108 1106 1105 1104 1102 1100 1096 1096 1094 1092 1089 1086 1084 1083 1083 1081 1081 1081 1080 1080 1080 1079 1078 1078 1078 1078 1080 1082 1084 1086 1087 1089 1091 1093 1095 1096 1099 1101 1103 1104 1104 1105 1106 1106 1106 1106 1106 1106 1106 1106 1106 1106 1106 1106 1106 1105 1105 1105 1105 1105 1105 1104 1103 1103 1102 1101 1101 1100 1098 1098 1096 1095 1093 1092 1090 1090 1089 1089 1089 1089 1089 1089 1090 1090 1090 1090 1090 1090 1089 1089 1089 1089 1089 1090 1091 1093 1093 1094 1094 1096 1096 1096 1097 1098 1099 1100 1100 1101 1101 1102 1102 1102 1102 1102 1102 1102 1102 1102 1101 1101 1101 1101 1101 1101 1101 1100 1100 1100 1100 1099 1099 1099 1099 1098 1097 1096 1095 1094 1093 1092 1091 1091 1090 1089 1088 1088 1088 1088 1089 1089 1089 1089 1089 1089 1089 1089 1089 1089 1089 1091 1091 1092 1092 1092 1093 1093 1095 1095 1097 1097 1097 1097 1097 1097 1097 1097 1097 1097 1097 1097 1097 1097 1096 1096 1096 1096 1096 1095 1095 1095 1095 1095 1095 1095 1094 1094 1094 1094 1094 1094 1093 1093 1092 1092 1092 1091 1090 1090 1090 1090 1090 1090 1090 1090 1090 1091 1091 1091 1091 1090 1090 1090 1090 1090 1091 1091 1091 1091 1091 1091 1091 1091 1091 1091 1092 1092 1092 1092 1092 1092 1092 1092 1092 1092 1092 1091 1091 1091 1091 1091 1090 1090 1090 1090 1091 1091 1091 1091 1091 1095 1097 1098 1102 1108 1125 0 0 0 0 0 1691 1701 1712 1714 1715 1717 1717 1718 1718 1718 1718 1719 1719 1719 1720 1720 1720 1722 1725 1726 1730 1734 1739 1746 1750 1756 1762 1767 1773 1777 1779 1782 1787 1790 1793 1796 1798 1801 1802 1803 1803 1804 1805 1805 1806 1806 1806 1807 1807 1807 1807 1808 1808 1807 1807 1807 1807 1806 1806 1806 1805 1805 1804 1804 1804 1803 1803 1802 1802 1801 1801 1800 1800 1799 1799 1798 1797 1797 1797 1796 1796 1796 1795 1795 1795 1795 1795 1795 1795 1796 1796 1796 1796 1797 1797 1797 1797 1798 1798 1799 1800 1800 1800 1801 1802 1803 1804 1806 1809 1812 1814 1817 1821 1823 1828 1837 1854 1868 1887 1934 1959 1971 1975 1977 1977 1977 1976 1974 1973 1970 1967 1965 1964 1962 1962 1961 1960 1959 1958 1957 1956 1956 1955 1955 1954 1953 1951 1949 1947 1945 1943 1940 1938 1936 1932 1928 1925 1921 1917 1911 1909 1906 1902 1894 1890 1888 1887 1887 1887 1889 1894 1901 1905 1913 1918 1919 1922 1924 1924 1924 1908 0 0 0 0 0 0 0 0 0 0 0 0 0 0 0 0 0 0 0 0 0 0 0 0 0 0 0 0 0 0 0 0 0 0 0 0 0 0 0 0 0
1845 1845 1866 1875 1885 1907 1918 1919 1924 1927 1928 1932 1932 1932 1925 1916 1916 1894 0 0 0 0 0 0 1147 1137 1132 1131 1130 1129 1129 1128 1128 1127 1127 1126 1126 1126 1126 1126 1126 1126 1126 1126 1126 1126 1126 1126 1126 1126 1126 1126 1126 1127 1126 1126 1126 1125 1125 1125 1124 1124 1123 1123 1122 1122 1121 1121 1120 1119 1119 1118 1118 1118 1118 1118 1118 1117 1117 1116 1115 1114 1113 1113 1111 1110 1107 1103 1099 1091 1075 1057 1050 1044 1042 1042 1042 1045 1046 1046 1046 1046 1046 1046 1047 1047 1048 1049 1050 1053 1055 1056 1056 1058 1062 1068 1074 1078 1086 1097 1104 1107 1109 1111 1111 1112 1112 1113 1113 1113 1112 1112 1111 1111 1111 1110 1110 1110 1109 1109 1109 1109 1109 1109 1109 1109 1109 1108 1108 1106 1106 1105 1104 1102 1099 1097 1095 1093 1091 1089 1087 1086 1084 1083 1083 1083 1083 1083 1084 1084 1084 1082 1082 1082 1083 1084 1086 1088 1090 1091 1094 1096 1096 1099 1101 1102 1103 1104 1106 1106 1106 1107 1107 1107 1107 1106 1106 1106 1106 1106 1106 1106 1106 1105 1105 1105 1105 1105 1105 1104 1104 1103 1102 1102 1101 1100 1100 1099 1097 1095 1094 1092 1090 1090 1090 1089 1089 1089 1090 1090 1090 1091 1090 1090 1090 1090 1089 1089 1089 1089 1090 1091 1092 1093 1094 1094 1096 1097 1097 1098 1098 1100 1100 1101 1101 1102 1102 1102 1103 1103 1103 1103 1103 1102 1102 1102 1102 1102 1101 1101 1101 1101 1101 1101 1101 1101 1100 1100 1100 1099 1099 1099 1098 1097 1095 1095 1094 1094 1093 1093 1092 1091 1091 1091 1091 1091 1091 1091 1091 1091 1091 1090 1090 1090 1090 1090 1090 1091 1092 1092 1092 1093 1093 1094 1096 1096 1097 1097 1098 1098 1098 1098 1098 1098 1098 1098 1098 1098 1097 1097 1097 1097 1097 1097 1096 1096 1096 1096 1096 1096 1096 1096 1095 1095 1095 1095 1094 1094 1094 1094 1094 1093 1093 1092 1092 1092 1091 1091 1091 1091 1091 1091 1091 1091 1092 1092 1092 1092 1091 1091 1091 1091 1092 1092 1092 1092 1092 1091 1091 1092 1092 1092 1093 1093 1093 1094 1094 1094 1094 1094 1093 1093 1093 1093 1093 1092 1092 1092 1092 1091 1091 1091 1091 1091 1091 1092 1092 1095 1097 1100 1103 1109 1126 0 0 0 0 1692 1697 1703 1712 1714 1715 1717 1717 1717 1717 1717 1718 1718 1719 1719 1719 1719 1720 1721 1722 1724 1728 1734 1739 1744 1749 1754 1760 1767 1773 1776 1778 1780 1784 1789 1792 1795 1798 1799 1801 1802 1803 1803 1804 1805 1805 1805 1806 1806 1806 1806 1807 1807 1807 1807 1806 1806 1806 1806 1805 1805 1805 1805 1804 1804 1804 1802 1802 1802 1801 1800 1800 1800 1799 1798 1798 1797 1797 1796 1796 1796 1796 1795 1795 1795 1795 1795 1795 1795 1795 1796 1796 1796 1796 1797 1797 1797 1797 1798 1799 1799 1800 1800 1800 1802 1802 1803 1805 1806 1809 1812 1814 1817 1820 1823 1828 1839 1861 1873 1895 1938 1963 1971 1975 1978 1978 1978 1976 1975 1973 1970 1969 1966 1964 1963 1962 1961 1961 1960 1959 1957 1956 1956 1955 1955 1954 1953 1952 1950 1947 1945 1943 1940 1938 1935 1932 1928 1925 1921 1917 1911 1909 1906 1902 1893 1890 1888 1888 1888 1889 1891 1897 1902 1906 1913 1919 1922 1923 1924 1924 1924 1912 0 0 0 0 0 0 0 0 0 0 0 0 0 0 0 0 0 0 0 0 0 0 0 0 0 0 0 0 0 0 0 0 0 0 0 0 0 0 0 0 0
1848 1848 1866 1870 1885 1907 1918 1918 1924 1928 1937 1942 1942 1942 1941 1927 1926 1912 0 0 0 0 0 0 1153 1139 1133 1131 1130 1130 1130 1130 1129 1128 1127 1127 1127 1127 1127 1127 1127 1126 1127 1127 1127 1127 1127 1127 1127 1127 1127 1127 1127 1127 1127 1127 1126 1126 1125 1125 1124 1124 1123 1122 1122 1122 1121 1121 1120 1119 1118 1117 1117 1117 1117 1117 1117 1117 1117 1116 1115 1114 1113 1113 1111 1110 1107 1103 1099 1091 1075 1057 1050 1044 1044 1044 1044 1046 1048 1048 1048 1048 1047 1047 1047 1048 1049 1050 1051 1054 1056 1058 1059 1061 1067 1073 1077 1080 1091 1097 1105 1108 1110 1111 1112 1112 1112 1113 1113 1113 1112 1112 1111 1111 1111 1110 1110 1109 1109 1109 1109 1109 1109 1109 1109 1109 1109 1108 1108 1107 1106 1106 1105 1103 1101 1098 1096 1095 1093 1091 1090 1089 1088 1085 1085 1085 1085 1085 1086 1086 1086 1085 1085 1085 1085 1087 1090 1092 1093 1095 1096 1098 1098 1101 1102 1103 1104 1106 1106 1107 1107 1107 1107 1107 1107 1106 1106 1106 1106 1106 1105 1105 1105 1105 1105 1105 1105 1104 1104 1104 1104 1103 1103 1102 1101 1101 1100 1100 1099 1096 1094 1093 1092 1091 1091 1090 1090 1090 1091 1092 1092 1092 1091 1091 1091 1091 1090 1090 1090 1091 1091 1093 1093 1094 1095 1096 1097 1099 1099 1099 1100 1102 1102 1102 1102 1103 1103 1103 1103 1103 1103 1103 1103 1103 1103 1102 1102 1102 1101 1101 1101 1101 1101 1101 1101 1101 1101 1100 1100 1100 1100 1099 1099 1098 1097 1096 1095 1095 1094 1094 1093 1093 1092 1092 1092 1092 1092 1092 1092 1092 1092 1092 1092 1091 1092 1092 1092 1093 1093 1093 1094 1094 1094 1095 1097 1097 1097 1098 1099 1099 1099 1099 1099 1099 1099 1098 1098 1098 1098 1098 1098 1097 1097 1097 1097 1097 1097 1096 1096 1096 1096 1096 1096 1096 1096 1096 1095 1095 1095 1094 1094 1093 1093 1093 1093 1093 1093 1092 1092 1092 1092 1092 1092 1092 1092 1093 1093 1092 1092 1092 1092 1092 1092 1093 1093 1093 1093 1092 1092 1093 1093 1094 1094 1094 1094 1095 1095 1095 1095 1095 1094 1094 1094 1094 1094 1094 1093 1093 1093 1093 1093 1093 1093 1093 1093 1093 1093 1095 1097 1100 1105 1110 1126 0 0 0 0 1702 1702 1704 1712 1714 1715 1715 1716 1717 1717 1717 1718 1718 1718 1718 1719 1719 1719 1720 1721 1722 1727 1731 1736 1742 1748 1753 1760 1766 1772 1774 1776 1779 1783 1788 1791 1794 1795 1798 1799 1801 1802 1803 1803 1804 1804 1805 1805 1806 1806 1806 1806 1806 1806 1806 1805 1805 1805 1805 1805 1805 1805 1805 1804 1804 1804 1802 1802 1802 1801 1800 1800 1799 1798 1798 1797 1796 1796 1796 1796 1796 1795 1795 1795 1795 1795 1795 1795 1795 1795 1796 1796 1796 1796 1796 1797 1797 1798 1799 1799 1800 1801 1801 1801 1802 1803 1805 1805 1808 1810 1813 1815 1817 1820 1823 1828 1844 1864 1878 1904 1940 1964 1971 1975 1978 1978 1978 1976 1974 1973 1972 1969 1967 1966 1964 1963 1962 1961 1960 1959 1957 1957 1956 1956 1955 1954 1953 1952 1950 1947 1946 1943 1940 1937 1934 1930 1926 1925 1921 1917 1911 1907 1904 1899 1893 1890 1890 1890 1890 1891 1892 1898 1902 1908 1914 1919 1923 1923 1924 1924 1924 1914 0 0 0 0 0 0 0 0 0 0 0 0 0 0 0 0 0 0 0 0 0 0 0 0 0 0 0 0 0 0 0 0 0 0 0 0 0 0 0 0 0
1852 1852 1866 1870 1885 1900 1909 1917 1924 1941 1953 1960 1960 1960 1953 1940 1938 1924 1907 0 0 0 0 0 1162 1141 1136 1132 1131 1131 1131 1130 1130 1129 1129 1129 1128 1128 1128 1128 1128 1128 1128 1128 1128 1128 1128 1128 1128 1128 1128 1128 1128 1128 1128 1128 1126 1126 1125 1124 1124 1124 1122 1122 1122 1121 1121 1120 1119 1118 1118 1117 1116 1116 1116 1116 1116 1116 1116 1115 1114 1114 1113 1112 1111 1110 1107 1103 1099 1091 1075 1057 1052 1050 1046 1046 1046 1048 1051 1051 1051 1050 1050 1050 1050 1050 1052 1053 1054 1058 1060 1061 1062 1066 1071 1077 1081 1083 1091 1100 1105 1109 1111 1112 1112 1113 1113 1113 1113 1113 1112 1111 1111 1110 1109 1109 1109 1108 1108 1108 1108 1108 1109 1109 1109 1108 1108 1108 1108 1107 1106 1106 1105 1103 1101 1099 1098 1097 1096 1095 1094 1092 1090 1090 1089 1089 1088 1088 1088 1088 1088 1089 1089 1089 1090 1091 1094 1095 1096 1098 1099 1100 1100 1102 1103 1104 1106 1107 1107 1107 1107 1107 1107 1107 1106 1106 1105 1105 1105 1105 1105 1105 1105 1105 1104 1104 1104 1104 1104 1104 1104 1103 1103 1102 1102 1101 1100 1100 1099 1097 1096 1094 1093 1093 1091 1091 1091 1092 1092 1092 1093 1093 1093 1093 1093 1093 1093 1093 1093 1093 1094 1095 1095 1095 1096 1098 1098 1099 1100 1101 1102 1103 1103 1104 1104 1104 1104 1104 1104 1104 1104 1104 1104 1103 1103 1102 1102 1102 1102 1101 1101 1101 1101 1101 1101 1101 1101 1101 1100 1100 1100 1100 1100 1099 1098 1097 1096 1096 1095 1095 1095 1095 1093 1093 1093 1093 1094 1094 1093 1093 1093 1093 1093 1093 1093 1094 1094 1094 1094 1094 1095 1095 1096 1097 1098 1099 1099 1099 1099 1100 1100 1100 1099 1099 1099 1099 1099 1098 1098 1098 1098 1098 1098 1097 1097 1097 1097 1097 1097 1097 1097 1097 1097 1097 1096 1096 1096 1095 1095 1095 1095 1095 1094 1094 1094 1094 1094 1094 1093 1093 1092 1092 1092 1092 1094 1094 1094 1094 1094 1093 1093 1093 1093 1093 1094 1094 1094 1094 1094 1094 1094 1095 1095 1095 1096 1096 1096 1096 1096 1095 1095 1095 1095 1095 1095 1095 1094 1094 1094 1094 1093 1093 1093 1094 1094 1094 1094 1095 1097 1102 1105 1111 0 0 0 0 0 1702 1707 1710 1713 1714 1715 1715 1716 1717 1717 1718 1718 1718 1718 1718 1718 1719 1719 1719 1720 1722 1724 1729 1734 1739 1746 1753 1760 1766 1770 1773 1776 1778 1783 1787 1790 1792 1794 1796 1799 1800 1801 1802 1802 1803 1803 1803 1804 1805 1805 1805 1805 1805 1805 1805 1805 1805 1805 1804 1804 1804 1804 1804 1804 1803 1802 1802 1801 1801 1800 1800 1798 1798 1797 1797 1796 1796 1796 1795 1795 1795 1795 1795 1795 1795 1795 1795 1795 1795 1795 1795 1796 1796 1796 1796 1797 1797 1798 1799 1800 1801 1801 1802 1802 1804 1805 1806 1808 1809 1811 1814 1817 1817 1820 1824 1836 1854 1868 1881 1913 1945 1964 1973 1978 1978 1978 1978 1975 1974 1973 1972 1970 1968 1967 1966 1963 1963 1962 1961 1959 1958 1958 1957 1956 1955 1954 1953 1952 1950 1948 1946 1943 1940 1937 1934 1930 1926 1924 1920 1916 1911 1907 1904 1899 1893 1891 1890 1890 1890 1892 1897 1901 1906 1909 1915 1919 1923 1923 1923 1923 1923 1914 1905 0 0 0 0 0 0 0 0 0 0 0 0 0 0 0 0 0 0 0 0 0 0 0 0 0 0 0 0 0 0 0 0 0 0 0 0 0 0 0 0
1853 1853 1867 1876 1884 1884 1894 1912 1930 1952 1971 1974 1974 1974 1969 1967 1955 1945 1934 0 0 0 0 0 0 1149 1136 1133 1133 1132 1132 1131 1130 1130 1130 1129 1129 1129 1129 1128 1128 1129 1129 1129 1129 1129 1129 1129 1129 1129 1129 1129 1129 1129 1129 1128 1127 1126 1125 1124 1124 1123 1122 1122 1121 1119 1118 1118 1117 1115 1115 1115 1115 1115 1115 1115 1115 1115 1113 1113 1113 1113 1111 1110 1110 1108 1105 1100 1096 1091 1075 1061 1059 1059 1057 1056 1056 1056 1055 1055 1056 1057 1058 1058 1058 1058 1058 1058 1058 1062 1065 1066 1069 1070 1075 1080 1086 1088 1097 1101 1105 1109 1112 1112 1113 1113 1113 1113 1113 1112 1112 1111 1110 1109 1109 1108 1108 1107 1107 1107 1107 1107 1107 1107 1108 1108 1107 1107 1107 1106 1106 1106 1105 1104 1101 1100 1100 1099 1097 1097 1096 1096 1094 1094 1093 1093 1092 1091 1090 1090 1090 1091 1091 1092 1094 1096 1097 1098 1099 1099 1100 1101 1103 1104 1105 1106 1108 1108 1108 1108 1107 1107 1107 1107 1106 1105 1105 1105 1105 1104 1104 1104 1104 1104 1104 1104 1104 1104 1104 1104 1103 1103 1103 1102 1102 1101 1100 1100 1100 1098 1097 1096 1094 1094 1094 1094 1094 1094 1094 1094 1094 1094 1094 1095 1095 1095 1095 1094 1094 1094 1095 1097 1097 1097 1098 1098 1100 1101 1101 1102 1103 1104 1104 1104 1104 1104 1104 1104 1104 1104 1104 1104 1104 1103 1103 1103 1102 1102 1102 1101 1101 1101 1101 1101 1101 1101 1101 1101 1101 1101 1101 1101 1100 1100 1098 1098 1098 1098 1097 1096 1096 1095 1095 1095 1095 1096 1096 1096 1096 1096 1096 1095 1095 1095 1095 1095 1096 1096 1096 1096 1097 1097 1097 1098 1100 1100 1100 1100 1100 1100 1100 1100 1100 1100 1099 1099 1099 1099 1099 1099 1098 1098 1098 1098 1097 1097 1097 1097 1097 1097 1097 1097 1097 1097 1097 1096 1096 1096 1096 1095 1095 1095 1094 1094 1094 1095 1095 1095 1095 1094 1094 1094 1094 1094 1094 1094 1094 1094 1095 1095 1095 1095 1095 1095 1095 1096 1096 1096 1096 1096 1096 1096 1096 1097 1097 1097 1097 1097 1097 1097 1096 1096 1096 1096 1096 1096 1095 1095 1095 1095 1095 1095 1095 1094 1095 1095 1095 1096 1098 1103 1105 1112 0 0 0 0 0 1702 1707 1711 1714 1715 1715 1715 1717 1717 1717 1718 1718 1718 1718 1718 1718 1718 1718 1718 1719 1721 1723 1728 1734 1739 1745 1752 1759 1765 1769 1772 1773 1777 1782 1787 1789 1790 1793 1796 1798 1799 1800 1800 1801 1802 1802 1803 1803 1804 1804 1804 1804 1804 1804 1804 1804 1804 1804 1804 1804 1804 1804 1804 1803 1803 1802 1801 1801 1800 1800 1798 1798 1798 1797 1797 1796 1795 1795 1795 1795 1795 1795 1795 1794 1794 1794 1794 1794 1795 1795 1795 1796 1796 1796 1797 1797 1798 1799 1800 1801 1802 1802 1803 1804 1804 1807 1808 1810 1811 1813 1816 1817 1817 1821 1829 1844 1858 1868 1885 1920 1952 1968 1975 1981 1981 1981 1978 1975 1974 1974 1972 1970 1968 1967 1966 1964 1964 1963 1961 1960 1958 1958 1958 1956 1955 1954 1953 1952 1950 1948 1945 1943 1940 1937 1934 1930 1926 1922 1920 1916 1911 1907 1904 1899 1896 1893 1892 1892 1892 1893 1900 1906 1908 1913 1915 1919 1922 1922 1922 1922 1921 1914 1905 0 0 0 0 0 0 0 0 0 0 0 0 0 0 0 0 0 0 0 0 0 0 0 0 0 0 0 0 0 0 0 0 0 0 0 0 0 0 0 0
1865 1865 1867 1876 1884 1884 1894 1912 1936 1969 1986 1989 1989 1989 1987 1986 1975 1975 1956 0 0 0 0 0 0 1152 1141 1134 1134 1134 1134 1133 1131 1131 1131 1130 1130 1130 1130 1129 1129 1129 1129 1129 1129 1130 1130 1130 1130 1130 1130 1130 1130 1130 1130 1129 1128 1126 1125 1124 1123 1122 1122 1119 1118 1117 1115 1114 1112 1111 1111 1111 1111 1111 1111 1111 1111 1111 1111 1110 1109 1109 1109 1108 1108 1107 1104 1098 1095 1091 1077 1071 1070 1068 1063 1059 1059 1059 1059 1061 1064 1065 1066 1066 1066 1066 1065 1065 1066 1066 1068 1069 1072 1076 1081 1088 1092 1098 1101 1102 1106 1110 1112 1112 1112 1113 1113 1112 1112 1111 1110 1110 1109 1108 1107 1106 1106 1106 1105 1105 1105 1106 1106 1107 1107 1107 1106 1106 1106 1106 1105 1105 1105 1104 1102 1102 1100 1100 1100 1100 1100 1100 1098 1098 1097 1097 1096 1095 1094 1094 1094 1094 1095 1095 1096 1096 1098 1099 1099 1102 1103 1104 1105 1107 1107 1108 1108 1108 1108 1108 1107 1107 1107 1106 1105 1105 1105 1105 1104 1103 1103 1103 1103 1103 1103 1103 1103 1103 1103 1102 1102 1102 1102 1102 1101 1101 1100 1100 1100 1098 1098 1097 1097 1097 1097 1097 1097 1097 1096 1096 1096 1096 1096 1096 1096 1096 1096 1096 1097 1097 1098 1099 1099 1100 1100 1102 1102 1102 1102 1104 1104 1104 1104 1105 1105 1105 1105 1105 1105 1104 1104 1104 1104 1104 1103 1103 1102 1102 1102 1102 1102 1101 1101 1101 1101 1101 1101 1101 1101 1101 1101 1101 1101 1101 1101 1100 1100 1100 1100 1099 1099 1099 1098 1098 1098 1099 1099 1099 1099 1099 1099 1098 1098 1097 1097 1097 1097 1098 1098 1098 1099 1099 1099 1100 1101 1101 1101 1101 1101 1101 1101 1101 1101 1100 1100 1099 1099 1099 1099 1099 1098 1098 1098 1098 1098 1097 1097 1097 1097 1097 1097 1097 1097 1097 1097 1096 1096 1096 1096 1096 1096 1096 1095 1095 1095 1095 1095 1095 1095 1096 1096 1096 1096 1096 1096 1096 1096 1096 1097 1097 1097 1097 1097 1097 1097 1097 1097 1097 1097 1098 1098 1098 1098 1098 1098 1098 1098 1098 1098 1098 1098 1098 1097 1097 1097 1097 1097 1096 1096 1096 1096 1096 1096 1096 1095 1095 1095 1097 1101 1103 1106 1113 0 0 0 0 0 1696 1707 1711 1714 1717 1717 1717 1717 1717 1718 1718 1718 1718 1718 1718 1717 1718 1718 1718 1718 1719 1720 1725 1733 1739 1744 1750 1757 1763 1766 1769 1771 1775 1782 1785 1787 1789 1792 1794 1798 1799 1799 1800 1800 1801 1802 1802 1803 1803 1803 1803 1803 1803 1803 1803 1803 1803 1803 1803 1803 1803 1803 1803 1803 1803 1802 1800 1800 1800 1799 1798 1798 1797 1797 1796 1796 1795 1795 1795 1795 1795 1794 1794 1794 1794 1794 1794 1794 1795 1795 1795 1796 1796 1796 1797 1797 1798 1799 1800 1801 1803 1803 1804 1805 1806 1807 1809 1811 1812 1814 1817 1817 1819 1824 1836 1848 1859 1870 1893 1932 1960 1973 1977 1981 1981 1981 1978 1975 1974 1974 1972 1971 1969 1968 1967 1965 1964 1964 1962 1961 1960 1959 1958 1957 1956 1954 1953 1951 1949 1948 1945 1943 1940 1937 1933 1930 1926 1922 1920 1916 1911 1907 1905 1901 1897 1896 1893 1893 1893 1896 1901 1906 1910 1913 1915 1919 1922 1922 1922 1922 1917 1911 1904 1870 0 0 0 0 0 0 0 0 0 0 0 0 0 0 0 0 0 0 0 0 0 0 0 0 0 0 0 0 0 0 0 0 0 0 0 0 0 0 0
1880 1880 1881 1884 1884 1887 1894 1912 1937 1969 1991 1999 1999 1999 1997 1996 1992 1991 1976 0 0 0 0 0 0 1159 1144 1137 1136 1136 1136 1135 1133 1132 1131 1131 1131 1130 1130 1130 1130 1130 1130 1131 1131 1131 1131 1131 1131 1131 1131 1131 1131 1131 1131 1130 1129 1128 1127 1124 1123 1120 1119 1119 1115 1114 1110 1107 1104 1103 1103 1103 1104 1104 1104 1103 1103 1103 1102 1102 1102 1102 1102 1103 1103 1102 1101 1095 1095 1091 1077 1075 1074 1072 1071 1067 1066 1066 1064 1064 1066 1066 1069 1071 1071 1072 1072 1072 1073 1073 1074 1074 1075 1081 1085 1091 1093 1098 1101 1103 1107 1110 1112 1112 1112 1111 1111 1110 1110 1109 1108 1107 1107 1106 1106 1105 1104 1103 1103 1103 1103 1103 1103 1103 1103 1103 1103 1103 1103 1104 1104 1104 1104 1104 1102 1102 1102 1103 1103 1103 1103 1103 1103 1103 1103 1103 1102 1102 1099 1099 1099 1100 1100 1100 1100 1100 1100 1101 1101 1103 1105 1105 1107 1108 1108 1108 1109 1109 1109 1108 1107 1107 1106 1105 1104 1104 1103 1103 1102 1102 1102 1102 1102 1102 1102 1101 1101 1101 1102 1102 1102 1101 1101 1101 1101 1101 1101 1101 1101 1100 1100 1099 1099 1099 1100 1100 1100 1100 1099 1099 1099 1099 1099 1099 1098 1098 1098 1098 1099 1100 1100 1100 1100 1101 1101 1104 1104 1105 1105 1106 1106 1106 1106 1105 1105 1105 1105 1105 1105 1105 1105 1104 1104 1104 1103 1103 1102 1102 1102 1102 1102 1101 1101 1101 1101 1101 1101 1101 1101 1101 1101 1101 1101 1101 1101 1101 1101 1101 1101 1101 1102 1102 1102 1102 1101 1101 1101 1101 1101 1100 1100 1100 1100 1100 1099 1099 1099 1099 1100 1100 1101 1101 1101 1102 1103 1103 1103 1103 1103 1103 1102 1102 1101 1101 1100 1100 1099 1099 1099 1099 1099 1098 1098 1098 1098 1098 1097 1097 1097 1097 1097 1097 1097 1097 1097 1097 1097 1097 1096 1096 1096 1096 1096 1096 1096 1096 1096 1097 1097 1097 1097 1098 1098 1098 1098 1098 1098 1098 1098 1099 1099 1099 1099 1098 1098 1098 1099 1099 1099 1099 1100 1101 1101 1101 1101 1100 1099 1099 1099 1099 1099 1099 1099 1098 1098 1098 1098 1098 1097 1097 1097 1097 1097 1097 1097 1097 1099 1099 1101 1103 1106 1113 0 0 0 0 0 1696 1711 1712 1716 1718 1718 1718 1718 1718 1718 1718 1718 1717 1717 1717 1717 1717 1717 1717 1717 1718 1720 1724 1730 1737 1742 1746 1752 1759 1765 1767 1768 1773 1778 1783 1785 1788 1791 1794 1796 1798 1798 1799 1799 1799 1800 1801 1801 1801 1802 1802 1802 1802 1802 1803 1803 1803 1803 1803 1802 1802 1802 1802 1802 1802 1801 1800 1800 1799 1798 1798 1797 1797 1796 1795 1795 1795 1795 1794 1794 1794 1794 1794 1794 1794 1794 1794 1794 1795 1795 1795 1795 1796 1796 1797 1798 1798 1800 1801 1802 1803 1804 1805 1806 1807 1809 1812 1813 1815 1816 1817 1819 1822 1830 1842 1848 1860 1873 1904 1943 1965 1973 1979 1981 1981 1981 1978 1975 1975 1974 1973 1972 1971 1969 1968 1966 1965 1964 1963 1962 1960 1959 1959 1957 1956 1954 1953 1951 1949 1947 1945 1942 1940 1937 1933 1930 1925 1922 1920 1916 1913 1908 1905 1901 1900 1899 1896 1896 1896 1901 1904 1907 1910 1913 1915 1919 1920 1921 1921 1921 1916 1911 1896 1870 0 0 0 0 0 0 0 0 0 0 0 0 0 0 0 0 0 0 0 0 0 0 0 0 0 0 0 0 0 0 0 0 0 0 0 0 0 0 0
1890 1890 1891 1891 1892 1895 1899 1914 1938 1969 1991 2001 2001 2001 1999 1999 1997 1993 1990 0 0 0 0 0 0 1170 1148 1137 1137 1137 1137 1137 1134 1132 1131 1131 1131 1131 1131 1131 1131 1131 1131 1132 1132 1132 1132 1132 1132 1132 1132 1132 1132 1132 1131 1131 1129 1128 1127 1123 1121 1116 1115 1113 1112 1111 1106 1100 1099 1099 1099 1099 1100 1100 1100 1099 1098 1097 1096 1096 1095 1094 1094 1093 1093 1092 1092 1092 1091 1089 1081 1078 1078 1077 1077 1073 1073 1073 1076 1078 1078 1081 1082 1083 1085 1085 1085 1083 1080 1080 1080 1081 1082 1085 1091 1094 1096 1100 1103 1104 1108 1110 1112 1112 1112 1111 1111 1109 1109 1108 1106 1104 1103 1103 1103 1102 1101 1100 1100 1100 1100 1101 1101 1101 1101 1101 1102 1102 1102 1102 1102 1104 1104 1104 1104 1104 1105 1105 1106 1106 1106 1106 1106 1107 1107 1107 1107 1107 1106 1105 1104 1104 1104 1104 1104 1105 1105 1105 1105 1106 1107 1107 1107 1108 1109 1109 1109 1109 1109 1108 1106 1106 1105 1103 1103 1102 1102 1101 1101 1101 1101 1100 1100 1100 1100 1100 1100 1100 1100 1100 1100 1100 1100 1100 1100 1100 1100 1100 1101 1101 1102 1102 1103 1103 1103 1103 1103 1103 1103 1103 1103 1103 1102 1102 1101 1101 1101 1101 1102 1103 1103 1103 1104 1104 1105 1106 1107 1107 1107 1107 1107 1107 1107 1107 1107 1107 1107 1106 1106 1106 1105 1105 1104 1104 1103 1103 1102 1102 1102 1101 1101 1101 1101 1100 1100 1100 1101 1101 1101 1101 1101 1101 1101 1102 1102 1103 1103 1103 1103 1103 1103 1104 1104 1103 1103 1103 1103 1103 1103 1102 1102 1102 1102 1102 1102 1102 1102 1102 1103 1103 1103 1104 1104 1104 1105 1105 1105 1105 1104 1104 1103 1102 1102 1101 1101 1100 1100 1099 1099 1099 1099 1098 1098 1098 1098 1098 1098 1098 1098 1098 1098 1098 1098 1098 1098 1098 1097 1097 1097 1097 1097 1097 1098 1098 1098 1098 1098 1099 1099 1099 1100 1100 1100 1100 1100 1100 1100 1100 1100 1100 1101 1101 1101 1100 1100 1100 1100 1101 1101 1101 1101 1101 1102 1102 1102 1101 1101 1100 1100 1100 1100 1100 1100 1099 1099 1099 1099 1099 1098 1098 1099 1099 1099 1099 1099 1099 1103 1103 1103 1106 1106 1116 0 0 0 0 0 1696 1712 1715 1719 1719 1719 1718 1718 1718 1718 1718 1718 1717 1717 1716 1716 1716 1716 1717 1717 1718 1720 1723 1728 1733 1739 1743 1748 1754 1761 1764 1766 1769 1775 1781 1783 1786 1789 1793 1796 1796 1797 1797 1798 1799 1799 1800 1800 1801 1801 1801 1801 1801 1802 1802 1802 1802 1802 1802 1802 1802 1802 1801 1801 1800 1800 1799 1799 1798 1797 1797 1796 1796 1796 1795 1795 1794 1794 1794 1794 1794 1794 1794 1794 1794 1794 1794 1794 1795 1795 1795 1795 1796 1796 1797 1798 1799 1800 1801 1802 1803 1804 1805 1807 1809 1812 1814 1816 1817 1817 1818 1823 1828 1836 1844 1850 1863 1883 1915 1956 1969 1974 1979 1981 1981 1981 1978 1976 1975 1975 1974 1972 1971 1969 1968 1966 1965 1964 1964 1963 1961 1960 1959 1958 1957 1955 1953 1951 1949 1947 1944 1942 1939 1936 1933 1930 1926 1922 1920 1916 1913 1908 1905 1902 1900 1900 1899 1899 1899 1903 1907 1908 1910 1913 1915 1916 1917 1917 1917 1916 1916 1910 1896 1871 0 0 0 0 0 0 0 0 0 0 0 0 0 0 0 0 0 0 0 0 0 0 0 0 0 0 0 0 0 0 0 0 0 0 0 0 0 0 0
1890 1890 1893 1897 1897 1899 1904 1923 1943 1973 1991 2001 2003 2003 2001 2000 2000 1996 1995 1986 0 0 0 0 0 0 1153 1139 1139 1138 1138 1137 1135 1134 1133 1133 1132 1132 1132 1132 1132 1132 1132 1132 1132 1133 1133 1133 1133 1133 1133 1133 1132 1132 1132 1131 1129 1128 1127 1123 1119 1115 1108 1103 1103 1103 1103 1088 1084 1084 1084 1086 1087 1087 1087 1087 1087 1091 1092 1092 1092 1089 1087 1086 1085 1083 1083 1083 1087 1092 1092 1092 1092 1092 1085 1085 1085 1087 1088 1088 1090 1094 1096 1099 1101 1101 1101 1101 1098 1092 1091 1091 1091 1097 1101 1103 1103 1103 1105 1105 1109 1110 1110 1110 1109 1109 1108 1108 1108 1107 1104 1102 1101 1100 1099 1098 1095 1095 1095 1095 1097 1097 1097 1098 1098 1099 1099 1099 1100 1101 1102 1103 1104 1104 1105 1106 1106 1107 1108 1109 1110 1110 1110 1110 1110 1110 1111 1111 1111 1109 1109 1109 1109 1109 1109 1107 1107 1107 1108 1111 1111 1111 1111 1110 1110 1110 1110 1109 1108 1108 1106 1105 1103 1102 1102 1101 1100 1100 1099 1099 1099 1099 1099 1098 1098 1097 1097 1097 1098 1098 1099 1099 1099 1099 1099 1099 1100 1100 1101 1102 1102 1104 1105 1106 1106 1106 1105 1105 1105 1106 1106 1106 1106 1106 1106 1105 1105 1104 1104 1104 1107 1107 1107 1107 1107 1107 1107 1108 1108 1108 1108 1108 1108 1108 1108 1108 1108 1106 1106 1106 1105 1105 1104 1103 1103 1102 1102 1101 1101 1101 1101 1100 1100 1100 1100 1100 1100 1101 1101 1101 1101 1102 1102 1102 1103 1103 1103 1104 1104 1104 1105 1105 1105 1105 1105 1105 1105 1105 1105 1104 1104 1104 1104 1104 1104 1104 1104 1104 1105 1105 1106 1106 1106 1106 1106 1106 1106 1105 1105 1105 1104 1103 1103 1101 1101 1101 1100 1099 1099 1099 1099 1099 1098 1098 1098 1098 1098 1098 1098 1098 1098 1098 1098 1098 1098 1098 1098 1098 1098 1098 1098 1098 1098 1099 1099 1099 1100 1100 1101 1101 1102 1102 1102 1102 1102 1102 1102 1102 1102 1102 1102 1102 1102 1102 1101 1101 1101 1102 1102 1102 1102 1102 1102 1102 1102 1102 1101 1101 1101 1101 1101 1100 1100 1100 1100 1100 1099 1099 1099 1099 1099 1100 1100 1101 1102 1102 1103 1104 1107 1108 1112 1117 0 0 0 0 0 1700 1717 1719 1719 1719 1719 1718 1718 1718 1718 1718 1718 1717 1717 1716 1716 1716 1716 1717 1717 1718 1719 1723 1727 1732 1735 1739 1745 1750 1758 1762 1765 1767 1772 1779 1783 1784 1787 1791 1794 1795 1795 1796 1797 1798 1798 1799 1800 1800 1800 1800 1801 1801 1801 1801 1801 1801 1801 1801 1801 1801 1801 1800 1800 1800 1799 1798 1798 1797 1797 1796 1796 1795 1795 1795 1794 1794 1794 1794 1794 1794 1794 1794 1794 1794 1794 1794 1794 1794 1794 1795 1796 1796 1796 1797 1798 1799 1800 1801 1803 1804 1805 1807 1809 1811 1813 1814 1816 1817 1818 1820 1826 1832 1838 1846 1854 1878 1892 1923 1959 1970 1975 1982 1982 1982 1981 1979 1977 1976 1975 1974 1973 1971 1969 1968 1968 1966 1965 1964 1963 1962 1961 1959 1958 1957 1955 1953 1951 1949 1947 1944 1942 1939 1936 1932 1930 1926 1922 1920 1916 1913 1908 1905 1902 1902 1902 1902 1902 1902 1906 1907 1909 1912 1913 1915 1915 1915 1914 1911 1909 1909 1908 1896 1880 1862 0 0 0 0 0 0 0 0 0 0 0 0 0 0 0 0 0 0 0 0 0 0 0 0 0 0 0 0 0 0 0 0 0 0 0 0 0 0
1890 1890 1898 1905 1905 1908 1916 1933 1948 1973 1991 2004 2004 2004 2003 2003 2003 2002 1996 1988 0 0 0 0 0 0 1158 1147 1146 1140 1138 1138 1135 1134 1134 1134 1133 1133 1133 1133 1133 1133 1133 1134 1134 1134 1134 1134 1134 1134 1134 1133 1133 1133 1132 1131 1130 1128 1125 1123 1116 1113 1101 1097 1093 1092 1090 1084 1078 1069 1069 1069 1069 1073 1074 1074 1073 1071 1071 1071 1071 1071 1071 1071 1071 1071 1074 1074 1083 1092 1096 1096 1097 1099 1100 1100 1105 1105 1105 1106 1106 1107 1109 1110 1110 1111 1111 1111 1108 1106 1105 1105 1105 1106 1107 1109 1109 1109 1109 1111 1112 1112 1111 1110 1108 1107 1107 1106 1105 1104 1102 1100 1098 1096 1095 1092 1090 1090 1090 1092 1093 1093 1094 1095 1095 1095 1095 1095 1095 1097 1099 1102 1103 1104 1105 1106 1107 1108 1110 1110 1111 1111 1111 1112 1112 1112 1112 1112 1112 1113 1113 1113 1113 1113 1113 1113 1113 1113 1113 1113 1113 1113 1113 1113 1113 1113 1112 1110 1108 1108 1106 1104 1102 1102 1101 1100 1099 1099 1098 1098 1098 1098 1098 1096 1096 1096 1096 1096 1097 1097 1097 1098 1098 1098 1098 1098 1099 1100 1102 1103 1103 1105 1106 1106 1107 1107 1107 1108 1107 1107 1108 1108 1108 1108 1108 1107 1107 1107 1108 1108 1108 1108 1108 1108 1108 1108 1108 1109 1109 1109 1109 1109 1109 1109 1109 1109 1108 1107 1106 1106 1105 1105 1104 1103 1102 1102 1102 1101 1100 1099 1099 1099 1099 1100 1100 1100 1100 1101 1101 1101 1101 1102 1103 1103 1104 1104 1105 1105 1105 1105 1106 1106 1106 1106 1106 1106 1106 1107 1107 1107 1106 1106 1106 1106 1106 1106 1106 1106 1106 1106 1107 1107 1107 1107 1107 1107 1107 1106 1106 1105 1104 1104 1103 1102 1102 1101 1100 1100 1099 1099 1099 1099 1098 1098 1098 1098 1098 1098 1098 1098 1098 1098 1098 1098 1099 1099 1099 1099 1099 1099 1099 1099 1099 1100 1100 1101 1101 1102 1102 1102 1102 1103 1104 1104 1104 1104 1104 1104 1104 1104 1103 1103 1103 1103 1103 1103 1103 1104 1104 1104 1104 1104 1104 1104 1104 1104 1103 1103 1103 1103 1102 1102 1102 1101 1101 1101 1101 1101 1100 1100 1100 1101 1102 1102 1103 1104 1104 1105 1108 1112 1116 1125 0 0 0 0 0 1703 1717 1719 1719 1719 1719 1719 1718 1718 1718 1718 1718 1717 1717 1716 1716 1716 1716 1716 1717 1718 1719 1723 1726 1730 1733 1736 1741 1747 1755 1759 1763 1765 1770 1775 1780 1782 1785 1789 1791 1793 1794 1795 1796 1797 1797 1798 1798 1799 1800 1800 1800 1800 1800 1800 1800 1800 1800 1800 1800 1800 1800 1800 1799 1799 1799 1798 1797 1797 1796 1795 1795 1794 1794 1794 1794 1793 1793 1793 1793 1793 1794 1794 1794 1794 1794 1794 1794 1794 1794 1794 1796 1796 1796 1797 1798 1799 1801 1802 1803 1804 1805 1808 1810 1813 1814 1814 1817 1818 1820 1823 1827 1832 1839 1847 1862 1880 1899 1934 1961 1971 1980 1983 1983 1983 1981 1979 1978 1977 1976 1975 1973 1971 1970 1969 1968 1966 1966 1965 1963 1963 1962 1961 1959 1957 1955 1953 1951 1949 1947 1944 1941 1939 1936 1932 1929 1926 1923 1921 1916 1913 1907 1904 1902 1902 1902 1903 1904 1904 1907 1909 1911 1913 1915 1915 1915 1915 1912 1908 1907 1907 1903 1896 1880 1862 0 0 0 0 0 0 0 0 0 0 0 0 0 0 0 0 0 0 0 0 0 0 0 0 0 0 0 0 0 0 0 0 0 0 0 0 0 0
1889 1889 1899 1912 1918 1922 1932 1945 1961 1973 1991 2005 2005 2006 2008 2008 2008 2008 2008 2006 0 0 0 0 0 0 1169 1159 1147 1142 1139 1138 1136 1136 1135 1135 1134 1134 1134 1134 1134 1134 1134 1135 1135 1135 1135 1135 1135 1135 1135 1134 1134 1134 1133 1131 1130 1128 1125 1120 1115 1105 1098 1086 1077 1072 1069 1066 1060 1054 1051 1051 1051 1054 1057 1057 1057 1056 1055 1055 1055 1059 1060 1060 1060 1060 1063 1067 1079 1091 1097 1099 1105 1110 1112 1113 1112 1112 1113 1113 1114 1114 1116 1118 1118 1118 1118 1118 1114 1114 1114 1114 1114 1113 1113 1113 1114 1114 1115 1115 1115 1113 1113 1110 1108 1107 1105 1102 1100 1097 1096 1096 1095 1092 1089 1086 1086 1086 1087 1088 1089 1089 1089 1090 1090 1090 1090 1090 1090 1093 1098 1101 1103 1104 1105 1106 1107 1110 1112 1113 1114 1114 1114 1115 1115 1115 1116 1116 1116 1116 1116 1116 1116 1116 1116 1116 1116 1116 1116 1116 1116 1116 1116 1115 1115 1115 1114 1110 1108 1108 1106 1103 1101 1099 1098 1097 1096 1096 1096 1095 1095 1095 1095 1096 1096 1096 1095 1095 1094 1094 1094 1096 1097 1098 1098 1098 1099 1100 1103 1105 1106 1107 1107 1108 1109 1109 1110 1110 1110 1110 1110 1110 1110 1110 1110 1110 1110 1111 1111 1111 1110 1110 1110 1110 1110 1110 1110 1110 1111 1111 1111 1110 1109 1109 1109 1109 1108 1107 1107 1106 1106 1105 1103 1102 1102 1101 1100 1100 1100 1099 1099 1099 1099 1099 1100 1100 1100 1101 1101 1101 1102 1102 1103 1104 1105 1106 1106 1107 1107 1108 1108 1108 1108 1108 1108 1108 1108 1108 1108 1108 1108 1108 1108 1108 1107 1107 1108 1108 1108 1108 1108 1108 1108 1108 1108 1108 1107 1107 1107 1106 1105 1104 1103 1102 1102 1101 1100 1100 1099 1099 1099 1099 1099 1099 1099 1099 1099 1098 1098 1098 1098 1098 1098 1099 1099 1099 1099 1099 1100 1100 1100 1100 1101 1101 1101 1102 1103 1103 1103 1103 1104 1104 1106 1106 1106 1105 1105 1105 1105 1105 1105 1105 1105 1104 1104 1105 1105 1105 1105 1105 1105 1105 1105 1105 1105 1105 1104 1104 1104 1103 1103 1103 1103 1103 1102 1102 1102 1102 1102 1102 1102 1102 1103 1103 1103 1104 1104 1105 1108 1112 1116 1127 0 0 0 0 0 1703 1717 1719 1719 1719 1719 1719 1718 1718 1718 1718 1718 1717 1717 1716 1715 1715 1715 1716 1716 1717 1719 1721 1725 1728 1732 1735 1740 1745 1750 1757 1762 1765 1768 1773 1777 1781 1783 1787 1789 1791 1792 1794 1794 1795 1796 1797 1797 1798 1798 1798 1799 1799 1799 1799 1799 1799 1799 1799 1799 1798 1798 1798 1798 1798 1797 1797 1796 1795 1795 1795 1795 1794 1794 1793 1793 1793 1793 1793 1793 1793 1793 1793 1793 1793 1793 1793 1793 1793 1794 1794 1795 1795 1796 1797 1798 1799 1801 1802 1803 1805 1807 1810 1811 1813 1814 1815 1817 1820 1823 1828 1829 1833 1841 1850 1869 1888 1917 1953 1970 1980 1983 1983 1983 1983 1981 1979 1979 1978 1978 1975 1974 1972 1970 1970 1969 1967 1967 1965 1964 1963 1962 1961 1959 1957 1955 1953 1951 1948 1946 1944 1941 1939 1936 1932 1929 1926 1923 1921 1916 1912 1907 1904 1902 1902 1902 1904 1904 1904 1907 1910 1911 1914 1915 1915 1915 1914 1912 1908 1907 1906 1903 1896 1881 1862 0 0 0 0 0 0 0 0 0 0 0 0 0 0 0 0 0 0 0 0 0 0 0 0 0 0 0 0 0 0 0 0 0 0 0 0 0 0
1889 1889 1901 1914 1923 1929 1938 1961 1978 1995 2009 2012 2016 2017 2018 2019 2019 2019 2019 2019 0 0 0 0 0 0 1170 1168 1153 1144 1141 1139 1138 1136 1136 1135 1135 1135 1135 1135 1135 1135 1135 1136 1136 1136 1136 1136 1136 1136 1136 1136 1135 1134 1134 1133 1130 1128 1125 1122 1113 1094 1077 1067 1060 1054 1050 1048 1044 1037 1031 1031 1031 1033 1037 1037 1037 1036 1036 1036 1039 1042 1042 1042 1044 1044 1047 1054 1072 1090 1099 1101 1109 1115 1115 1117 1118 1118 1118 1118 1119 1121 1123 1123 1123 1123 1122 1120 1120 1120 1119 1117 1117 1117 1117 1117 1117 1117 1117 1117 1116 1115 1114 1110 1107 1106 1104 1100 1096 1093 1091 1090 1087 1086 1083 1081 1079 1079 1079 1080 1083 1084 1085 1085 1085 1086 1086 1087 1090 1091 1094 1099 1102 1103 1105 1107 1109 1111 1114 1115 1116 1116 1117 1117 1118 1119 1119 1119 1119 1118 1118 1118 1118 1118 1118 1118 1118 1118 1118 1118 1118 1118 1117 1117 1116 1115 1114 1110 1108 1108 1106 1103 1101 1099 1097 1095 1095 1095 1094 1094 1094 1094 1094 1094 1094 1094 1094 1093 1093 1093 1093 1095 1097 1098 1098 1098 1099 1100 1103 1106 1108 1108 1109 1110 1111 1111 1112 1112 1112 1113 1113 1113 1113 1113 1113 1112 1112 1112 1112 1112 1112 1112 1112 1112 1112 1112 1112 1112 1112 1112 1111 1111 1110 1110 1109 1109 1108 1107 1107 1106 1105 1104 1103 1102 1101 1101 1100 1100 1100 1099 1099 1099 1099 1099 1100 1100 1101 1101 1101 1101 1102 1104 1105 1105 1106 1107 1107 1107 1108 1108 1109 1110 1110 1110 1110 1111 1111 1111 1111 1110 1110 1110 1110 1109 1109 1109 1109 1109 1109 1109 1109 1110 1110 1110 1109 1109 1108 1108 1107 1106 1105 1104 1103 1103 1102 1101 1101 1100 1100 1099 1099 1099 1099 1099 1099 1099 1099 1098 1098 1098 1098 1098 1099 1099 1099 1099 1100 1100 1100 1100 1101 1101 1101 1102 1103 1104 1104 1104 1105 1105 1106 1106 1107 1107 1107 1107 1107 1107 1107 1107 1107 1106 1106 1106 1106 1106 1106 1106 1106 1106 1106 1106 1107 1106 1106 1106 1106 1105 1105 1104 1104 1104 1104 1103 1103 1103 1103 1102 1102 1102 1102 1103 1104 1104 1104 1104 1104 1105 1108 1112 1116 0 0 0 0 0 1693 1703 1717 1717 1719 1719 1719 1719 1718 1718 1718 1718 1718 1717 1717 1716 1715 1715 1715 1715 1715 1716 1717 1720 1722 1725 1728 1733 1738 1743 1747 1754 1761 1765 1768 1771 1775 1780 1782 1784 1787 1789 1791 1791 1793 1794 1795 1796 1797 1797 1798 1798 1798 1798 1798 1798 1798 1798 1798 1798 1798 1798 1798 1798 1797 1797 1796 1796 1796 1795 1794 1794 1793 1793 1793 1793 1793 1793 1793 1793 1793 1793 1793 1793 1793 1792 1792 1792 1792 1793 1793 1794 1794 1795 1796 1797 1798 1800 1801 1802 1804 1806 1808 1810 1812 1813 1815 1816 1817 1822 1828 1830 1830 1834 1843 1857 1884 1900 1923 1956 1973 1985 1985 1985 1983 1982 1981 1979 1979 1979 1979 1976 1974 1972 1971 1970 1969 1968 1967 1966 1965 1963 1963 1961 1959 1957 1956 1953 1951 1948 1946 1943 1941 1938 1936 1932 1930 1926 1923 1921 1916 1912 1907 1904 1903 1903 1903 1904 1904 1906 1908 1910 1912 1914 1915 1915 1915 1914 1912 1908 1906 1903 1903 1897 1882 1862 0 0 0 0 0 0 0 0 0 0 0 0 0 0 0 0 0 0 0 0 0 0 0 0 0 0 0 0 0 0 0 0 0 0 0 0 0 0
1889 1889 1904 1914 1923 1932 1949 1975 1995 2014 2030 2030 2033 2033 2030 2030 2034 2029 2029 2029 2005 0 0 0 0 0 1189 1187 1161 1144 1142 1141 1138 1137 1136 1136 1136 1136 1136 1136 1136 1136 1136 1137 1137 1137 1138 1138 1138 1138 1137 1136 1136 1135 1134 1134 1132 1128 1128 1122 1110 1094 1077 1050 1047 1042 1038 1034 1029 1026 1022 1017 1017 1017 1020 1021 1024 1026 1027 1028 1029 1033 1033 1034 1034 1034 1038 1054 1072 1089 1100 1107 1110 1116 1118 1120 1121 1122 1123 1123 1125 1126 1126 1126 1127 1127 1127 1125 1125 1124 1124 1122 1122 1122 1122 1122 1121 1120 1119 1118 1118 1117 1116 1111 1107 1103 1099 1097 1094 1092 1090 1087 1085 1082 1080 1078 1076 1076 1076 1076 1077 1080 1080 1083 1085 1085 1085 1086 1088 1091 1093 1095 1099 1103 1105 1108 1110 1113 1115 1116 1117 1118 1118 1119 1119 1120 1120 1120 1120 1121 1121 1120 1121 1121 1120 1120 1120 1120 1120 1120 1120 1120 1119 1119 1118 1117 1116 1113 1110 1108 1105 1103 1101 1099 1097 1095 1095 1094 1093 1093 1093 1093 1093 1094 1094 1094 1093 1093 1093 1093 1093 1094 1096 1098 1099 1099 1099 1101 1104 1107 1109 1111 1111 1111 1112 1112 1113 1114 1114 1115 1115 1115 1115 1115 1115 1115 1115 1115 1115 1115 1114 1114 1114 1114 1114 1114 1114 1113 1113 1113 1112 1111 1111 1110 1110 1109 1108 1108 1107 1106 1105 1104 1103 1102 1101 1101 1100 1099 1099 1099 1098 1098 1098 1099 1100 1100 1101 1101 1102 1103 1103 1104 1105 1106 1107 1108 1108 1108 1110 1110 1111 1111 1111 1112 1112 1112 1112 1112 1112 1112 1112 1112 1112 1111 1111 1111 1111 1111 1110 1110 1110 1110 1110 1110 1110 1110 1109 1109 1108 1107 1106 1105 1104 1103 1102 1101 1101 1100 1100 1099 1099 1099 1099 1099 1099 1099 1099 1099 1098 1098 1098 1099 1099 1099 1099 1100 1100 1100 1101 1101 1102 1102 1103 1104 1105 1105 1105 1105 1106 1106 1107 1107 1108 1108 1108 1108 1108 1108 1108 1108 1108 1108 1108 1107 1107 1107 1107 1107 1107 1107 1108 1108 1108 1107 1107 1107 1106 1106 1106 1106 1106 1105 1105 1105 1104 1104 1104 1104 1104 1104 1104 1104 1105 1105 1105 1105 1105 1106 1109 1113 1116 0 0 0 0 0 1703 1705 1717 1717 1719 1719 1719 1719 1719 1718 1718 1718 1718 1717 1717 1716 1715 1715 1715 1715 1715 1715 1716 1719 1721 1722 1724 1729 1734 1741 1745 1751 1758 1764 1766 1770 1774 1779 1782 1784 1786 1787 1788 1790 1792 1793 1794 1795 1796 1796 1796 1797 1797 1797 1797 1797 1798 1798 1798 1797 1797 1797 1797 1797 1796 1796 1795 1795 1795 1794 1794 1793 1793 1793 1793 1793 1793 1793 1792 1792 1792 1792 1792 1792 1792 1792 1792 1792 1792 1792 1793 1794 1794 1795 1796 1797 1798 1800 1801 1802 1805 1807 1809 1811 1813 1814 1816 1816 1818 1825 1832 1833 1833 1841 1852 1874 1896 1911 1936 1968 1978 1985 1985 1985 1983 1982 1981 1980 1980 1979 1979 1977 1975 1974 1972 1971 1969 1968 1967 1966 1965 1964 1963 1961 1960 1958 1956 1953 1951 1948 1946 1943 1941 1938 1936 1932 1929 1926 1923 1921 1916 1912 1908 1904 1903 1903 1903 1904 1906 1909 1909 1911 1912 1914 1915 1915 1915 1914 1912 1910 1907 1904 1903 1896 1882 1862 0 0 0 0 0 0 0 0 0 0 0 0 0 0 0 0 0 0 0 0 0 0 0 0 0 0 0 0 0 0 0 0 0 0 0 0 0 0
1891 1891 1904 1914 1923 1936 1959 1984 1999 2014 2030 2033 2038 2038 2038 2036 2036 2036 2036 2036 2019 0 0 0 0 0 0 1188 1163 1146 1143 1141 1139 1139 1137 1137 1137 1137 1137 1137 1137 1137 1137 1137 1138 1138 1138 1138 1138 1138 1138 1138 1136 1136 1135 1134 1134 1131 1130 1122 1110 1094 1069 1049 1042 1034 1029 1029 1027 1025 1022 1017 1017 1017 1018 1019 1019 1021 1021 1021 1022 1024 1027 1028 1031 1034 1037 1053 1071 1088 1100 1109 1113 1116 1118 1121 1121 1123 1124 1124 1125 1126 1126 1127 1127 1127 1127 1127 1127 1127 1127 1126 1126 1125 1125 1124 1123 1123 1122 1122 1121 1119 1117 1111 1107 1103 1099 1097 1093 1091 1087 1084 1083 1079 1078 1075 1074 1073 1073 1073 1074 1075 1077 1080 1083 1083 1084 1086 1087 1089 1091 1092 1097 1102 1105 1108 1110 1114 1116 1118 1119 1120 1120 1121 1122 1122 1122 1122 1122 1122 1122 1123 1123 1123 1123 1123 1123 1123 1122 1122 1122 1121 1121 1120 1119 1118 1117 1114 1111 1109 1105 1102 1100 1099 1097 1095 1094 1093 1093 1093 1093 1093 1093 1093 1092 1092 1092 1092 1092 1092 1092 1094 1096 1098 1099 1099 1099 1102 1105 1108 1110 1112 1113 1114 1115 1115 1115 1115 1116 1116 1117 1117 1117 1117 1117 1117 1117 1117 1117 1117 1117 1116 1116 1115 1115 1115 1115 1115 1115 1113 1113 1112 1111 1111 1111 1109 1109 1108 1107 1106 1104 1104 1102 1102 1101 1101 1100 1099 1098 1098 1097 1097 1097 1098 1100 1100 1101 1101 1102 1104 1104 1106 1106 1107 1108 1109 1109 1110 1110 1111 1112 1112 1113 1113 1113 1113 1113 1114 1113 1113 1113 1113 1113 1113 1113 1112 1112 1112 1112 1112 1112 1112 1112 1112 1111 1110 1110 1110 1110 1108 1107 1105 1104 1104 1103 1102 1101 1101 1100 1100 1099 1099 1099 1099 1099 1099 1099 1099 1099 1099 1099 1099 1099 1099 1099 1100 1100 1101 1101 1102 1103 1104 1104 1105 1106 1106 1106 1107 1107 1108 1108 1108 1109 1109 1109 1109 1109 1109 1109 1109 1109 1109 1109 1108 1108 1108 1108 1108 1109 1109 1109 1109 1109 1109 1109 1108 1108 1107 1107 1107 1106 1106 1106 1106 1106 1105 1104 1104 1104 1104 1105 1105 1105 1105 1105 1105 1105 1106 1110 1114 1117 0 0 0 0 0 1703 1706 1714 1717 1719 1720 1720 1720 1719 1718 1718 1718 1718 1717 1717 1716 1715 1714 1714 1714 1714 1714 1716 1718 1720 1721 1722 1726 1731 1737 1742 1748 1757 1762 1764 1766 1771 1776 1780 1782 1784 1786 1786 1789 1790 1792 1793 1793 1795 1795 1795 1796 1796 1796 1797 1797 1797 1797 1797 1797 1796 1796 1796 1796 1796 1795 1795 1794 1794 1793 1793 1793 1793 1793 1792 1792 1792 1792 1792 1792 1792 1792 1792 1792 1791 1791 1791 1791 1791 1792 1793 1794 1795 1795 1796 1797 1799 1800 1801 1803 1805 1808 1809 1812 1814 1816 1817 1818 1821 1828 1834 1837 1840 1851 1865 1888 1906 1918 1948 1975 1984 1985 1985 1985 1983 1982 1981 1981 1981 1980 1979 1977 1975 1974 1973 1972 1970 1969 1968 1967 1965 1964 1963 1961 1960 1958 1956 1954 1951 1948 1946 1943 1941 1938 1936 1932 1929 1926 1922 1919 1916 1912 1909 1906 1905 1905 1905 1907 1908 1910 1911 1911 1912 1914 1915 1915 1915 1914 1912 1910 1907 1905 1903 1896 1884 1862 0 0 0 0 0 0 0 0 0 0 0 0 0 0 0 0 0 0 0 0 0 0 0 0 0 0 0 0 0 0 0 0 0 0 0 0 0 0
1891 1891 1904 1911 1918 1936 1960 1984 1999 2014 2030 2033 2039 2039 2039 2037 2037 2037 2037 2037 2024 0 0 0 0 0 0 0 1164 1150 1143 1143 1142 1141 1141 1139 1138 1138 1138 1138 1138 1139 1139 1139 1139 1139 1139 1139 1139 1139 1139 1139 1139 1138 1137 1136 1135 1132 1131 1122 1110 1100 1069 1047 1037 1027 1026 1025 1024 1024 1021 1017 1017 1017 1018 1018 1019 1019 1019 1020 1020 1022 1024 1027 1030 1034 1036 1053 1066 1081 1100 1109 1115 1116 1119 1122 1124 1124 1126 1127 1127 1128 1129 1129 1129 1129 1129 1129 1129 1128 1128 1128 1128 1128 1127 1127 1125 1125 1125 1124 1122 1121 1118 1113 1107 1103 1099 1097 1093 1091 1086 1082 1078 1077 1075 1074 1072 1072 1072 1072 1073 1074 1076 1077 1079 1081 1083 1084 1086 1088 1089 1092 1097 1102 1106 1108 1112 1116 1118 1120 1121 1121 1122 1123 1124 1124 1124 1124 1124 1124 1125 1125 1125 1125 1125 1124 1124 1124 1124 1123 1123 1122 1121 1121 1120 1118 1117 1114 1112 1109 1105 1103 1101 1099 1097 1095 1094 1093 1093 1092 1092 1092 1092 1092 1092 1092 1091 1091 1091 1091 1091 1093 1096 1098 1098 1099 1100 1102 1105 1109 1111 1113 1115 1115 1116 1117 1117 1118 1118 1119 1119 1119 1119 1119 1119 1119 1119 1119 1119 1119 1119 1118 1118 1117 1117 1116 1116 1115 1115 1115 1115 1113 1112 1112 1111 1110 1109 1109 1107 1106 1104 1104 1102 1102 1102 1101 1100 1099 1098 1098 1097 1097 1097 1097 1099 1100 1101 1102 1103 1105 1106 1106 1107 1108 1109 1110 1110 1111 1111 1112 1113 1114 1114 1115 1115 1115 1115 1115 1115 1115 1115 1115 1115 1114 1114 1114 1114 1114 1114 1114 1113 1113 1113 1112 1112 1112 1111 1111 1111 1109 1108 1107 1105 1104 1103 1102 1102 1101 1101 1100 1100 1100 1099 1099 1099 1099 1099 1099 1099 1099 1099 1099 1099 1100 1101 1101 1102 1102 1102 1103 1104 1105 1105 1106 1107 1108 1108 1109 1109 1109 1109 1109 1110 1110 1111 1111 1111 1111 1111 1111 1110 1110 1110 1110 1110 1110 1110 1110 1110 1110 1110 1110 1110 1110 1110 1109 1108 1108 1108 1108 1107 1107 1107 1107 1107 1105 1105 1105 1105 1105 1105 1106 1106 1106 1106 1106 1106 1107 1110 1114 1126 0 0 0 0 0 1697 1707 1714 1717 1719 1720 1720 1720 1719 1719 1719 1718 1718 1717 1717 1716 1715 1714 1713 1713 1713 1713 1714 1717 1718 1721 1722 1723 1727 1734 1739 1746 1754 1760 1762 1764 1770 1775 1779 1781 1783 1785 1786 1788 1789 1790 1791 1792 1794 1794 1795 1795 1795 1796 1796 1796 1796 1796 1796 1796 1795 1795 1795 1795 1795 1794 1794 1793 1793 1793 1792 1792 1792 1792 1792 1792 1792 1792 1791 1791 1791 1791 1791 1791 1791 1791 1791 1791 1791 1791 1793 1794 1795 1795 1796 1798 1799 1800 1802 1804 1806 1808 1811 1813 1815 1817 1819 1819 1823 1832 1836 1843 1846 1856 1871 1892 1914 1929 1959 1978 1986 1986 1986 1985 1983 1982 1982 1981 1981 1980 1979 1978 1976 1974 1974 1972 1971 1970 1968 1967 1966 1965 1963 1961 1960 1958 1956 1954 1951 1948 1946 1943 1941 1938 1935 1932 1929 1925 1922 1919 1917 1913 1909 1906 1906 1906 1906 1907 1909 1910 1912 1912 1912 1914 1915 1915 1915 1913 1912 1910 1907 1905 1903 1895 1884 1862 0 0 0 0 0 0 0 0 0 0 0 0 0 0 0 0 0 0 0 0 0 0 0 0 0 0 0 0 0 0 0 0 0 0 0 0 0 0
1890 1891 1891 1894 1912 1936 1960 1984 1999 2013 2025 2033 2039 2039 2039 2039 2039 2039 2038 2038 2024 0 0 0 0 0 0 0 1172 1156 1147 1144 1143 1142 1141 1139 1139 1139 1139 1139 1139 1139 1139 1140 1140 1140 1140 1141 1141 1140 1140 1140 1140 1139 1137 1136 1135 1133 1131 1122 1118 1108 1077 1047 1031 1022 1022 1022 1021 1021 1021 1018 1017 1017 1017 1018 1018 1018 1018 1019 1020 1022 1024 1027 1030 1033 1036 1046 1061 1077 1098 1109 1115 1117 1121 1124 1125 1126 1128 1128 1129 1130 1131 1132 1132 1132 1131 1131 1131 1131 1131 1131 1130 1130 1129 1129 1128 1127 1126 1126 1123 1122 1118 1113 1107 1103 1100 1096 1093 1090 1086 1082 1078 1077 1075 1074 1072 1071 1071 1071 1072 1074 1075 1076 1078 1079 1082 1083 1085 1088 1089 1092 1097 1102 1106 1110 1115 1117 1119 1121 1122 1123 1123 1125 1125 1125 1125 1126 1126 1126 1126 1126 1126 1126 1126 1126 1126 1126 1125 1124 1124 1124 1123 1122 1120 1119 1117 1115 1113 1110 1106 1103 1101 1099 1098 1096 1094 1093 1092 1092 1092 1092 1092 1092 1092 1091 1091 1090 1090 1090 1091 1093 1094 1096 1097 1098 1100 1103 1106 1109 1111 1113 1115 1116 1118 1118 1119 1119 1119 1120 1120 1121 1121 1121 1120 1120 1120 1120 1120 1120 1120 1119 1119 1118 1118 1118 1118 1117 1117 1116 1115 1114 1113 1112 1111 1110 1110 1109 1107 1107 1104 1104 1102 1102 1102 1101 1100 1099 1098 1098 1097 1097 1097 1097 1099 1100 1101 1102 1104 1105 1106 1107 1107 1108 1109 1111 1112 1112 1113 1114 1114 1115 1116 1116 1116 1116 1117 1116 1116 1116 1116 1116 1116 1116 1116 1116 1116 1116 1115 1115 1115 1115 1114 1114 1113 1113 1112 1112 1111 1109 1109 1107 1107 1105 1103 1103 1102 1102 1101 1101 1101 1100 1100 1100 1100 1100 1100 1100 1100 1100 1100 1100 1100 1101 1101 1102 1103 1103 1104 1104 1106 1106 1107 1108 1108 1108 1109 1110 1110 1110 1110 1111 1111 1112 1112 1112 1112 1112 1112 1111 1111 1111 1111 1111 1111 1111 1111 1111 1111 1111 1111 1111 1110 1111 1111 1110 1110 1110 1110 1109 1108 1108 1108 1107 1107 1106 1106 1106 1106 1106 1106 1106 1107 1107 1107 1108 1110 1110 1111 1117 1127 0 0 0 0 0 1697 1707 1714 1717 1721 1721 1721 1721 1719 1719 1719 1718 1718 1717 1717 1716 1715 1714 1713 1713 1713 1713 1714 1715 1718 1719 1720 1722 1725 1730 1736 1743 1750 1757 1761 1764 1769 1773 1776 1778 1782 1783 1786 1787 1788 1789 1790 1791 1793 1793 1794 1794 1795 1795 1795 1795 1795 1795 1795 1795 1794 1794 1794 1794 1793 1793 1793 1793 1792 1792 1792 1792 1792 1792 1791 1791 1791 1791 1791 1791 1791 1791 1790 1790 1790 1790 1790 1791 1791 1791 1793 1793 1794 1796 1797 1798 1799 1800 1802 1804 1806 1809 1812 1815 1817 1817 1819 1820 1824 1832 1836 1843 1849 1859 1874 1898 1919 1951 1979 1984 1986 1986 1986 1985 1984 1983 1983 1982 1982 1980 1979 1978 1976 1975 1974 1972 1971 1970 1969 1968 1966 1965 1963 1962 1960 1958 1956 1954 1951 1948 1945 1943 1940 1937 1934 1932 1928 1925 1922 1919 1917 1913 1909 1908 1907 1907 1908 1908 1909 1911 1912 1912 1913 1914 1915 1915 1915 1913 1910 1909 1907 1905 1901 1892 1885 1865 0 0 0 0 0 0 1388 1388 1406 1429 1458 0 0 0 0 0 0 0 0 0 0 0 0 0 0 0 0 0 0 0 0 0 0 0 0 0 0 0
1880 1882 1882 1889 1909 1935 1960 1971 1984 1997 2013 2027 2036 2038 2039 2040 2040 2041 2040 2040 2025 1990 0 0 0 0 0 0 0 1157 1147 1145 1143 1142 1141 1140 1140 1140 1140 1141 1141 1141 1141 1141 1141 1141 1142 1142 1142 1142 1142 1141 1141 1140 1138 1137 1136 1135 1132 1129 1126 1114 1080 1047 1027 1017 1017 1017 1021 1021 1021 1018 1018 1017 1017 1017 1018 1018 1018 1018 1020 1022 1024 1027 1030 1033 1036 1037 1055 1076 1096 1107 1115 1120 1123 1126 1128 1129 1130 1130 1131 1132 1133 1133 1133 1133 1134 1134 1133 1133 1133 1133 1132 1132 1131 1131 1130 1129 1128 1127 1124 1123 1121 1115 1108 1105 1100 1097 1093 1090 1086 1082 1078 1077 1075 1074 1071 1071 1071 1071 1072 1073 1074 1076 1077 1079 1081 1082 1085 1088 1089 1092 1097 1101 1107 1111 1115 1118 1120 1122 1123 1124 1125 1125 1126 1127 1127 1127 1127 1127 1127 1127 1127 1127 1127 1127 1127 1126 1126 1126 1125 1125 1124 1123 1122 1120 1118 1116 1115 1111 1106 1103 1101 1100 1098 1096 1094 1093 1092 1092 1092 1092 1092 1092 1092 1091 1091 1090 1090 1090 1091 1093 1094 1096 1096 1098 1100 1103 1106 1109 1111 1113 1116 1117 1118 1119 1120 1121 1121 1121 1121 1121 1121 1121 1121 1122 1121 1121 1121 1121 1121 1120 1120 1119 1119 1118 1118 1118 1117 1117 1116 1115 1114 1112 1112 1111 1111 1109 1108 1107 1106 1105 1104 1104 1103 1101 1100 1099 1098 1098 1097 1097 1097 1097 1099 1100 1101 1102 1104 1106 1107 1108 1108 1110 1110 1112 1113 1114 1114 1115 1116 1116 1117 1117 1117 1118 1118 1117 1117 1117 1117 1117 1117 1117 1117 1117 1117 1117 1116 1116 1116 1115 1115 1115 1115 1114 1112 1112 1111 1111 1109 1109 1107 1107 1106 1104 1104 1103 1102 1102 1101 1101 1100 1100 1100 1100 1100 1100 1101 1101 1101 1101 1102 1103 1103 1103 1105 1105 1105 1106 1107 1108 1108 1109 1110 1110 1110 1111 1111 1112 1112 1112 1112 1113 1113 1113 1114 1113 1113 1113 1113 1112 1112 1112 1112 1112 1112 1112 1112 1112 1112 1112 1112 1111 1111 1111 1111 1111 1110 1110 1110 1109 1109 1108 1108 1108 1107 1107 1107 1107 1107 1108 1108 1108 1109 1109 1110 1110 1111 1117 1129 0 0 0 0 0 1697 1707 1718 1721 1722 1722 1722 1721 1720 1720 1719 1719 1718 1718 1717 1716 1715 1714 1713 1713 1713 1713 1713 1714 1716 1717 1720 1722 1723 1728 1735 1740 1745 1753 1759 1762 1766 1769 1772 1776 1780 1782 1784 1785 1786 1788 1790 1791 1792 1792 1792 1793 1794 1794 1794 1794 1794 1794 1794 1793 1793 1793 1793 1793 1792 1792 1792 1792 1792 1791 1791 1791 1791 1791 1791 1791 1791 1791 1791 1790 1790 1790 1790 1790 1790 1790 1790 1790 1790 1791 1792 1793 1794 1796 1797 1798 1799 1801 1803 1804 1806 1809 1813 1816 1817 1818 1820 1821 1826 1833 1836 1843 1849 1860 1878 1900 1924 1967 1983 1986 1987 1987 1987 1986 1984 1984 1984 1983 1982 1980 1979 1978 1977 1975 1974 1973 1971 1970 1969 1968 1966 1965 1963 1962 1960 1958 1956 1954 1951 1948 1945 1942 1939 1936 1933 1931 1928 1925 1921 1918 1916 1913 1911 1909 1908 1908 1908 1908 1910 1911 1912 1913 1913 1914 1915 1915 1915 1912 1910 1909 1907 1903 1900 1892 1886 1866 0 0 0 0 0 1398 1398 1398 1408 1429 1458 1484 0 0 0 0 0 0 0 0 0 0 0 0 0 0 0 0 0 0 0 0 0 0 0 0 0 0
1873 1873 1874 1883 1908 1931 1952 1959 1969 1983 2005 2020 2023 2033 2040 2040 2041 2041 2041 2041 2025 2000 0 0 0 0 0 0 0 1160 1148 1145 1144 1142 1141 1141 1141 1141 1141 1141 1141 1141 1142 1142 1142 1142 1142 1142 1142 1142 1142 1142 1141 1140 1139 1138 1136 1136 1135 1133 1126 1116 1090 1052 1027 1017 1016 1016 1016 1018 1018 1018 1018 1017 1016 1016 1016 1016 1016 1017 1019 1022 1024 1026 1028 1032 1033 1034 1050 1073 1095 1106 1115 1121 1125 1127 1129 1131 1131 1132 1133 1134 1135 1135 1135 1136 1136 1136 1136 1135 1135 1135 1134 1134 1133 1132 1132 1130 1129 1129 1126 1125 1122 1115 1110 1105 1101 1097 1093 1090 1086 1082 1078 1077 1076 1074 1071 1071 1071 1071 1072 1073 1074 1076 1077 1078 1080 1082 1085 1088 1090 1094 1097 1101 1107 1111 1115 1118 1120 1122 1123 1125 1126 1127 1127 1128 1128 1128 1128 1128 1128 1128 1128 1128 1128 1128 1128 1128 1128 1127 1126 1126 1125 1124 1122 1122 1120 1117 1115 1111 1109 1106 1102 1100 1098 1096 1094 1093 1092 1092 1092 1092 1092 1092 1092 1092 1092 1091 1091 1091 1091 1093 1094 1096 1096 1098 1102 1104 1106 1109 1112 1114 1116 1118 1120 1120 1121 1121 1122 1123 1123 1123 1123 1123 1123 1123 1123 1122 1122 1122 1122 1121 1121 1121 1120 1120 1119 1119 1119 1118 1118 1117 1116 1115 1113 1112 1111 1111 1109 1108 1107 1106 1106 1104 1103 1102 1101 1100 1099 1099 1099 1099 1099 1099 1099 1100 1102 1104 1106 1107 1108 1108 1109 1110 1111 1113 1114 1115 1115 1117 1117 1118 1118 1118 1118 1118 1118 1118 1118 1118 1118 1118 1118 1118 1118 1118 1118 1118 1118 1117 1117 1116 1115 1115 1115 1114 1114 1112 1112 1111 1110 1109 1108 1107 1107 1106 1105 1103 1103 1102 1102 1101 1100 1100 1100 1100 1101 1101 1101 1102 1103 1103 1104 1104 1104 1106 1106 1106 1107 1108 1108 1108 1110 1110 1111 1112 1112 1112 1112 1113 1113 1113 1114 1115 1115 1115 1115 1114 1114 1114 1114 1113 1113 1113 1113 1112 1112 1112 1112 1112 1113 1112 1113 1113 1113 1112 1112 1112 1111 1110 1110 1110 1110 1109 1109 1109 1108 1108 1108 1108 1108 1109 1109 1109 1110 1110 1111 1111 1112 1117 1131 0 0 0 0 0 1697 1708 1720 1724 1724 1724 1722 1721 1720 1720 1720 1719 1718 1718 1717 1716 1715 1714 1713 1713 1713 1713 1713 1713 1713 1716 1719 1719 1722 1723 1730 1736 1741 1750 1756 1761 1763 1766 1770 1774 1778 1780 1782 1784 1786 1787 1789 1790 1790 1791 1792 1792 1793 1793 1793 1793 1793 1793 1793 1793 1792 1792 1792 1791 1791 1791 1791 1791 1790 1790 1790 1790 1790 1790 1790 1790 1790 1790 1789 1789 1789 1789 1789 1789 1789 1789 1789 1789 1790 1791 1792 1793 1794 1796 1797 1799 1800 1802 1804 1805 1807 1811 1814 1816 1818 1819 1823 1824 1830 1833 1836 1843 1853 1866 1886 1908 1932 1971 1987 1990 1990 1990 1989 1988 1986 1986 1985 1984 1982 1981 1979 1978 1978 1976 1975 1973 1972 1971 1969 1968 1967 1965 1963 1962 1960 1958 1956 1954 1951 1948 1944 1942 1939 1936 1933 1930 1927 1925 1921 1918 1916 1913 1912 1910 1909 1908 1908 1908 1910 1911 1912 1913 1914 1915 1915 1915 1914 1912 1910 1909 1907 1903 1898 1892 1886 1868 1835 0 0 0 0 1398 1398 1398 1408 1429 1458 1484 1497 0 0 0 0 0 0 0 0 0 0 0 0 0 0 0 0 0 0 0 0 0 0 0 0 0
1865 1865 1871 1883 1905 1927 1940 1953 1969 1983 2005 2020 2022 2033 2040 2043 2044 2044 2044 2043 2025 2009 0 0 0 0 0 0 0 1167 1151 1147 1144 1142 1142 1142 1142 1142 1142 1143 1143 1143 1143 1143 1143 1143 1143 1143 1143 1143 1143 1143 1142 1141 1140 1138 1137 1136 1136 1134 1129 1122 1095 1053 1027 1017 1016 1016 1016 1019 1019 1019 1018 1017 1015 1014 1014 1014 1016 1017 1019 1021 1024 1026 1028 1032 1032 1034 1050 1073 1091 1103 1112 1122 1125 1128 1130 1131 1133 1134 1135 1135 1136 1136 1137 1137 1137 1137 1137 1137 1137 1137 1137 1136 1135 1134 1133 1133 1132 1130 1130 1126 1123 1116 1110 1105 1102 1097 1093 1090 1086 1082 1081 1079 1077 1074 1072 1071 1071 1071 1072 1073 1074 1076 1077 1078 1080 1082 1085 1088 1091 1094 1097 1101 1107 1112 1115 1118 1120 1122 1124 1125 1127 1128 1128 1128 1129 1129 1129 1130 1130 1130 1130 1130 1130 1130 1129 1129 1129 1128 1128 1127 1127 1126 1124 1122 1120 1118 1115 1111 1110 1107 1105 1101 1098 1096 1095 1093 1092 1092 1092 1092 1092 1092 1092 1092 1092 1092 1092 1092 1093 1094 1095 1096 1096 1098 1102 1105 1107 1110 1112 1114 1117 1119 1120 1122 1122 1122 1123 1124 1124 1124 1124 1124 1124 1124 1124 1124 1123 1123 1123 1123 1122 1122 1122 1121 1121 1120 1120 1119 1119 1118 1117 1116 1114 1113 1112 1111 1111 1109 1108 1106 1106 1105 1104 1103 1101 1101 1100 1100 1100 1100 1101 1101 1101 1101 1102 1105 1107 1108 1108 1109 1111 1112 1113 1113 1115 1116 1117 1118 1118 1119 1119 1119 1119 1119 1120 1120 1120 1120 1120 1120 1119 1119 1119 1119 1119 1119 1119 1118 1117 1117 1117 1116 1115 1115 1115 1113 1112 1112 1111 1109 1108 1108 1108 1106 1106 1104 1104 1103 1102 1101 1101 1101 1101 1101 1102 1102 1102 1103 1104 1105 1105 1106 1106 1107 1108 1108 1108 1109 1110 1110 1111 1112 1113 1113 1114 1114 1115 1115 1115 1115 1115 1116 1116 1116 1116 1115 1115 1115 1115 1115 1114 1114 1114 1113 1113 1113 1113 1114 1114 1114 1114 1114 1114 1113 1113 1113 1112 1112 1112 1111 1111 1110 1110 1110 1109 1109 1109 1109 1109 1110 1110 1110 1111 1111 1111 1111 1112 1117 1132 0 0 0 0 0 1697 1713 1724 1724 1724 1724 1723 1722 1721 1721 1720 1719 1718 1718 1717 1716 1715 1714 1713 1712 1712 1712 1712 1712 1712 1714 1716 1719 1721 1722 1726 1733 1738 1745 1752 1759 1760 1762 1768 1772 1775 1779 1781 1783 1785 1787 1788 1789 1790 1790 1791 1791 1792 1792 1792 1792 1792 1792 1792 1791 1791 1791 1790 1790 1790 1790 1790 1790 1789 1789 1789 1789 1789 1789 1789 1789 1789 1789 1789 1789 1789 1788 1788 1788 1788 1788 1789 1789 1789 1791 1792 1793 1794 1796 1797 1800 1801 1803 1805 1807 1809 1812 1815 1817 1819 1821 1826 1832 1833 1835 1836 1843 1856 1875 1894 1919 1948 1978 1993 1993 1993 1992 1991 1990 1989 1988 1986 1985 1983 1982 1980 1979 1978 1977 1975 1973 1972 1971 1969 1968 1967 1966 1963 1962 1960 1958 1956 1954 1950 1947 1944 1941 1939 1936 1933 1930 1927 1924 1921 1918 1915 1913 1912 1911 1910 1909 1909 1909 1910 1911 1912 1913 1915 1915 1915 1915 1914 1912 1910 1909 1907 1901 1898 1893 1888 1868 1842 0 0 0 0 1398 1398 1398 1408 1415 1416 1425 1435 1435 0 0 0 0 0 0 0 0 0 0 0 0 0 0 0 0 0 0 0 0 0 0 0 0
1862 1862 1871 1883 1905 1925 1940 1953 1969 1983 2005 2020 2022 2033 2040 2046 2050 2050 2050 2043 2036 2026 1991 0 0 0 0 0 0 0 1155 1148 1144 1142 1142 1142 1142 1143 1144 1144 1144 1144 1144 1144 1144 1144 1144 1144 1144 1144 1144 1143 1143 1143 1142 1141 1140 1138 1137 1134 1132 1124 1099 1056 1031 1023 1017 1017 1017 1019 1019 1019 1018 1017 1014 1014 1014 1014 1015 1017 1019 1022 1024 1026 1028 1032 1032 1034 1050 1073 1087 1100 1112 1122 1125 1128 1130 1132 1133 1135 1136 1137 1138 1138 1138 1138 1138 1139 1139 1139 1139 1138 1138 1138 1137 1136 1135 1134 1133 1133 1131 1127 1125 1122 1116 1108 1103 1098 1094 1091 1087 1084 1081 1080 1078 1075 1072 1072 1072 1072 1073 1073 1075 1076 1077 1078 1080 1082 1085 1088 1091 1095 1098 1101 1107 1112 1115 1118 1120 1123 1125 1126 1127 1128 1129 1129 1130 1130 1130 1130 1131 1131 1131 1131 1131 1130 1130 1130 1130 1129 1128 1128 1127 1126 1125 1124 1123 1120 1115 1112 1110 1109 1107 1103 1100 1097 1095 1093 1093 1093 1093 1093 1093 1093 1093 1093 1093 1093 1093 1093 1095 1095 1096 1096 1097 1099 1102 1105 1107 1110 1113 1116 1119 1120 1122 1123 1123 1124 1125 1125 1125 1125 1125 1125 1124 1124 1124 1124 1124 1124 1124 1123 1123 1123 1123 1122 1122 1121 1120 1119 1119 1119 1117 1116 1115 1113 1113 1111 1111 1110 1109 1107 1106 1106 1105 1104 1103 1102 1101 1101 1101 1101 1102 1103 1103 1103 1104 1107 1108 1108 1110 1111 1112 1114 1115 1115 1117 1117 1118 1119 1119 1120 1120 1120 1120 1120 1120 1120 1120 1120 1120 1120 1121 1120 1120 1120 1120 1120 1120 1120 1119 1118 1118 1117 1117 1116 1116 1114 1113 1112 1111 1110 1108 1108 1108 1107 1106 1105 1104 1103 1102 1102 1102 1103 1103 1103 1103 1103 1104 1105 1105 1105 1106 1107 1107 1108 1109 1109 1109 1110 1110 1111 1113 1114 1114 1115 1115 1115 1116 1116 1116 1117 1117 1117 1117 1117 1117 1117 1117 1116 1116 1116 1115 1114 1114 1114 1114 1114 1114 1115 1115 1115 1114 1114 1114 1114 1114 1114 1114 1113 1113 1112 1112 1111 1111 1111 1111 1111 1110 1110 1110 1110 1110 1111 1111 1112 1112 1113 1114 1121 1134 0 0 0 0 0 1697 1714 1724 1724 1724 1724 1723 1722 1722 1721 1721 1719 1719 1718 1717 1716 1715 1713 1712 1711 1711 1711 1711 1712 1712 1713 1715 1716 1720 1721 1724 1730 1737 1742 1748 1754 1758 1761 1766 1772 1774 1777 1779 1781 1784 1784 1787 1787 1789 1789 1790 1791 1791 1791 1791 1791 1791 1791 1791 1791 1790 1790 1790 1790 1789 1789 1789 1789 1789 1789 1789 1789 1789 1789 1788 1788 1788 1788 1788 1788 1788 1788 1788 1788 1788 1788 1788 1788 1789 1790 1792 1793 1795 1796 1798 1800 1802 1804 1807 1809 1812 1815 1817 1818 1821 1826 1829 1834 1836 1837 1838 1846 1860 1885 1905 1928 1961 1983 1997 1997 1997 1993 1993 1992 1992 1991 1989 1987 1985 1983 1981 1980 1979 1977 1975 1974 1972 1971 1969 1968 1967 1966 1963 1962 1959 1957 1955 1953 1950 1947 1944 1941 1938 1936 1933 1930 1927 1924 1921 1917 1915 1913 1912 1911 1910 1910 1910 1910 1910 1911 1913 1914 1915 1915 1915 1915 1913 1912 1910 1909 1906 1900 1898 1893 1889 1868 1842 0 0 0 0 1398 1398 1398 1398 1398 1404 1404 1404 1413 1413 1413 0 0 0 0 0 0 0 0 0 0 0 0 0 0 0 0 0 0 0 0 0 0
1860 1860 1871 1890 1905 1925 1940 1953 1974 1994 2012 2020 2022 2034 2045 2051 2056 2056 2056 2055 2052 2042 2013 0 0 0 0 0 0 0 1162 1150 1144 1144 1144 1144 1144 1145 1145 1145 1145 1145 1145 1145 1145 1145 1145 1145 1145 1145 1145 1144 1144 1143 1143 1141 1141 1140 1138 1136 1133 1125 1099 1061 1037 1027 1020 1019 1019 1019 1019 1019 1017 1016 1014 1014 1014 1014 1015 1017 1019 1022 1024 1026 1029 1032 1034 1039 1053 1072 1084 1097 1111 1122 1126 1128 1131 1133 1135 1136 1137 1137 1138 1139 1139 1139 1139 1140 1140 1140 1140 1139 1139 1139 1139 1138 1137 1136 1136 1135 1134 1130 1128 1126 1122 1116 1106 1099 1095 1092 1089 1085 1083 1080 1078 1075 1073 1073 1073 1073 1074 1074 1075 1076 1077 1078 1080 1083 1086 1089 1092 1095 1098 1101 1107 1112 1115 1118 1121 1123 1126 1127 1129 1129 1130 1131 1131 1132 1132 1132 1132 1132 1132 1132 1131 1131 1131 1131 1131 1131 1130 1130 1128 1128 1127 1125 1124 1121 1117 1113 1110 1110 1108 1106 1101 1098 1096 1094 1094 1094 1094 1094 1095 1095 1095 1095 1095 1095 1095 1095 1096 1096 1096 1097 1098 1100 1102 1104 1108 1110 1115 1118 1119 1121 1122 1123 1125 1125 1125 1125 1125 1125 1125 1125 1126 1125 1125 1125 1125 1125 1125 1125 1124 1124 1124 1123 1123 1123 1122 1121 1120 1120 1119 1117 1116 1113 1113 1112 1112 1111 1109 1109 1108 1107 1107 1105 1104 1103 1103 1103 1103 1103 1103 1103 1105 1105 1107 1109 1111 1111 1111 1112 1113 1114 1116 1117 1118 1119 1120 1120 1120 1121 1121 1121 1121 1122 1122 1122 1122 1122 1122 1122 1121 1121 1121 1121 1121 1121 1121 1120 1119 1119 1119 1118 1118 1118 1116 1115 1114 1113 1112 1111 1110 1109 1109 1108 1107 1106 1106 1104 1103 1103 1103 1103 1103 1104 1104 1104 1104 1105 1106 1106 1107 1108 1108 1109 1109 1110 1110 1111 1112 1113 1114 1114 1115 1116 1116 1117 1117 1117 1118 1118 1118 1118 1118 1118 1118 1117 1117 1117 1117 1117 1117 1117 1116 1116 1116 1116 1116 1116 1116 1116 1116 1116 1116 1116 1116 1115 1115 1115 1114 1113 1113 1113 1112 1112 1112 1111 1111 1111 1111 1111 1111 1111 1112 1112 1113 1114 1114 1122 1134 0 0 0 0 0 1701 1714 1723 1723 1723 1723 1723 1722 1722 1721 1721 1720 1719 1718 1717 1715 1715 1713 1712 1711 1710 1710 1710 1711 1712 1712 1713 1716 1719 1721 1723 1728 1735 1740 1744 1751 1757 1761 1766 1771 1774 1776 1779 1780 1783 1784 1785 1786 1788 1788 1789 1790 1790 1790 1790 1790 1790 1790 1790 1790 1789 1789 1789 1789 1788 1788 1788 1788 1788 1788 1788 1788 1788 1788 1788 1788 1787 1787 1787 1787 1787 1786 1787 1787 1787 1787 1788 1788 1789 1790 1792 1793 1795 1797 1798 1801 1803 1806 1807 1812 1815 1817 1819 1822 1826 1829 1834 1837 1838 1839 1843 1852 1867 1896 1914 1935 1969 1994 1997 1997 1997 1995 1994 1994 1993 1992 1990 1988 1986 1984 1982 1980 1979 1978 1976 1974 1972 1971 1969 1968 1967 1966 1963 1962 1959 1957 1954 1952 1949 1946 1944 1941 1938 1936 1933 1930 1927 1924 1921 1917 1915 1913 1912 1911 1910 1910 1910 1910 1911 1912 1913 1915 1915 1915 1915 1913 1912 1910 1908 1907 1904 1898 1896 1893 1889 1870 1843 0 0 0 0 1398 1398 1398 1398 1398 1404 1404 1404 1413 1413 1413 1391 0 0 0 1310 1305 1305 0 0 0 0 0 0 0 0 0 0 0 0 0 0 0
1859 1859 1871 1891 1905 1924 1941 1966 1986 2002 2012 2020 2030 2041 2051 2058 2058 2061 2064 2064 2064 2060 2036 0 0 0 0 0 0 0 1173 1151 1146 1146 1146 1145 1145 1145 1145 1145 1146 1146 1146 1146 1146 1146 1146 1146 1147 1146 1146 1146 1145 1144 1144 1144 1143 1141 1139 1138 1137 1129 1109 1065 1040 1028 1020 1020 1020 1019 1019 1019 1017 1016 1014 1014 1014 1014 1015 1017 1020 1022 1025 1028 1030 1034 1039 1043 1053 1066 1082 1097 1112 1122 1126 1129 1131 1133 1135 1137 1137 1139 1139 1140 1141 1141 1141 1141 1141 1141 1141 1141 1141 1141 1140 1139 1139 1139 1137 1137 1134 1132 1130 1128 1124 1117 1106 1099 1095 1092 1090 1087 1084 1081 1079 1076 1074 1074 1074 1074 1076 1076 1077 1077 1078 1079 1080 1083 1086 1089 1092 1096 1098 1101 1106 1112 1116 1119 1121 1124 1127 1128 1129 1130 1131 1132 1132 1133 1133 1133 1133 1133 1133 1133 1133 1132 1132 1132 1131 1131 1130 1130 1129 1128 1128 1126 1125 1123 1120 1116 1111 1111 1109 1106 1102 1099 1098 1096 1095 1095 1095 1096 1096 1096 1096 1096 1096 1096 1096 1096 1096 1096 1097 1097 1099 1100 1102 1105 1108 1111 1116 1119 1120 1122 1123 1124 1125 1125 1126 1127 1127 1127 1127 1127 1127 1127 1126 1126 1126 1126 1126 1126 1125 1125 1125 1125 1124 1123 1123 1122 1122 1122 1120 1118 1117 1114 1114 1113 1113 1112 1111 1110 1109 1108 1108 1106 1105 1105 1104 1104 1104 1104 1104 1105 1106 1107 1108 1109 1111 1112 1113 1113 1114 1115 1117 1118 1120 1120 1121 1121 1122 1122 1122 1123 1123 1123 1123 1123 1123 1123 1123 1123 1123 1123 1123 1122 1122 1122 1122 1121 1121 1121 1120 1119 1119 1118 1116 1116 1115 1114 1112 1112 1111 1111 1110 1109 1107 1107 1107 1105 1104 1104 1104 1104 1104 1104 1104 1104 1106 1106 1108 1108 1108 1108 1109 1110 1110 1110 1112 1112 1113 1115 1115 1116 1117 1117 1117 1118 1118 1119 1119 1119 1119 1119 1119 1119 1119 1119 1119 1118 1118 1118 1118 1117 1117 1117 1117 1118 1118 1118 1118 1117 1117 1117 1117 1117 1116 1116 1116 1115 1115 1115 1114 1114 1114 1113 1113 1113 1113 1113 1113 1113 1113 1113 1113 1113 1113 1114 1115 1122 1134 0 0 0 0 0 1701 1714 1723 1723 1723 1722 1722 1722 1722 1721 1721 1720 1719 1718 1717 1715 1714 1713 1711 1710 1710 1709 1709 1709 1710 1711 1712 1713 1717 1719 1721 1727 1734 1740 1743 1746 1754 1760 1766 1771 1774 1776 1777 1779 1781 1783 1783 1785 1786 1788 1788 1788 1789 1789 1789 1789 1789 1789 1788 1788 1788 1788 1788 1788 1788 1788 1788 1787 1787 1788 1788 1788 1788 1788 1787 1787 1787 1787 1786 1786 1786 1786 1786 1786 1786 1787 1787 1788 1789 1790 1792 1793 1796 1798 1799 1801 1804 1807 1809 1813 1815 1818 1820 1824 1829 1833 1837 1838 1842 1843 1850 1859 1874 1903 1921 1948 1987 1998 2001 2001 2001 1998 1997 1995 1994 1992 1990 1989 1986 1984 1982 1981 1979 1978 1976 1975 1972 1971 1969 1968 1967 1965 1963 1961 1959 1956 1953 1951 1949 1946 1944 1941 1938 1936 1933 1930 1927 1924 1921 1917 1915 1913 1911 1910 1910 1910 1910 1910 1912 1913 1914 1915 1915 1915 1915 1913 1912 1910 1907 1904 1901 1897 1894 1892 1888 1870 1843 0 0 0 0 1406 1406 1406 1406 1403 1404 1404 1404 1413 1416 1428 1428 1428 0 1328 1324 1324 1309 1324 0 0 0 0 0 0 0 0 0 0 0 0 0 0
1853 1853 1871 1891 1905 1924 1952 1975 1987 2002 2014 2020 2034 2048 2058 2058 2062 2062 2064 2069 2069 2069 2054 0 0 0 0 0 0 0 1180 1157 1147 1147 1147 1147 1147 1147 1147 1147 1147 1147 1147 1147 1147 1147 1147 1147 1147 1147 1147 1147 1147 1146 1145 1145 1144 1142 1140 1139 1137 1129 1109 1078 1054 1029 1022 1021 1021 1019 1019 1019 1017 1016 1014 1014 1014 1015 1017 1018 1020 1022 1027 1030 1032 1034 1040 1050 1055 1064 1080 1097 1112 1121 1127 1129 1132 1134 1136 1137 1139 1140 1141 1141 1142 1142 1142 1142 1142 1142 1142 1142 1142 1142 1142 1141 1140 1139 1139 1137 1136 1133 1132 1129 1124 1119 1106 1100 1096 1093 1091 1088 1085 1082 1081 1078 1075 1075 1075 1075 1076 1077 1078 1078 1080 1081 1082 1083 1086 1089 1092 1096 1098 1101 1105 1111 1116 1119 1122 1126 1128 1129 1131 1131 1132 1132 1134 1134 1134 1134 1134 1134 1134 1134 1134 1134 1133 1133 1133 1132 1132 1131 1130 1129 1128 1127 1126 1124 1121 1117 1114 1112 1110 1107 1104 1101 1099 1098 1097 1096 1096 1096 1096 1097 1097 1097 1097 1097 1097 1097 1097 1097 1097 1097 1099 1100 1102 1105 1108 1113 1117 1119 1121 1123 1124 1125 1126 1127 1127 1127 1127 1127 1127 1127 1127 1127 1127 1127 1127 1127 1127 1126 1126 1126 1126 1126 1126 1125 1125 1123 1123 1123 1122 1118 1118 1115 1115 1115 1115 1113 1112 1111 1110 1109 1109 1107 1107 1105 1105 1105 1105 1105 1105 1106 1107 1108 1109 1110 1112 1113 1114 1114 1114 1115 1118 1120 1121 1122 1122 1122 1123 1123 1124 1124 1124 1124 1124 1124 1124 1123 1123 1124 1124 1124 1124 1124 1123 1123 1123 1123 1123 1122 1121 1120 1120 1119 1118 1117 1116 1115 1114 1113 1112 1112 1111 1110 1109 1107 1107 1106 1105 1105 1105 1105 1104 1104 1104 1105 1106 1107 1108 1109 1109 1109 1110 1111 1111 1112 1113 1113 1115 1116 1116 1117 1118 1119 1119 1119 1119 1119 1119 1120 1120 1120 1120 1120 1119 1119 1119 1119 1119 1119 1118 1118 1118 1118 1118 1119 1119 1119 1119 1119 1118 1118 1118 1118 1118 1117 1117 1116 1116 1116 1115 1115 1115 1115 1114 1114 1113 1113 1113 1114 1114 1114 1114 1114 1114 1115 1116 1122 1136 0 0 0 0 0 1700 1711 1719 1721 1722 1722 1722 1722 1721 1721 1721 1720 1719 1718 1716 1715 1714 1712 1711 1710 1709 1708 1708 1708 1709 1710 1710 1711 1714 1718 1721 1725 1732 1738 1740 1745 1752 1760 1766 1771 1773 1776 1777 1778 1780 1782 1783 1784 1785 1786 1787 1788 1788 1788 1788 1788 1788 1788 1788 1787 1787 1787 1787 1787 1787 1787 1787 1787 1787 1787 1786 1786 1786 1786 1786 1786 1786 1786 1786 1786 1785 1785 1785 1785 1786 1786 1787 1788 1789 1790 1792 1793 1796 1798 1801 1803 1805 1808 1811 1813 1816 1821 1824 1827 1830 1837 1842 1844 1847 1849 1858 1871 1885 1908 1929 1974 1998 1999 2004 2004 2004 2003 2000 1996 1995 1993 1991 1989 1986 1984 1983 1981 1980 1978 1977 1975 1973 1971 1969 1968 1967 1965 1963 1961 1959 1956 1953 1951 1948 1946 1944 1941 1937 1935 1933 1929 1926 1924 1921 1918 1915 1913 1911 1910 1910 1910 1910 1911 1912 1913 1915 1916 1916 1916 1915 1913 1912 1910 1907 1902 1897 1894 1891 1891 1888 1870 1843 0 0 0 0 1414 1414 1414 1438 1438 1440 1438 1436 1436 1443 1436 1433 1431 0 1388 1359 1344 1338 1338 0 0 0 0 0 0 0 0 0 0 0 0 0 0
1822 1822 1870 1891 1900 1924 1952 1975 1987 2002 2014 2020 2034 2051 2062 2062 2063 2064 2064 2069 2069 2069 2062 0 0 0 0 0 0 0 1183 1159 1149 1149 1149 1149 1149 1149 1149 1148 1148 1147 1147 1147 1148 1148 1148 1148 1148 1148 1148 1148 1148 1148 1147 1146 1145 1144 1141 1140 1137 1135 1113 1088 1059 1038 1026 1023 1023 1020 1020 1020 1017 1016 1016 1016 1016 1016 1017 1020 1021 1024 1028 1032 1034 1037 1042 1051 1056 1061 1080 1096 1111 1120 1127 1129 1133 1135 1137 1138 1139 1141 1142 1142 1143 1143 1143 1143 1144 1144 1144 1144 1144 1144 1144 1142 1141 1141 1140 1139 1137 1134 1132 1129 1125 1119 1106 1100 1096 1093 1091 1088 1086 1083 1082 1080 1078 1078 1078 1078 1079 1079 1080 1081 1081 1082 1083 1085 1087 1090 1093 1096 1099 1101 1104 1111 1116 1119 1123 1126 1128 1130 1132 1133 1134 1134 1134 1135 1135 1135 1135 1135 1135 1135 1135 1134 1134 1134 1134 1133 1133 1132 1132 1131 1130 1129 1128 1125 1123 1119 1117 1114 1111 1109 1106 1104 1102 1100 1099 1099 1098 1097 1097 1097 1098 1098 1099 1099 1099 1099 1098 1098 1098 1099 1099 1101 1102 1105 1108 1114 1119 1120 1122 1123 1125 1126 1127 1128 1128 1128 1128 1129 1128 1128 1128 1128 1128 1128 1128 1128 1128 1128 1127 1127 1127 1127 1126 1126 1126 1125 1125 1124 1124 1122 1119 1117 1117 1116 1116 1115 1114 1112 1111 1110 1109 1108 1108 1107 1106 1106 1106 1106 1106 1106 1107 1109 1110 1111 1113 1114 1114 1115 1115 1117 1119 1120 1121 1122 1122 1123 1123 1124 1124 1124 1124 1124 1124 1124 1124 1124 1125 1125 1125 1125 1125 1125 1125 1125 1124 1124 1124 1124 1123 1122 1121 1121 1119 1118 1117 1115 1115 1114 1113 1113 1112 1111 1110 1108 1107 1107 1107 1107 1107 1106 1106 1106 1106 1106 1108 1109 1109 1110 1110 1110 1110 1112 1112 1113 1114 1115 1116 1117 1118 1118 1119 1119 1120 1120 1120 1121 1121 1121 1121 1121 1121 1121 1121 1120 1120 1120 1120 1120 1120 1120 1120 1120 1120 1120 1120 1120 1120 1120 1120 1120 1120 1119 1119 1118 1118 1117 1117 1117 1117 1116 1116 1116 1115 1115 1115 1115 1115 1116 1116 1116 1114 1114 1114 1115 1117 1125 1142 0 0 0 0 1698 1702 1711 1718 1721 1721 1722 1722 1722 1721 1721 1720 1720 1719 1718 1716 1715 1714 1712 1711 1709 1709 1708 1708 1708 1708 1708 1710 1710 1711 1715 1719 1723 1728 1733 1737 1743 1750 1759 1766 1771 1773 1774 1776 1777 1779 1781 1782 1783 1784 1785 1786 1786 1787 1787 1787 1787 1787 1787 1786 1786 1786 1786 1786 1786 1786 1786 1786 1786 1786 1785 1785 1786 1786 1785 1785 1785 1785 1785 1785 1785 1785 1785 1785 1785 1785 1785 1786 1787 1789 1791 1792 1794 1796 1798 1801 1803 1807 1810 1812 1814 1818 1824 1826 1829 1833 1841 1846 1848 1853 1854 1869 1882 1896 1915 1935 1986 2002 2005 2009 2009 2009 2004 2001 1998 1996 1994 1991 1990 1987 1985 1984 1981 1980 1978 1978 1976 1973 1971 1969 1968 1967 1965 1963 1960 1958 1955 1952 1949 1948 1945 1943 1939 1937 1935 1933 1929 1926 1924 1921 1919 1916 1913 1911 1910 1910 1910 1910 1911 1913 1914 1915 1916 1916 1916 1915 1915 1914 1910 1906 1901 1895 1893 1890 1883 1878 1872 1843 0 0 0 0 1414 1414 1414 1444 1444 1444 1443 1443 1443 1443 1436 1433 1431 1420 0 1359 1344 1338 0 0 0 0 0 0 0 0 0 0 0 0 0 0 0
1821 1822 1822 1853 1876 1924 1952 1975 1987 2002 2014 2018 2034 2051 2063 2063 2063 2062 2062 2062 2064 2064 2064 2040 0 0 0 0 0 0 0 1159 1150 1150 1150 1150 1150 1150 1150 1150 1149 1148 1148 1148 1148 1149 1149 1149 1149 1149 1149 1149 1149 1149 1148 1147 1147 1145 1143 1140 1137 1136 1124 1105 1072 1041 1026 1023 1023 1022 1022 1022 1020 1018 1017 1017 1017 1019 1020 1021 1023 1024 1029 1032 1037 1041 1045 1051 1056 1061 1075 1094 1108 1120 1127 1134 1134 1136 1137 1139 1140 1141 1143 1144 1144 1144 1145 1145 1145 1145 1145 1145 1145 1145 1144 1143 1142 1142 1141 1139 1138 1136 1134 1131 1127 1122 1106 1100 1096 1093 1092 1091 1088 1086 1084 1083 1081 1081 1081 1081 1081 1081 1082 1082 1083 1084 1085 1087 1089 1091 1093 1096 1099 1101 1104 1111 1116 1119 1124 1127 1129 1131 1132 1133 1135 1135 1135 1136 1136 1136 1136 1136 1136 1136 1136 1136 1135 1135 1135 1134 1134 1134 1133 1132 1131 1130 1129 1128 1125 1123 1121 1116 1113 1110 1108 1106 1104 1103 1103 1101 1099 1099 1099 1099 1100 1100 1100 1100 1100 1100 1099 1099 1100 1100 1100 1101 1103 1106 1110 1114 1119 1122 1124 1125 1126 1127 1128 1128 1129 1129 1129 1129 1129 1129 1129 1129 1129 1129 1129 1129 1129 1128 1128 1128 1128 1128 1128 1127 1127 1126 1126 1125 1125 1124 1122 1119 1118 1118 1118 1117 1115 1113 1112 1111 1111 1110 1108 1108 1108 1107 1107 1107 1107 1107 1109 1110 1112 1113 1114 1114 1115 1115 1115 1118 1120 1121 1122 1123 1123 1124 1124 1125 1125 1125 1125 1125 1125 1126 1126 1126 1126 1126 1126 1126 1126 1126 1126 1126 1125 1125 1125 1125 1124 1124 1122 1122 1120 1119 1118 1118 1116 1115 1115 1114 1114 1113 1110 1110 1109 1108 1108 1108 1108 1108 1108 1107 1107 1108 1109 1110 1111 1111 1111 1111 1112 1112 1113 1114 1115 1116 1117 1118 1119 1119 1120 1121 1121 1121 1121 1122 1122 1122 1122 1122 1122 1122 1121 1121 1121 1121 1121 1121 1121 1121 1121 1121 1121 1121 1121 1122 1122 1121 1121 1121 1121 1120 1120 1119 1119 1119 1118 1118 1118 1117 1117 1117 1117 1117 1116 1116 1116 1116 1116 1116 1116 1116 1116 1117 1121 1125 1142 0 0 0 0 1701 1707 1711 1718 1721 1721 1722 1722 1722 1721 1721 1720 1720 1719 1718 1716 1715 1713 1712 1711 1709 1708 1708 1707 1707 1707 1707 1709 1709 1710 1713 1718 1722 1725 1729 1735 1741 1748 1758 1764 1769 1771 1773 1774 1777 1778 1780 1781 1782 1783 1783 1784 1785 1786 1786 1786 1786 1786 1786 1785 1785 1785 1785 1785 1785 1785 1785 1785 1785 1785 1785 1785 1785 1785 1785 1784 1784 1784 1784 1784 1784 1784 1784 1784 1784 1784 1785 1786 1787 1789 1791 1792 1794 1796 1798 1801 1804 1808 1811 1815 1817 1823 1826 1829 1830 1837 1844 1847 1850 1861 1872 1876 1891 1908 1923 1942 1993 2006 2010 2010 2010 2009 2004 2002 2000 1997 1995 1992 1990 1988 1986 1985 1983 1980 1980 1978 1976 1974 1972 1969 1968 1967 1964 1962 1959 1957 1954 1951 1949 1946 1944 1942 1939 1936 1934 1932 1928 1926 1924 1921 1919 1916 1913 1911 1911 1911 1911 1911 1912 1914 1915 1916 1916 1917 1917 1916 1916 1914 1912 1906 1899 1895 1893 1889 1882 1877 1872 1843 0 0 0 0 1414 1414 1414 1444 1455 1455 1455 1446 1444 1439 1435 1433 1431 1420 0 0 0 0 0 0 0 0 0 0 0 0 0 0 0 0 0 0 0
1821 1822 1822 1853 1876 1907 1940 1966 1979 1996 2009 2012 2029 2051 2063 2063 2063 2062 2062 2062 2070 2070 2070 2048 2047 0 0 0 0 0 0 1175 1153 1153 1153 1153 1153 1153 1151 1150 1149 1149 1149 1149 1150 1150 1150 1150 1150 1150 1150 1150 1150 1150 1149 1149 1148 1146 1144 1141 1138 1136 1134 1118 1080 1042 1028 1024 1024 1023 1023 1023 1020 1019 1019 1019 1020 1021 1023 1023 1023 1025 1029 1034 1039 1044 1047 1052 1056 1061 1075 1089 1102 1119 1129 1135 1135 1136 1138 1140 1141 1142 1144 1144 1145 1145 1145 1146 1146 1146 1146 1146 1146 1145 1145 1145 1144 1143 1142 1141 1140 1139 1138 1134 1131 1122 1107 1101 1097 1096 1095 1094 1091 1088 1087 1085 1083 1083 1082 1082 1082 1083 1084 1084 1085 1085 1086 1088 1091 1093 1094 1097 1099 1101 1104 1111 1117 1120 1124 1127 1129 1132 1132 1134 1135 1136 1136 1137 1137 1137 1137 1137 1137 1137 1137 1137 1136 1136 1136 1136 1135 1135 1134 1134 1133 1133 1130 1128 1126 1126 1124 1119 1114 1111 1109 1108 1107 1105 1105 1103 1102 1101 1101 1101 1101 1102 1102 1102 1101 1101 1101 1101 1101 1101 1101 1101 1104 1109 1112 1116 1119 1122 1124 1125 1127 1128 1129 1130 1130 1131 1131 1131 1130 1130 1130 1130 1129 1129 1129 1129 1129 1129 1129 1129 1129 1129 1129 1128 1128 1128 1126 1126 1125 1125 1123 1121 1120 1119 1119 1118 1116 1114 1113 1112 1111 1111 1110 1109 1109 1109 1109 1108 1108 1109 1110 1111 1112 1113 1114 1115 1115 1115 1116 1118 1121 1122 1122 1124 1125 1126 1126 1126 1126 1126 1126 1126 1126 1126 1126 1126 1127 1127 1127 1127 1127 1127 1127 1127 1127 1127 1127 1126 1126 1125 1124 1123 1122 1121 1120 1118 1117 1116 1116 1116 1115 1113 1112 1111 1110 1109 1109 1109 1109 1109 1109 1109 1109 1109 1110 1111 1111 1111 1111 1112 1112 1113 1113 1114 1116 1117 1118 1119 1120 1121 1121 1121 1122 1122 1123 1123 1123 1123 1123 1123 1123 1122 1122 1122 1122 1122 1122 1122 1122 1122 1122 1122 1122 1123 1123 1123 1123 1122 1122 1122 1121 1121 1121 1121 1120 1120 1120 1120 1119 1119 1119 1118 1118 1118 1117 1117 1117 1118 1118 1118 1118 1118 1118 1120 1123 1125 1142 0 0 0 0 1701 1707 1715 1718 1721 1721 1722 1722 1722 1722 1721 1720 1720 1719 1718 1716 1715 1713 1712 1711 1708 1708 1707 1706 1706 1706 1706 1708 1709 1710 1712 1718 1722 1723 1726 1731 1739 1746 1753 1761 1767 1771 1772 1773 1775 1777 1780 1781 1781 1782 1783 1783 1783 1784 1784 1784 1784 1784 1784 1784 1784 1784 1784 1784 1784 1784 1784 1784 1784 1784 1784 1784 1784 1784 1784 1784 1784 1784 1784 1784 1784 1784 1784 1784 1784 1784 1785 1786 1787 1789 1791 1792 1794 1796 1798 1801 1804 1808 1812 1816 1820 1825 1829 1830 1836 1840 1845 1848 1852 1865 1879 1881 1902 1917 1931 1969 2001 2012 2013 2013 2013 2010 2005 2003 2001 2000 1997 1994 1992 1990 1987 1985 1983 1982 1980 1978 1977 1974 1972 1970 1968 1966 1964 1961 1959 1955 1953 1950 1948 1945 1943 1942 1939 1936 1933 1931 1928 1926 1924 1921 1919 1916 1913 1913 1912 1912 1913 1914 1916 1916 1916 1917 1917 1917 1917 1917 1916 1914 1912 1907 1899 1895 1891 1888 1882 1876 1872 1839 0 0 0 0 1401 1401 1401 1444 1466 1466 1466 1452 1444 1435 1433 1421 1420 1420 0 0 0 0 0 0 0 0 0 0 0 0 0 0 0 0 0 0 0
