1549 1549 1550 1558 1568 1580 1590 1602 1617 1628 1635 1643 1655 1667 1682 1686 1694 1702 1711 1720 1731 1744 1756 1767 1775 1784 1792 1802 1813 1818 1827 1837 1846 1860 1877 1898 1913 1921 1923 1931 1937 1943 1948 1957 1968 1974 1984 1997 2010 2024 2031 2034 2037 2043 2052 2062 2072 2080 2090 2098 2106 2113 2123 2134 2138 2144 2146 2150 2154 2158 2164 2170 2172 2173 2174 2181 2187 2195 2206 2206 2206 2206 2205 0 0 0 0 0 0 0 0 0 0 0 0 0 0 0 0 0 1416 1406 1406 1406 1424 1424 1424 1424 1421 1417 1413 1406 1397 1397 1397 1421 1425 1432 1435 1437 1440 1441 1446 1448 1456 0 0 0 0 0 0 0 0 0 2624 2831 2944 3064 3105 3190 3253 3272 3284 3291 3298 3315 3333 3341 3345 3348 3351 3358 3365 3367 3367 3367 3366 3366 3366 3367 3367 3367 3367 3367 3366 3366 3366 3365 3365 3365 3365 3364 3362 3359 3358 3358 3358 3360 3363 3369 3375 3377 3381 3382 3383 3387 3389 3391 3392 3392 3392 3392 3392 3392 3392 3392 3392 3393 3393 3392 3391 3385 3373 3343 3242 3147 2859 2524 0 0 2072 2060 2049 2034 2025 2017 2006 2003 1998 1994 1990 1987 1982 1979 1976 1973 1972 1970 1968 1964 1957 1950 1944 1943 1943 1942 1938 1933 1924 1923 1921 1919 1915 1911 1906 1903 1902 1902 1901 1900 1900 1898 1895 1892 1889 1887 1886 1886 1886 1886 1886 1887 1887 1887 1888 1889 1889 1889 1890 1890 1890 1889 1889 1889 1889 1893 1897 1901 1906 1914 1925 1929 1933 1939 1955 1968 1979 1995 1995 0 0 0 0 0 2707 2893 2893 2893 2814 2708 2577 2577 2577 2577 0 0 0 0 1990 1960 1945 1933 1925 1925 1925 1927 1930 1933 1936 1946 1960 1966 1970 1973 1974 1974 1975 1975 1974 1970 1962 1955 1952 1949 1943 1933 1918 1907 0 0 0 0 1329 1317 1317 1317 1314 1311 1311 1311 1310 1309 1309 1307 1307 1305 1303 1300 1298 1296 1293 1291 1288 1287 1286 1285 1283 1282 1282 1280 1279 1278 1277 1276 1276 1276 1275 1275 1275 1276 1277 1278 1278 1280 1281 1284 1286 1290 1291 1292 1293 1295 1295 1295 1295 1295 1295 1294 1294 1293 1293 1292 1292 1291 1290 1289 1289 1287 1287 1286 1285 1284 1282 1281 1278 1276 1273 1271 1268 1265 1263 1261 1259 1257 1255 1254 1254 1253 1253 1252 1252 1251 1251 1250 1250 1250 1250 1250 1251 1252 1253 1254 1257 1260 1262 1265 1266 1268 1269 1270 1271 1271 1272 1272 1272 1272 1272 1272 1272 1271 1271 1271 1271 1270 1270 1269 1268 1268 1267 1267 1265 1264 1262 1260 1259 1256 1253 1249 1246 1241 1239 1237 1235 1234 1232 1231 1230 1229 1229 1229 1229 1229 1229 1229 1228 1228 1228 1229 1229 1230 1232 1232 1233 1234 1237 1241 1246 1248 1251 1253 1253 1253 1254 1255 1255 1255 1255 1255 1254 1254 1254 1253 1253 1253 1253 1253 1253 1252 1251 1251 1250 1249 1248 1246 1244 1242 1239 1236 1228 1220 1217 1209 1203 1199 1194 1192 1191 1191 1191 1189 1189 1188 1187 1186 1186 1185 1185 1185 1184 1184 1184 1184 1185 1191 1197 1202 1208 1216 1223 1228 1230 1231 1232 1234 1236 1236 1237 1237 1237 1237 1236 1236 1236 1235 1235 1235 1235 1235 1235 1237 1237 1237 1237 1237 0 0 0 0 0 0 0 0 0 0 0 0 0 0 0 0 992 974 956 948 942 942 942 943 977 977 977 960 937 927 0 0 0 0 0 0 0 0 0 0 0 0 0 0 0 0
1550 1550 1551 1560 1569 1580 1590 1602 1616 1626 1635 1644 1658 1675 1686 1692 1700 1706 1711 1721 1731 1744 1757 1765 1774 1784 1793 1805 1814 1819 1827 1836 1846 1860 1882 1901 1913 1921 1923 1931 1937 1943 1948 1957 1968 1974 1984 1995 2010 2024 2031 2034 2037 2043 2052 2062 2072 2080 2090 2098 2106 2113 2123 2134 2138 2145 2147 2151 2155 2159 2167 2172 2175 2177 2183 2191 2199 2205 2215 2227 2229 2232 2232 2232 2232 2228 2227 2226 0 0 0 0 0 0 0 0 0 0 0 0 0 0 0 0 0 1453 1440 1434 1432 1427 1424 1406 1397 1397 1397 1411 1414 1415 1415 1420 1429 1437 1441 1441 1442 1443 1460 1473 0 0 0 0 0 0 0 0 0 2426 2668 2815 2983 3078 3187 3263 3279 3298 3323 3339 3345 3348 3351 3354 3360 3365 3365 3365 3364 3364 3364 3366 3367 3367 3367 3367 3366 3365 3365 3365 3365 3365 3364 3364 3362 3360 3358 3357 3357 3358 3359 3362 3369 3377 3381 3382 3383 3385 3387 3389 3390 3390 3390 3390 3390 3391 3392 3392 3392 3392 3392 3394 3394 3394 3388 3358 3268 3155 2990 2602 0 0 2073 2060 2055 2042 2031 2025 2014 2014 1999 1994 1991 1988 1984 1981 1978 1976 1976 1975 1973 1968 1959 1952 1950 1949 1948 1948 1946 1942 1931 1926 1924 1923 1922 1920 1912 1909 1909 1909 1909 1909 1909 1905 1901 1898 1894 1893 1893 1893 1893 1893 1893 1894 1894 1895 1895 1896 1898 1900 1903 1906 1907 1908 1908 1909 1911 1911 1917 1923 1928 1936 1940 1945 1951 1969 1988 2001 2014 2014 2017 0 0 0 0 2714 2944 2944 2944 2897 2814 2708 2577 2577 2577 2577 2577 0 0 0 2020 1977 1945 1933 1923 1923 1922 1922 1922 1922 1924 1929 1947 1959 1961 1964 1965 1966 1966 1966 1966 1964 1957 1953 1949 1946 1939 1930 1917 1895 0 0 0 0 1329 1317 1317 1317 1314 1311 1311 1310 1310 1310 1309 1308 1307 1306 1303 1302 1299 1295 1293 1291 1288 1287 1286 1285 1284 1282 1282 1280 1279 1278 1277 1276 1276 1275 1275 1275 1276 1277 1277 1278 1278 1280 1282 1284 1286 1289 1291 1292 1293 1294 1295 1295 1295 1295 1294 1294 1294 1293 1293 1292 1292 1291 1290 1289 1288 1288 1287 1286 1285 1284 1282 1281 1279 1276 1273 1271 1268 1265 1263 1261 1259 1257 1255 1254 1254 1253 1253 1252 1252 1251 1251 1251 1250 1250 1250 1251 1252 1252 1253 1254 1257 1260 1262 1264 1266 1268 1269 1270 1271 1271 1272 1272 1272 1272 1272 1272 1272 1271 1271 1271 1270 1270 1270 1269 1268 1268 1267 1267 1265 1264 1262 1260 1259 1256 1253 1249 1246 1241 1239 1237 1236 1234 1232 1231 1230 1229 1229 1229 1229 1229 1229 1229 1229 1229 1229 1229 1230 1230 1232 1232 1233 1234 1237 1241 1244 1248 1250 1252 1252 1253 1254 1254 1255 1255 1255 1254 1254 1253 1253 1253 1253 1253 1253 1252 1252 1252 1251 1251 1250 1249 1248 1247 1244 1242 1239 1234 1226 1218 1215 1209 1203 1196 1193 1192 1191 1191 1191 1189 1189 1187 1187 1186 1186 1185 1184 1184 1184 1182 1182 1182 1185 1191 1196 1202 1208 1216 1223 1228 1230 1231 1232 1234 1235 1235 1236 1236 1236 1236 1236 1236 1235 1234 1234 1234 1234 1234 1235 1236 1236 1236 1237 1237 0 0 0 0 0 0 0 0 0 0 0 0 0 0 0 990 988 970 956 936 931 931 931 943 977 977 977 960 947 937 0 0 0 0 0 0 0 0 0 0 0 0 0 0 0 0
1552 1552 1553 1560 1569 1580 1590 1602 1616 1626 1639 1653 1672 1685 1693 1698 1701 1706 1711 1721 1731 1744 1757 1765 1774 1784 1795 1806 1815 1820 1827 1836 1846 1861 1883 1901 1913 1921 1923 1926 1933 1942 1948 1957 1968 1974 1982 1994 2009 2022 2031 2034 2037 2043 2052 2059 2067 2075 2080 2086 2096 2107 2121 2134 2138 2146 2150 2153 2156 2160 2169 2178 2185 2187 2193 2197 2205 2213 2223 2234 2243 2247 2248 2254 2254 2255 2256 2257 2257 0 0 0 0 0 0 0 0 0 0 0 0 0 0 0 0 1480 1477 1455 1453 1436 1425 1409 1397 1397 1397 1411 1414 1415 1415 1420 1429 1437 1441 1441 1442 1442 1454 1468 0 0 0 0 0 0 0 0 0 1592 1852 2034 2295 2564 2755 2982 3097 3200 3301 3324 3333 3337 3340 3348 3354 3358 3359 3360 3360 3361 3361 3363 3365 3366 3366 3366 3365 3364 3364 3364 3364 3364 3364 3364 3362 3360 3358 3357 3357 3358 3359 3362 3367 3371 3374 3377 3379 3382 3387 3387 3388 3388 3388 3388 3389 3390 3391 3391 3391 3392 3392 3394 3394 3394 3388 3362 3310 3185 3109 2773 0 0 2089 2061 2056 2052 2042 2030 2022 2015 2001 1997 1994 1994 1991 1987 1984 1984 1984 1984 1979 1972 1963 1957 1955 1955 1954 1952 1950 1945 1937 1928 1926 1925 1925 1924 1920 1917 1917 1917 1916 1916 1916 1911 1908 1906 1904 1903 1903 1903 1902 1902 1902 1902 1903 1904 1904 1906 1909 1910 1913 1914 1916 1919 1920 1921 1923 1929 1938 1951 1960 1965 1971 1979 1980 1991 2014 2020 2021 2026 2026 0 0 0 2502 2987 2987 2987 2962 2897 2814 2659 2577 2577 2577 2577 2577 0 0 0 2022 1994 1967 1933 1923 1920 1920 1918 1916 1916 1916 1920 1928 1947 1955 1957 1957 1959 1959 1959 1959 1959 1956 1949 1946 1940 1933 1927 1916 1894 0 0 0 0 1332 1317 1317 1317 1314 1311 1311 1310 1310 1310 1309 1308 1307 1306 1303 1302 1299 1295 1293 1291 1288 1287 1286 1285 1284 1282 1282 1280 1279 1279 1277 1276 1276 1275 1275 1275 1276 1277 1277 1278 1278 1280 1282 1284 1286 1289 1290 1291 1293 1294 1294 1295 1295 1295 1294 1294 1294 1293 1293 1292 1291 1291 1289 1289 1288 1287 1287 1286 1285 1283 1282 1281 1279 1276 1273 1271 1268 1265 1263 1262 1259 1257 1255 1254 1254 1253 1253 1252 1252 1252 1251 1251 1251 1251 1251 1252 1252 1253 1254 1255 1257 1260 1262 1264 1266 1268 1269 1270 1271 1271 1272 1272 1272 1272 1272 1271 1271 1271 1271 1270 1270 1270 1269 1269 1268 1267 1267 1266 1265 1264 1262 1260 1259 1256 1252 1248 1246 1241 1239 1238 1236 1235 1233 1231 1231 1230 1229 1229 1229 1229 1229 1229 1229 1229 1229 1229 1229 1230 1231 1232 1233 1234 1237 1240 1244 1247 1249 1252 1252 1252 1253 1254 1254 1254 1254 1254 1254 1253 1253 1253 1253 1253 1252 1252 1252 1252 1251 1251 1250 1249 1247 1247 1244 1241 1238 1234 1226 1218 1214 1209 1203 1196 1193 1193 1192 1192 1191 1190 1189 1187 1187 1186 1186 1185 1184 1184 1184 1183 1183 1183 1187 1191 1196 1199 1207 1215 1223 1228 1230 1231 1232 1233 1235 1235 1236 1236 1236 1236 1236 1235 1235 1234 1234 1234 1234 1234 1235 1236 1236 1236 1237 1237 1243 0 0 0 0 0 0 0 0 0 0 0 0 0 0 986 984 970 956 936 931 931 931 949 977 977 977 963 951 949 0 0 0 0 0 0 0 0 0 0 0 0 0 0 0 0
1552 1552 1553 1560 1568 1580 1590 1602 1616 1626 1644 1659 1672 1685 1693 1698 1701 1706 1711 1722 1735 1744 1757 1765 1774 1784 1796 1806 1816 1821 1829 1836 1847 1863 1883 1901 1911 1915 1917 1921 1925 1935 1945 1956 1966 1971 1982 1994 2007 2021 2031 2035 2040 2044 2052 2059 2067 2075 2080 2086 2096 2107 2120 2131 2137 2145 2153 2156 2158 2162 2171 2180 2187 2191 2194 2199 2207 2218 2230 2240 2249 2255 2258 2264 2268 2268 2269 2269 2269 2269 2269 2269 2267 2261 2261 2261 2264 0 0 0 0 0 0 0 0 0 0 0 0 0 0 0 0 0 0 0 0 0 0 1420 1429 1437 1441 1441 1441 1442 1454 1468 1484 1502 1518 1536 1539 1539 1539 1524 1524 1524 0 0 0 0 0 0 2671 2963 3177 3286 3316 3323 3332 3338 3346 3352 3355 3356 3356 3357 3357 3359 3363 3365 3365 3365 3364 3363 3363 3363 3363 3364 3364 3364 3362 3360 3358 3357 3357 3358 3359 3362 3367 3371 3372 3376 3379 3382 3384 3385 3385 3385 3386 3387 3387 3387 3388 3389 3390 3390 3392 3394 3394 3394 3388 3371 3329 3227 3150 2938 2595 0 0 2061 2059 2058 2056 2037 2029 2016 2003 2002 2001 2001 1999 1997 1995 1994 1991 1988 1983 1976 1970 1964 1960 1958 1958 1956 1952 1948 1942 1934 1931 1930 1929 1928 1926 1924 1923 1923 1923 1923 1921 1917 1917 1916 1915 1915 1914 1911 1911 1910 1910 1910 1912 1913 1913 1915 1917 1919 1922 1923 1926 1928 1931 1934 1938 1945 1956 1964 1976 1985 1988 1989 2000 2021 2023 0 0 0 0 2268 2287 2914 3022 3022 3022 2995 2962 2897 2793 2601 2530 0 0 0 0 0 0 2074 2035 2001 1973 1942 1923 1920 1920 1911 1909 1909 1909 1914 1917 1925 1939 1947 1948 1949 1951 1951 1952 1952 1952 1947 1941 1932 1929 1923 1912 0 0 0 0 0 1332 1317 1316 1316 1315 1311 1311 1311 1310 1310 1309 1308 1307 1306 1303 1302 1299 1295 1292 1290 1289 1288 1286 1285 1284 1282 1282 1281 1280 1279 1277 1277 1276 1276 1276 1276 1277 1277 1277 1278 1279 1280 1282 1284 1287 1289 1290 1291 1292 1293 1294 1294 1294 1294 1294 1294 1293 1293 1293 1291 1291 1290 1289 1289 1288 1287 1287 1285 1284 1283 1282 1280 1278 1276 1273 1271 1268 1264 1263 1262 1260 1257 1255 1254 1254 1253 1253 1252 1252 1252 1251 1251 1251 1251 1252 1253 1253 1253 1255 1255 1257 1261 1263 1264 1266 1268 1269 1270 1271 1271 1272 1272 1272 1272 1271 1271 1271 1271 1271 1270 1270 1270 1269 1269 1268 1267 1267 1266 1265 1264 1262 1260 1259 1257 1253 1249 1246 1242 1241 1238 1237 1235 1234 1232 1231 1230 1230 1230 1230 1230 1230 1230 1229 1229 1229 1229 1229 1230 1231 1232 1233 1234 1237 1240 1243 1247 1249 1251 1252 1252 1253 1253 1254 1254 1254 1254 1253 1253 1253 1252 1252 1252 1252 1252 1252 1252 1251 1251 1249 1249 1248 1247 1244 1240 1238 1233 1226 1218 1214 1208 1203 1196 1193 1193 1193 1193 1193 1191 1189 1187 1187 1187 1186 1186 1184 1184 1184 1184 1184 1184 1188 1192 1196 1199 1206 1215 1223 1229 1230 1231 1232 1233 1235 1235 1236 1236 1236 1236 1235 1235 1235 1234 1234 1233 1233 1233 1234 1235 1235 1234 1236 1236 1243 0 0 0 0 0 0 0 0 0 0 0 0 0 0 990 988 974 960 936 931 931 931 953 977 977 977 970 954 953 0 0 0 0 0 0 0 0 0 0 0 0 0 0 0 0
1552 1552 1553 1559 1569 1581 1591 1605 1617 1629 1644 1659 1672 1685 1693 1698 1701 1704 1710 1722 1737 1752 1761 1770 1777 1785 1796 1807 1816 1822 1829 1836 1847 1863 1883 1898 1908 1911 1915 1918 1925 1934 1941 1952 1964 1970 1982 1993 2007 2020 2030 2037 2042 2047 2052 2059 2067 2075 2080 2086 2096 2105 2119 2131 2136 2145 2153 2158 2159 2162 2171 2180 2187 2191 2194 2202 2208 2218 2231 2240 2249 2256 2259 2271 2280 2280 2282 2282 2280 2280 2282 2284 2288 2290 2296 2297 2308 2316 2325 2325 0 0 0 0 0 0 0 0 0 0 0 0 0 0 0 0 0 0 0 0 1456 1452 1449 1448 1448 1449 1454 1468 1484 1502 1518 1536 1539 1539 1539 1524 1524 1524 1529 0 0 0 0 0 0 2683 3021 3212 3295 3311 3325 3335 3342 3349 3350 3351 3352 3352 3355 3358 3360 3364 3364 3364 3364 3363 3363 3363 3363 3364 3364 3364 3362 3362 3359 3359 3359 3360 3361 3364 3367 3371 3372 3376 3379 3382 3382 3383 3383 3383 3384 3385 3385 3385 3385 3385 3385 3389 3390 3391 3391 3391 3386 3371 3347 3288 3193 3126 2813 0 0 0 2069 2066 2061 2046 2036 2023 2016 2011 2005 2003 2003 2001 1999 1997 1993 1991 1986 1979 1974 1970 1967 1966 1965 1961 1956 1952 1947 1941 1937 1935 1934 1932 1931 1930 1929 1929 1928 1927 1926 1926 1926 1925 1925 1925 1923 1921 1921 1920 1920 1920 1920 1922 1923 1923 1924 1927 1930 1934 1939 1942 1946 1954 1958 1966 1982 1992 1998 2003 2005 2012 2024 2033 0 0 0 0 0 2379 2932 3033 3033 3033 3022 2995 2959 2879 2751 2597 0 0 0 0 0 0 0 2063 2038 2013 1990 1961 1925 1920 1916 1906 1902 1902 1902 1905 1910 1913 1920 1933 1936 1938 1939 1942 1943 1943 1943 1942 1934 1925 1922 1916 1900 0 0 0 0 0 1332 1318 1316 1315 1315 1314 1313 1312 1311 1310 1309 1308 1307 1306 1303 1301 1299 1295 1292 1290 1289 1288 1286 1285 1284 1282 1282 1281 1280 1280 1278 1278 1276 1276 1276 1276 1277 1277 1277 1278 1279 1280 1282 1284 1287 1289 1289 1290 1292 1293 1293 1293 1294 1294 1294 1293 1293 1293 1292 1291 1291 1290 1289 1289 1288 1287 1287 1285 1284 1283 1281 1280 1278 1276 1272 1271 1268 1264 1263 1262 1260 1259 1256 1255 1254 1253 1253 1253 1252 1252 1252 1252 1252 1252 1253 1253 1254 1254 1255 1256 1258 1261 1263 1265 1266 1268 1269 1270 1271 1271 1272 1272 1272 1272 1271 1271 1271 1271 1270 1270 1269 1269 1269 1269 1268 1267 1267 1265 1265 1264 1262 1260 1259 1257 1253 1249 1246 1244 1241 1239 1238 1236 1235 1233 1232 1232 1231 1231 1230 1230 1230 1230 1229 1229 1229 1229 1230 1230 1230 1231 1233 1234 1237 1240 1243 1247 1248 1250 1252 1252 1253 1253 1254 1254 1254 1253 1253 1253 1252 1252 1252 1252 1252 1252 1251 1251 1251 1250 1249 1249 1247 1246 1244 1240 1237 1233 1227 1218 1214 1208 1203 1197 1194 1194 1194 1193 1193 1192 1190 1189 1188 1187 1187 1186 1186 1186 1184 1184 1184 1186 1189 1192 1196 1199 1206 1213 1223 1229 1230 1231 1232 1233 1234 1235 1236 1236 1236 1236 1235 1235 1235 1234 1234 1233 1233 1233 1233 1234 1236 1236 1236 1236 1243 0 0 0 0 0 0 0 0 0 0 0 0 0 0 993 992 981 974 969 964 964 964 967 977 981 981 981 973 972 0 0 0 0 0 0 0 0 0 0 0 0 0 0 0 0
1551 1551 1553 1559 1569 1585 1608 1618 1624 1630 1644 1659 1670 1677 1682 1687 1693 1701 1709 1722 1738 1755 1766 1772 1778 1785 1797 1808 1817 1822 1829 1836 1847 1863 1882 1898 1907 1911 1915 1918 1925 1934 1940 1949 1961 1966 1979 1993 2007 2017 2028 2037 2046 2053 2057 2064 2069 2077 2083 2090 2096 2105 2119 2131 2136 2145 2153 2158 2159 2164 2171 2180 2187 2193 2196 2203 2210 2220 2231 2240 2249 2256 2263 2271 2280 2284 2285 2287 2288 2288 2291 2294 2306 2317 2321 2327 2329 2329 2335 2335 2335 2333 2327 2317 0 0 0 0 0 0 0 0 0 0 0 0 0 0 0 0 0 0 1472 1472 1460 1460 1460 1472 1488 1502 1520 1531 1531 1531 1528 1521 1521 1521 1527 1555 0 0 0 0 0 2683 3021 3212 3295 3311 3325 3334 3342 3349 3349 3350 3350 3350 3353 3357 3360 3364 3364 3364 3364 3363 3363 3363 3364 3364 3365 3365 3365 3363 3361 3361 3361 3361 3363 3367 3370 3371 3372 3376 3379 3382 3382 3382 3383 3383 3383 3384 3384 3384 3383 3382 3382 3382 3382 3382 3379 3379 3378 3371 3347 3317 3243 3130 2986 2615 0 0 2076 2070 2062 2053 2048 2031 2021 2013 2012 2008 2005 2003 2001 1999 1996 1993 1988 1983 1978 1976 1974 1972 1970 1967 1963 1957 1952 1948 1944 1941 1939 1937 1936 1936 1935 1935 1933 1931 1931 1931 1933 1933 1933 1933 1931 1931 1931 1931 1932 1934 1934 1934 1933 1933 1933 1938 1945 1950 1957 1961 1964 1969 1977 1995 2018 2021 2022 2025 2042 2042 0 0 0 0 0 0 2640 2984 3043 3043 3043 3033 3022 2992 2940 2859 2739 2582 0 0 0 0 0 0 0 2046 2038 2020 2002 1964 1931 1920 1916 1906 1899 1897 1897 1897 1899 1901 1905 1911 1922 1924 1925 1930 1935 1935 1935 1932 1927 1921 1916 1910 1896 0 0 0 0 0 1329 1318 1316 1315 1315 1314 1313 1312 1311 1310 1309 1308 1307 1306 1303 1301 1299 1296 1292 1290 1289 1288 1286 1285 1284 1283 1282 1281 1280 1280 1280 1278 1277 1277 1277 1277 1277 1277 1277 1278 1279 1281 1282 1284 1287 1289 1289 1290 1291 1292 1292 1293 1293 1293 1293 1293 1293 1292 1291 1290 1290 1290 1289 1289 1287 1287 1286 1285 1284 1282 1281 1279 1278 1275 1272 1271 1267 1264 1263 1262 1261 1259 1257 1256 1255 1254 1254 1254 1253 1253 1252 1252 1252 1252 1253 1254 1254 1254 1255 1256 1258 1262 1263 1265 1267 1268 1270 1270 1271 1271 1272 1272 1272 1272 1271 1271 1271 1270 1270 1270 1269 1269 1269 1268 1268 1267 1267 1265 1264 1264 1262 1261 1259 1257 1254 1250 1246 1244 1241 1240 1238 1237 1235 1233 1233 1232 1231 1231 1231 1231 1231 1230 1229 1229 1229 1229 1230 1230 1230 1231 1232 1234 1237 1240 1243 1246 1248 1250 1251 1252 1253 1253 1253 1253 1253 1253 1253 1253 1252 1252 1252 1251 1251 1251 1251 1251 1251 1250 1249 1248 1247 1246 1244 1240 1236 1233 1227 1218 1214 1208 1205 1200 1197 1196 1194 1194 1194 1193 1192 1190 1188 1188 1187 1187 1187 1187 1186 1187 1187 1187 1189 1192 1195 1198 1206 1211 1222 1228 1230 1231 1232 1233 1234 1235 1236 1236 1236 1236 1235 1235 1234 1234 1234 1233 1233 1233 1233 1234 1236 1236 1236 1240 1244 0 0 0 0 0 0 0 0 0 0 0 0 0 0 0 1033 1010 998 987 980 975 975 975 979 982 991 991 991 973 0 0 0 0 0 0 0 0 0 0 0 0 0 0 0 0
1539 1539 1542 1554 1573 1588 1608 1618 1624 1630 1643 1650 1659 1665 1672 1677 1683 1693 1706 1722 1738 1756 1768 1773 1778 1786 1798 1811 1817 1822 1829 1836 1847 1863 1882 1897 1907 1911 1915 1918 1927 1934 1940 1947 1957 1962 1974 1988 2001 2014 2027 2037 2046 2053 2058 2065 2069 2077 2085 2090 2097 2107 2117 2130 2134 2144 2151 2158 2162 2168 2172 2180 2187 2193 2196 2204 2213 2221 2231 2240 2249 2256 2263 2271 2280 2284 2285 2288 2291 2293 2298 2304 2317 2323 2325 2329 2329 2331 2338 2345 2345 2345 2345 2340 2337 2336 2330 2329 0 0 0 0 0 0 0 0 0 0 0 0 0 0 0 0 0 0 0 1515 1523 1530 1536 1537 1537 1537 1517 1514 1514 1514 1524 1547 0 0 0 0 0 2683 3021 3212 3295 3311 3325 3334 3342 3349 3349 3350 3350 3350 3352 3356 3360 3364 3364 3364 3363 3363 3363 3364 3365 3365 3366 3366 3366 3366 3364 3362 3362 3362 3365 3367 3370 3371 3374 3376 3379 3381 3381 3381 3381 3381 3382 3382 3382 3381 3378 3375 3375 3375 3374 3371 3370 3366 3365 3359 3348 3326 3275 3159 3076 2765 0 0 0 2073 2063 2059 2055 2044 2027 2021 2018 2012 2009 2008 2007 2004 2000 1994 1991 1987 1983 1982 1980 1978 1976 1974 1971 1965 1960 1955 1952 1945 1942 1942 1941 1941 1939 1938 1936 1936 1936 1941 1941 1941 1941 1939 1939 1939 1939 1939 1941 1943 1943 1944 1947 1947 1949 1957 1963 1967 1968 1970 1979 1990 2008 2020 2033 2040 2056 2067 2068 0 0 0 0 0 0 2753 2989 3039 3043 3043 3043 3033 3012 2967 2912 2844 2723 2566 0 0 0 0 0 2055 2048 2042 2038 2023 2002 1983 1957 1928 1916 1906 1899 1893 1889 1889 1889 1889 1894 1898 1905 1914 1917 1917 1923 1926 1926 1926 1921 1916 1911 1906 1892 0 0 0 0 0 1329 1318 1317 1315 1314 1314 1313 1312 1311 1310 1309 1308 1307 1306 1302 1300 1299 1297 1293 1291 1290 1289 1287 1285 1285 1283 1282 1282 1281 1281 1280 1279 1278 1277 1277 1277 1277 1277 1277 1278 1279 1281 1282 1284 1287 1288 1289 1290 1291 1292 1292 1293 1293 1293 1293 1292 1292 1291 1291 1290 1290 1289 1289 1288 1287 1287 1286 1284 1284 1281 1281 1279 1277 1275 1272 1270 1267 1264 1263 1262 1261 1260 1258 1257 1256 1255 1254 1254 1254 1253 1253 1253 1253 1253 1253 1254 1254 1254 1255 1256 1259 1262 1264 1265 1267 1268 1270 1270 1271 1271 1271 1271 1271 1271 1271 1271 1271 1270 1270 1269 1269 1269 1268 1268 1268 1267 1266 1265 1264 1264 1262 1261 1258 1257 1254 1249 1246 1244 1241 1240 1239 1237 1236 1234 1233 1233 1232 1232 1231 1231 1231 1230 1230 1230 1230 1230 1230 1230 1230 1231 1232 1235 1237 1240 1243 1246 1248 1250 1251 1251 1252 1253 1253 1253 1253 1253 1252 1252 1252 1251 1251 1251 1251 1251 1250 1250 1250 1250 1249 1248 1247 1246 1243 1240 1237 1233 1228 1220 1217 1211 1206 1202 1200 1199 1197 1195 1195 1194 1192 1191 1189 1188 1188 1188 1188 1188 1188 1188 1188 1188 1189 1191 1193 1197 1205 1210 1219 1226 1229 1231 1232 1233 1234 1235 1235 1236 1236 1236 1235 1234 1234 1233 1233 1233 1233 1233 1233 1234 1236 1239 1240 1241 1244 0 0 0 0 0 0 0 0 0 0 0 0 0 0 0 1051 1013 998 987 980 975 975 975 979 982 991 991 991 973 0 0 0 0 0 0 0 0 0 0 0 0 0 0 0 0
1535 1535 1538 1554 1573 1588 1608 1618 1624 1630 1636 1643 1650 1657 1665 1669 1679 1691 1706 1722 1739 1757 1768 1775 1779 1786 1799 1811 1818 1824 1831 1836 1847 1863 1879 1895 1906 1911 1915 1918 1927 1934 1940 1947 1955 1960 1969 1982 1995 2011 2025 2037 2046 2053 2058 2065 2071 2078 2085 2090 2097 2107 2114 2127 2132 2141 2150 2156 2162 2168 2174 2180 2187 2193 2201 2208 2216 2223 2231 2239 2247 2254 2263 2269 2274 2281 2285 2288 2291 2293 2299 2306 2317 2323 2325 2329 2331 2333 2340 2348 2355 2355 2355 2352 2352 2352 2354 2354 2354 2353 2341 2331 0 0 0 0 0 0 0 0 0 0 0 0 0 0 0 0 0 0 1550 1548 1548 1542 1533 1499 1499 1499 1509 1531 0 0 0 0 0 2723 3072 3257 3307 3317 3325 3334 3343 3350 3350 3350 3350 3350 3351 3356 3359 3364 3364 3364 3363 3363 3363 3364 3365 3365 3366 3367 3367 3367 3364 3362 3362 3362 3366 3369 3371 3373 3376 3377 3379 3381 3381 3381 3380 3380 3380 3380 3380 3379 3378 3375 3374 3370 3368 3367 3366 3365 3365 3359 3350 3335 3297 3234 3127 2826 2501 0 0 0 2066 2064 2057 2046 2033 2024 2018 2014 2013 2013 2013 2011 2005 2000 1999 1997 1992 1989 1987 1984 1982 1979 1975 1969 1965 1961 1960 1956 1948 1945 1943 1943 1943 1943 1944 1944 1947 1952 1952 1952 1948 1945 1945 1945 1944 1945 1945 1945 1949 1952 1955 1958 1963 1967 1972 1985 1990 1995 2014 2030 2038 2044 2060 2068 2084 0 0 0 0 0 0 2687 2953 3037 3047 3047 3047 3041 3037 3022 2979 2931 2895 2823 2657 0 0 0 2083 2064 2054 2050 2044 2037 2034 2023 2002 1983 1960 1942 1919 1906 1899 1893 1887 1883 1881 1881 1881 1889 1891 1895 1909 1912 1913 1916 1917 1917 1916 1915 1911 1904 1889 1859 0 0 0 0 1328 1318 1317 1314 1314 1313 1313 1312 1311 1310 1308 1308 1307 1306 1302 1300 1299 1297 1293 1291 1290 1289 1287 1285 1285 1284 1283 1283 1281 1281 1280 1279 1279 1278 1278 1278 1278 1278 1278 1278 1279 1281 1282 1284 1287 1288 1288 1289 1290 1291 1292 1292 1292 1292 1292 1292 1291 1291 1290 1290 1289 1288 1288 1287 1287 1287 1286 1284 1283 1281 1281 1279 1277 1275 1273 1270 1267 1265 1263 1262 1262 1260 1259 1258 1256 1255 1255 1255 1254 1254 1254 1254 1254 1254 1254 1254 1254 1254 1255 1257 1259 1262 1264 1265 1267 1268 1269 1270 1270 1271 1271 1271 1271 1271 1271 1271 1270 1270 1269 1269 1269 1268 1268 1268 1267 1267 1266 1265 1264 1264 1262 1260 1258 1256 1254 1249 1246 1244 1242 1241 1239 1238 1237 1235 1234 1233 1233 1232 1232 1232 1231 1230 1230 1230 1230 1230 1230 1231 1231 1231 1232 1235 1237 1240 1243 1246 1248 1250 1250 1251 1252 1253 1253 1253 1253 1252 1252 1252 1251 1251 1251 1251 1251 1250 1250 1250 1250 1249 1249 1248 1247 1246 1243 1240 1237 1233 1229 1221 1218 1211 1207 1205 1203 1201 1199 1197 1197 1195 1193 1192 1191 1189 1189 1189 1189 1189 1189 1189 1189 1190 1190 1191 1192 1194 1203 1209 1217 1224 1227 1231 1232 1233 1234 1235 1235 1235 1235 1235 1235 1234 1234 1233 1233 1233 1233 1233 1234 1234 1236 1239 1240 1241 1244 0 0 0 0 0 0 0 0 0 0 0 0 0 0 0 0 1013 998 987 980 975 975 975 979 982 991 991 991 0 0 0 0 0 0 0 0 0 0 0 0 0 0 0 0 0
1535 1535 1538 1553 1573 1588 1593 1603 1612 1623 1633 1640 1647 1653 1663 1667 1679 1691 1706 1722 1743 1757 1770 1776 1781 1787 1800 1812 1821 1826 1835 1840 1849 1863 1874 1889 1901 1909 1915 1919 1927 1934 1939 1947 1955 1960 1969 1982 1995 2011 2025 2035 2042 2052 2058 2065 2071 2078 2086 2094 2101 2107 2114 2125 2130 2138 2147 2154 2162 2168 2174 2181 2190 2198 2206 2211 2218 2224 2231 2239 2247 2254 2261 2265 2269 2276 2283 2288 2291 2294 2299 2306 2317 2323 2325 2330 2333 2336 2344 2350 2356 2360 2362 2362 2362 2358 2357 2357 2357 2362 2362 2362 2342 2329 2324 2324 0 0 0 0 0 0 0 0 0 0 0 0 0 0 0 0 0 0 1533 1499 1492 1492 1492 1516 0 0 0 0 0 2745 3124 3278 3312 3324 3328 3334 3344 3350 3350 3350 3350 3350 3350 3356 3359 3362 3362 3362 3362 3362 3363 3364 3365 3365 3367 3367 3367 3367 3364 3363 3363 3363 3367 3369 3371 3374 3377 3377 3378 3378 3380 3380 3380 3380 3380 3379 3379 3378 3378 3375 3374 3370 3367 3366 3365 3365 3365 3359 3350 3342 3321 3277 3214 3025 2707 0 0 0 2087 2073 2069 2046 2034 2025 2018 2016 2016 2016 2016 2013 2008 2006 2004 2001 1997 1995 1991 1988 1984 1981 1979 1973 1969 1967 1967 1967 1965 1960 1952 1950 1950 1950 1952 1954 1956 1958 1958 1958 1958 1958 1958 1957 1957 1957 1957 1957 1957 1961 1966 1977 1982 1990 2004 2016 2025 2035 2050 2050 2053 2068 2076 2083 0 0 0 0 0 2541 2826 2999 3068 3068 3068 3058 3050 3041 3028 3001 2947 2890 2856 2740 0 0 0 2074 2061 2058 2050 2045 2037 2033 2032 2020 2001 1986 1965 1946 1925 1912 1903 1893 1887 1882 1877 1877 1877 1880 1884 1884 1890 1906 1908 1910 1910 1911 1911 1910 1910 1903 1885 1857 0 0 0 0 1328 1317 1316 1312 1312 1312 1312 1312 1311 1309 1308 1308 1307 1305 1302 1300 1299 1297 1293 1291 1290 1289 1287 1285 1285 1284 1284 1284 1282 1281 1280 1280 1280 1279 1280 1279 1279 1279 1279 1279 1279 1281 1283 1284 1286 1288 1288 1288 1289 1290 1290 1291 1291 1291 1291 1291 1291 1290 1290 1289 1289 1288 1288 1287 1287 1286 1285 1284 1283 1281 1280 1279 1277 1275 1273 1270 1268 1265 1263 1262 1262 1261 1260 1258 1257 1257 1256 1255 1255 1255 1255 1255 1255 1255 1255 1255 1255 1255 1255 1257 1259 1262 1264 1265 1267 1268 1269 1270 1270 1270 1271 1271 1271 1271 1270 1270 1270 1269 1269 1269 1268 1268 1268 1267 1267 1266 1265 1265 1264 1263 1262 1260 1258 1256 1253 1249 1246 1245 1242 1241 1239 1238 1237 1236 1235 1234 1234 1234 1234 1232 1232 1231 1231 1230 1230 1230 1231 1231 1231 1232 1233 1235 1238 1240 1244 1246 1248 1249 1250 1251 1252 1252 1252 1252 1252 1252 1252 1251 1251 1251 1250 1250 1250 1250 1250 1249 1249 1249 1249 1248 1247 1246 1243 1240 1237 1234 1231 1224 1219 1211 1207 1206 1204 1202 1200 1199 1199 1198 1196 1194 1193 1192 1192 1192 1191 1191 1191 1191 1191 1191 1191 1191 1192 1194 1200 1209 1217 1224 1225 1231 1232 1233 1234 1235 1235 1235 1235 1235 1235 1234 1234 1233 1233 1233 1233 1233 1233 1234 1236 1239 1240 1240 1241 0 0 0 0 0 0 0 0 0 0 0 0 0 0 0 0 0 973 970 970 970 973 973 973 0 0 0 0 0 0 0 0 0 0 0 0 0 0 0 0 0 0 0 0 0
1535 1535 1538 1553 1568 1578 1588 1597 1608 1623 1633 1640 1647 1653 1663 1667 1679 1691 1708 1722 1743 1760 1772 1779 1785 1792 1803 1817 1827 1832 1839 1846 1853 1863 1874 1887 1895 1905 1915 1920 1926 1934 1939 1947 1955 1960 1969 1982 1995 2011 2025 2030 2035 2045 2057 2065 2071 2078 2086 2097 2103 2108 2114 2125 2130 2138 2147 2154 2162 2170 2178 2186 2195 2204 2211 2217 2222 2226 2231 2239 2247 2254 2261 2265 2269 2276 2283 2288 2291 2295 2301 2307 2315 2320 2325 2330 2337 2346 2350 2353 2356 2361 2367 2367 2367 2361 2361 2361 2361 2367 2367 2367 2358 2352 2352 2352 2362 2362 2363 2363 2361 0 0 0 0 0 0 0 0 0 0 0 0 0 0 0 1491 1491 1491 0 0 0 0 0 0 2892 3152 3280 3312 3324 3328 3335 3344 3345 3345 3345 3345 3345 3345 3352 3357 3357 3358 3358 3359 3360 3360 3360 3361 3363 3367 3367 3367 3367 3365 3365 3365 3366 3368 3371 3374 3377 3377 3378 3378 3378 3380 3380 3380 3380 3380 3379 3379 3378 3378 3377 3374 3370 3367 3366 3366 3366 3365 3361 3356 3348 3332 3293 3246 3147 2925 2735 0 0 0 2112 2098 2072 2039 2027 2019 2019 2019 2017 2017 2016 2012 2009 2005 2003 2000 1999 1998 1993 1989 1986 1982 1978 1973 1973 1973 1973 1973 1969 1963 1960 1958 1958 1958 1961 1965 1965 1965 1965 1965 1965 1967 1971 1973 1973 1976 1980 1983 1984 1987 1987 2005 2019 2025 2029 2043 2047 2064 2066 2068 2070 0 0 0 0 0 2623 2708 3076 3114 3114 3114 3089 3074 3058 3050 3037 3008 2962 2912 2863 2749 2523 0 0 0 2059 2052 2048 2046 2030 2024 2022 2016 2003 1995 1987 1975 1956 1935 1921 1905 1897 1887 1882 1876 1874 1874 1874 1879 1880 1881 1890 1899 1899 1901 1903 1904 1904 1904 1902 1885 1856 0 0 0 0 1327 1316 1315 1312 1312 1312 1312 1311 1311 1309 1307 1307 1306 1305 1303 1300 1299 1297 1293 1292 1289 1289 1288 1286 1285 1285 1284 1284 1284 1282 1281 1280 1280 1280 1280 1280 1280 1280 1280 1280 1280 1281 1283 1284 1286 1287 1288 1288 1289 1290 1290 1291 1291 1291 1291 1290 1289 1289 1289 1288 1288 1287 1287 1286 1286 1286 1284 1284 1283 1281 1280 1279 1277 1275 1273 1270 1268 1266 1264 1262 1262 1262 1260 1259 1259 1258 1257 1257 1256 1256 1256 1256 1255 1255 1255 1256 1256 1256 1257 1259 1260 1262 1263 1265 1266 1268 1269 1269 1270 1270 1270 1270 1270 1270 1270 1269 1269 1269 1268 1268 1268 1267 1267 1267 1266 1266 1265 1264 1264 1263 1261 1260 1259 1255 1253 1248 1245 1245 1243 1241 1240 1238 1237 1236 1235 1235 1235 1235 1234 1233 1233 1233 1231 1231 1231 1231 1231 1232 1232 1233 1233 1235 1238 1240 1244 1246 1247 1249 1250 1251 1251 1252 1252 1252 1252 1251 1251 1251 1250 1250 1249 1249 1249 1249 1249 1249 1248 1248 1248 1247 1246 1245 1243 1241 1239 1237 1232 1224 1222 1212 1209 1208 1206 1205 1203 1202 1202 1201 1199 1197 1197 1196 1195 1194 1193 1193 1192 1192 1192 1192 1192 1193 1193 1194 1200 1209 1217 1224 1225 1230 1232 1233 1235 1235 1235 1235 1235 1235 1235 1234 1234 1233 1233 1233 1233 1233 1233 1233 1234 1239 1239 1240 1240 0 0 0 0 0 0 1867 1867 1866 0 0 0 0 0 0 0 0 0 941 941 952 952 952 946 0 0 0 0 0 0 0 0 0 0 0 0 0 0 0 0 0 0 0 0 0
1541 1541 1543 1553 1568 1578 1588 1597 1608 1623 1633 1640 1647 1653 1663 1667 1680 1695 1708 1722 1743 1760 1774 1782 1787 1796 1808 1821 1829 1834 1842 1848 1857 1867 1874 1887 1895 1905 1915 1920 1926 1933 1940 1947 1956 1963 1972 1988 2002 2015 2024 2030 2034 2041 2055 2064 2072 2080 2089 2098 2105 2110 2117 2125 2130 2138 2147 2154 2161 2171 2180 2189 2195 2204 2211 2217 2224 2229 2233 2240 2248 2256 2261 2265 2269 2276 2283 2288 2291 2295 2301 2307 2315 2320 2325 2334 2342 2349 2354 2354 2357 2361 2368 2368 2368 2365 2362 2362 2362 2370 2370 2370 2370 2370 2371 2382 2386 2386 2386 2386 2385 2385 2382 2373 2372 2363 2353 2332 0 0 0 0 0 0 0 0 0 0 0 0 0 0 0 0 2589 2999 3218 3283 3312 3324 3328 3335 3343 3343 3343 3338 3337 3337 3337 3344 3346 3349 3352 3354 3355 3356 3358 3358 3358 3363 3367 3367 3367 3367 3366 3366 3366 3367 3370 3372 3376 3378 3378 3378 3378 3378 3380 3380 3380 3380 3380 3380 3381 3384 3384 3384 3380 3373 3370 3368 3368 3370 3370 3368 3366 3356 3339 3308 3267 3211 3129 2973 2724 0 0 0 2112 2088 2074 2041 2030 2021 2021 2020 2020 2020 2016 2012 2008 2005 2004 2003 2002 1997 1994 1992 1991 1984 1981 1978 1978 1977 1976 1972 1968 1965 1965 1965 1969 1969 1969 1969 1968 1968 1968 1970 1974 1979 1981 1990 2004 2011 2014 2016 2021 2026 2035 2036 2036 2041 2057 2060 2066 2070 0 0 0 0 2526 2556 2689 2968 3140 3140 3140 3137 3114 3093 3074 3058 3050 3021 2974 2928 2883 2691 2537 0 0 0 2059 2049 2043 2040 2032 2023 2017 2011 2004 1996 1991 1986 1980 1969 1943 1924 1911 1898 1889 1882 1875 1868 1868 1868 1873 1873 1873 1875 1881 1886 1887 1889 1894 1899 1899 1899 1881 1853 0 0 0 0 1327 1315 1313 1312 1312 1311 1311 1311 1311 1309 1307 1307 1306 1305 1303 1300 1298 1296 1293 1292 1289 1289 1288 1286 1285 1285 1285 1285 1285 1284 1283 1282 1282 1281 1281 1281 1280 1280 1280 1280 1280 1281 1283 1284 1285 1286 1288 1288 1288 1289 1289 1290 1290 1289 1289 1289 1288 1288 1288 1287 1287 1286 1286 1285 1285 1285 1284 1284 1283 1281 1280 1279 1277 1275 1273 1271 1269 1266 1264 1263 1262 1262 1261 1260 1259 1258 1258 1258 1257 1257 1257 1256 1256 1256 1257 1258 1258 1258 1259 1260 1260 1261 1263 1264 1266 1267 1268 1269 1269 1270 1270 1270 1270 1269 1269 1269 1268 1268 1267 1267 1267 1267 1266 1265 1265 1265 1264 1264 1263 1262 1261 1259 1258 1255 1253 1248 1245 1245 1243 1241 1240 1239 1238 1237 1237 1237 1236 1235 1235 1235 1234 1233 1232 1231 1231 1231 1232 1232 1232 1233 1233 1236 1238 1241 1244 1246 1247 1249 1250 1251 1251 1251 1251 1251 1251 1250 1250 1250 1249 1249 1248 1248 1248 1248 1248 1248 1248 1247 1247 1246 1245 1244 1243 1241 1240 1238 1234 1231 1225 1216 1213 1210 1208 1207 1205 1204 1202 1202 1201 1199 1199 1199 1198 1196 1195 1194 1192 1192 1192 1194 1194 1195 1195 1195 1200 1211 1218 1224 1227 1231 1232 1234 1235 1235 1235 1235 1235 1235 1235 1234 1234 1233 1233 1233 1233 1233 1233 1234 1234 1236 1236 1236 1239 0 0 0 0 0 1867 1868 1868 1868 1828 0 0 0 0 0 0 0 0 929 929 929 940 940 940 0 0 0 0 0 0 0 0 0 0 0 0 0 0 0 0 0 0 0 0 0
1545 1545 1553 1557 1568 1578 1588 1597 1608 1624 1636 1642 1647 1654 1663 1667 1680 1695 1708 1722 1740 1760 1774 1787 1793 1801 1811 1821 1829 1834 1842 1850 1862 1872 1882 1887 1895 1905 1915 1922 1926 1933 1940 1948 1957 1963 1975 1994 2006 2015 2024 2030 2034 2039 2048 2059 2072 2084 2093 2100 2106 2110 2117 2125 2130 2137 2146 2154 2160 2171 2180 2189 2195 2204 2211 2217 2224 2229 2234 2241 2248 2256 2263 2268 2273 2281 2286 2288 2293 2296 2301 2307 2315 2320 2325 2334 2342 2349 2354 2355 2358 2362 2368 2368 2368 2366 2362 2362 2362 2370 2375 2376 2376 2380 2390 2399 2402 2402 2403 2403 2402 2402 2402 2396 2395 2385 2377 2370 2352 2322 0 0 0 0 0 0 0 0 0 0 0 0 0 0 2668 3049 3229 3283 3306 3320 3328 3335 3338 3338 3338 3332 3329 3329 3329 3335 3342 3344 3348 3350 3353 3355 3356 3356 3358 3363 3368 3368 3368 3368 3367 3367 3367 3368 3370 3374 3377 3379 3380 3380 3380 3382 3384 3384 3384 3384 3384 3384 3387 3389 3389 3389 3386 3380 3375 3375 3375 3375 3376 3376 3376 3370 3349 3321 3285 3238 3178 3070 2887 2675 0 0 0 2096 2081 2052 2045 2037 2033 2032 2031 2025 2020 2014 2012 2012 2012 2009 2006 2004 2003 2002 2001 1998 1991 1987 1984 1982 1982 1979 1973 1973 1973 1977 1982 1983 1983 1983 1981 1978 1978 1978 1984 1988 1994 2006 2017 2021 2032 2051 2053 2054 2054 2055 2055 2057 2058 2073 2076 0 0 0 2512 2593 2679 2848 3150 3190 3190 3190 3167 3137 3114 3093 3074 3057 3035 2985 2974 2926 2782 2589 0 0 0 2047 2043 2036 2035 2027 2022 2017 2008 2004 1998 1993 1991 1986 1980 1969 1954 1930 1913 1905 1892 1883 1874 1865 1865 1865 1866 1867 1867 1867 1868 1868 1870 1872 1876 1883 1883 1883 1869 1851 0 0 0 0 1327 1315 1312 1311 1311 1311 1311 1311 1310 1308 1307 1306 1306 1304 1303 1300 1299 1296 1293 1292 1289 1289 1288 1286 1285 1285 1285 1285 1285 1285 1284 1283 1282 1281 1281 1281 1281 1280 1280 1280 1280 1281 1283 1283 1285 1285 1287 1288 1288 1288 1288 1289 1289 1289 1289 1288 1287 1287 1286 1286 1286 1284 1284 1284 1284 1283 1283 1283 1282 1280 1280 1279 1277 1276 1273 1271 1269 1268 1266 1264 1263 1263 1262 1260 1260 1259 1259 1259 1258 1258 1258 1258 1257 1257 1257 1258 1259 1259 1259 1260 1261 1262 1262 1264 1265 1266 1267 1269 1269 1269 1269 1269 1269 1269 1269 1268 1268 1267 1267 1266 1266 1266 1265 1265 1265 1264 1263 1263 1262 1260 1259 1258 1258 1256 1253 1248 1245 1243 1243 1241 1240 1239 1238 1238 1238 1238 1238 1237 1236 1236 1236 1235 1234 1232 1232 1232 1232 1232 1233 1233 1235 1236 1238 1242 1244 1246 1247 1248 1249 1250 1250 1250 1250 1250 1249 1249 1248 1248 1247 1247 1247 1247 1247 1247 1247 1247 1247 1247 1246 1245 1244 1244 1243 1241 1240 1238 1234 1232 1227 1219 1215 1211 1210 1209 1207 1204 1203 1202 1202 1201 1200 1199 1199 1197 1196 1195 1195 1195 1195 1195 1195 1195 1195 1195 1201 1214 1219 1225 1227 1231 1232 1234 1235 1235 1236 1236 1235 1235 1235 1235 1234 1233 1233 1233 1233 1234 1234 1234 1234 1234 1234 1235 1236 0 0 0 0 0 1863 1868 1868 1868 1837 0 0 0 0 0 0 0 0 925 925 925 930 936 936 0 0 0 0 0 0 0 0 0 0 0 0 0 0 0 0 0 0 0 0 0
1551 1551 1561 1565 1578 1590 1598 1606 1617 1630 1640 1645 1649 1654 1663 1667 1680 1695 1706 1716 1732 1756 1774 1787 1793 1801 1811 1821 1829 1834 1842 1850 1862 1877 1889 1896 1902 1907 1918 1924 1928 1933 1940 1949 1960 1965 1980 1994 2006 2015 2025 2030 2034 2038 2048 2059 2073 2084 2094 2100 2106 2110 2117 2125 2130 2137 2146 2154 2160 2171 2180 2189 2196 2202 2210 2215 2224 2229 2234 2241 2248 2256 2263 2268 2276 2281 2286 2288 2293 2296 2302 2311 2318 2322 2325 2334 2342 2349 2354 2355 2356 2362 2368 2368 2368 2367 2367 2367 2370 2374 2379 2382 2385 2390 2400 2409 2413 2414 2414 2413 2411 2411 2409 2402 2401 2394 2387 2379 2372 2355 2328 0 0 0 0 0 0 0 0 0 0 0 0 0 2712 3073 3233 3283 3302 3309 3313 3321 3330 3330 3330 3327 3326 3326 3326 3328 3335 3343 3347 3350 3351 3352 3354 3355 3358 3363 3369 3372 3372 3372 3369 3369 3369 3370 3373 3377 3378 3380 3380 3380 3380 3382 3389 3392 3392 3393 3393 3396 3398 3398 3398 3395 3386 3380 3375 3375 3375 3375 3376 3376 3376 3370 3349 3330 3298 3275 3250 3169 3027 2889 2582 0 0 0 2089 2064 2054 2054 2051 2044 2040 2034 2031 2025 2024 2024 2023 2023 2019 2015 2014 2013 2010 2007 2002 1999 1993 1989 1986 1985 1984 1984 1984 1987 1991 1994 1994 1994 1994 1994 1998 2000 2000 2006 2014 2035 2048 2058 2066 2066 2066 2064 2061 2061 0 0 0 0 0 0 2609 2656 2864 2914 3074 3193 3207 3207 3207 3190 3167 3137 3111 3093 3074 3047 3003 2970 2944 2843 2646 0 0 0 2054 2036 2035 2032 2024 2022 2016 2009 2003 2001 1994 1989 1986 1983 1980 1969 1958 1938 1918 1908 1898 1883 1874 1865 1859 1857 1857 1857 1858 1858 1858 1858 1860 1863 1863 1865 1865 1865 1859 1839 0 0 0 0 1327 1313 1311 1311 1311 1311 1311 1311 1310 1308 1307 1306 1305 1304 1303 1301 1300 1297 1294 1292 1291 1290 1289 1287 1286 1286 1286 1286 1286 1285 1284 1283 1282 1281 1281 1281 1281 1281 1280 1280 1281 1281 1283 1283 1284 1285 1286 1287 1287 1288 1288 1288 1288 1288 1287 1287 1286 1285 1285 1284 1284 1283 1283 1283 1283 1283 1282 1281 1281 1280 1278 1278 1277 1276 1273 1271 1270 1269 1267 1265 1265 1263 1262 1261 1260 1260 1260 1260 1260 1259 1258 1258 1258 1258 1258 1258 1259 1259 1259 1260 1261 1262 1262 1264 1264 1266 1267 1268 1268 1268 1268 1268 1267 1267 1267 1267 1266 1266 1265 1265 1265 1264 1264 1264 1264 1263 1263 1262 1261 1259 1258 1258 1257 1256 1253 1249 1245 1243 1242 1242 1241 1239 1239 1238 1238 1238 1238 1238 1238 1238 1238 1237 1235 1234 1233 1233 1233 1233 1234 1234 1235 1236 1239 1242 1245 1246 1247 1248 1249 1249 1249 1249 1249 1249 1248 1248 1248 1247 1247 1246 1246 1246 1246 1245 1246 1245 1245 1245 1245 1244 1243 1243 1243 1241 1240 1238 1234 1232 1227 1221 1216 1213 1210 1209 1207 1204 1203 1202 1202 1202 1201 1201 1201 1198 1198 1198 1198 1198 1199 1199 1199 1199 1199 1200 1205 1217 1224 1225 1228 1231 1233 1234 1235 1236 1236 1236 1236 1235 1235 1235 1234 1234 1233 1233 1233 1234 1234 1234 1234 1234 1234 1235 1235 0 0 0 0 0 0 1868 1868 1868 0 0 0 0 0 0 0 0 0 948 925 920 920 920 919 0 0 0 0 0 0 0 0 0 0 0 0 0 0 0 0 0 0 0 0 0
1557 1557 1573 1576 1590 1599 1606 1614 1625 1633 1642 1648 1652 1655 1664 1669 1679 1693 1703 1716 1732 1750 1772 1787 1793 1801 1811 1820 1827 1834 1840 1850 1862 1879 1889 1896 1902 1907 1918 1924 1928 1933 1941 1953 1964 1970 1980 1994 2006 2016 2025 2031 2034 2038 2048 2059 2073 2084 2094 2100 2106 2110 2116 2124 2128 2137 2144 2150 2157 2166 2180 2189 2196 2202 2210 2213 2220 2227 2234 2241 2248 2256 2263 2268 2276 2281 2286 2288 2293 2297 2303 2312 2318 2322 2325 2331 2339 2345 2350 2355 2356 2361 2365 2367 2367 2368 2368 2370 2376 2380 2384 2387 2391 2395 2403 2412 2418 2418 2418 2414 2411 2411 2409 2402 2401 2395 2387 2385 2381 2370 2341 0 0 0 0 0 0 0 0 0 0 0 0 0 2806 3116 3246 3283 3290 3290 3296 3310 3318 3323 3324 3324 3324 3324 3325 3327 3332 3338 3342 3345 3347 3348 3353 3355 3358 3363 3369 3375 3376 3376 3376 3374 3374 3374 3378 3380 3380 3380 3380 3380 3380 3382 3390 3399 3403 3405 3407 3409 3409 3409 3404 3395 3386 3380 3375 3375 3375 3375 3376 3376 3376 3370 3349 3335 3320 3319 3307 3241 3143 2992 2873 2622 0 0 0 2096 2069 2067 2066 2058 2048 2045 2038 2035 2035 2035 2035 2034 2034 2031 2029 2024 2019 2016 2015 2012 2007 2002 1999 1994 1994 1994 1994 2002 2007 2015 2015 2015 2015 2015 2024 2038 2041 2046 2052 2066 2076 2076 2077 2077 2084 0 0 0 0 0 0 2692 2693 2703 2828 2916 3210 3210 3210 3209 3209 3207 3207 3190 3167 3137 3105 3086 3061 3019 2981 2966 2891 2696 0 0 0 0 2047 2035 2029 2023 2016 2013 2009 2004 1998 1992 1989 1984 1980 1978 1974 1968 1960 1943 1922 1912 1903 1887 1874 1864 1859 1853 1847 1846 1846 1846 1847 1848 1852 1854 1854 1855 1855 1854 1852 1839 0 0 0 0 1325 1313 1311 1310 1310 1310 1310 1310 1309 1307 1307 1306 1305 1304 1303 1301 1300 1298 1297 1294 1291 1290 1289 1288 1288 1288 1287 1287 1287 1287 1286 1285 1284 1282 1281 1281 1281 1281 1281 1281 1281 1281 1282 1283 1284 1285 1285 1286 1286 1286 1286 1286 1286 1286 1286 1285 1285 1284 1284 1283 1282 1282 1281 1281 1281 1281 1281 1280 1279 1278 1278 1277 1277 1275 1273 1272 1271 1270 1268 1267 1265 1264 1263 1262 1261 1261 1261 1261 1260 1259 1259 1259 1259 1259 1259 1259 1259 1259 1260 1260 1261 1262 1262 1263 1264 1266 1267 1267 1267 1267 1267 1267 1266 1266 1266 1266 1265 1264 1264 1263 1263 1262 1262 1262 1261 1261 1261 1260 1259 1258 1258 1257 1257 1255 1253 1249 1245 1243 1242 1242 1241 1240 1240 1239 1239 1240 1239 1239 1239 1239 1239 1238 1237 1236 1234 1234 1234 1234 1236 1237 1237 1237 1239 1242 1245 1246 1247 1248 1249 1249 1249 1248 1248 1248 1248 1246 1246 1246 1245 1245 1245 1244 1244 1243 1243 1243 1243 1243 1243 1243 1243 1243 1242 1241 1239 1237 1234 1232 1227 1222 1216 1214 1211 1210 1207 1204 1203 1203 1203 1203 1203 1202 1202 1202 1201 1200 1200 1200 1200 1200 1201 1203 1204 1206 1210 1219 1224 1228 1230 1232 1233 1234 1236 1236 1236 1236 1236 1235 1235 1235 1234 1234 1232 1232 1232 1234 1234 1234 1234 1234 1234 1234 1235 0 0 0 0 0 0 0 0 0 0 0 0 0 0 0 0 0 0 968 929 920 901 890 889 888 0 0 0 0 0 0 0 0 0 0 0 0 0 0 0 0 0 0 0 0
1558 1558 1573 1576 1590 1605 1613 1619 1625 1633 1642 1648 1655 1657 1664 1670 1679 1693 1703 1716 1732 1750 1770 1781 1787 1795 1805 1817 1824 1834 1840 1850 1863 1879 1889 1896 1902 1907 1918 1924 1928 1933 1941 1953 1964 1972 1980 1994 2006 2016 2025 2031 2035 2038 2049 2060 2073 2084 2094 2100 2104 2107 2112 2117 2123 2129 2136 2143 2153 2166 2179 2189 2196 2202 2210 2213 2219 2226 2233 2241 2248 2255 2260 2268 2276 2280 2284 2288 2292 2297 2305 2312 2318 2322 2326 2331 2334 2341 2348 2353 2356 2358 2361 2363 2365 2367 2368 2370 2377 2384 2389 2390 2393 2397 2403 2412 2420 2420 2420 2415 2412 2411 2410 2405 2404 2395 2390 2386 2381 2370 2341 0 0 0 0 0 0 0 0 0 0 0 0 0 2872 3148 3274 3283 3290 3290 3296 3303 3310 3317 3318 3319 3321 3322 3325 3326 3329 3333 3336 3340 3343 3348 3353 3355 3357 3361 3369 3375 3379 3381 3381 3381 3381 3381 3382 3382 3382 3380 3379 3379 3379 3382 3392 3405 3413 3418 3420 3420 3420 3410 3404 3395 3385 3376 3373 3373 3373 3373 3373 3373 3371 3362 3348 3336 3334 3333 3324 3296 3244 3120 2959 2790 2623 0 0 0 2086 2075 2068 2067 2062 2052 2047 2041 2041 2041 2043 2047 2047 2047 2046 2041 2021 2021 2021 2024 2024 2024 2024 2018 2017 2017 2017 2023 2026 2027 2029 2030 2035 2045 2058 2058 2058 2058 2058 2073 2089 2095 0 0 0 0 0 0 2742 2809 2824 2848 2938 3107 3204 3228 3228 3228 3213 3209 3207 3206 3203 3190 3166 3135 3105 3080 3050 3002 2978 2897 2749 2518 0 0 0 2048 2028 2028 2021 2018 2015 2009 2006 1999 1992 1986 1983 1979 1976 1973 1973 1968 1960 1947 1929 1916 1908 1895 1874 1864 1858 1852 1846 1840 1838 1836 1836 1838 1840 1845 1846 1846 1846 1843 1837 1827 0 0 0 0 1323 1312 1310 1310 1310 1310 1309 1309 1309 1307 1306 1306 1305 1304 1303 1302 1300 1298 1297 1295 1294 1293 1292 1290 1289 1289 1288 1288 1288 1288 1288 1288 1288 1285 1284 1283 1282 1281 1281 1281 1281 1281 1282 1283 1284 1284 1285 1285 1285 1285 1285 1285 1285 1284 1284 1284 1283 1283 1282 1281 1281 1281 1281 1281 1280 1279 1279 1279 1278 1277 1277 1276 1276 1275 1273 1272 1271 1271 1270 1268 1267 1266 1265 1265 1264 1264 1264 1263 1263 1262 1260 1260 1260 1260 1260 1259 1260 1260 1260 1260 1261 1262 1262 1263 1264 1264 1265 1266 1266 1266 1266 1266 1266 1265 1265 1264 1264 1263 1263 1262 1261 1261 1260 1260 1260 1260 1259 1258 1258 1258 1257 1257 1256 1255 1253 1252 1246 1243 1243 1243 1243 1242 1241 1240 1240 1240 1241 1241 1241 1241 1241 1240 1239 1237 1235 1235 1235 1236 1237 1238 1238 1239 1239 1243 1245 1246 1247 1247 1247 1247 1247 1247 1247 1246 1246 1245 1245 1245 1244 1244 1244 1243 1242 1241 1241 1241 1241 1241 1241 1241 1241 1241 1241 1240 1239 1237 1234 1232 1228 1223 1219 1216 1214 1211 1207 1204 1204 1204 1205 1205 1205 1205 1205 1205 1204 1203 1203 1203 1203 1203 1204 1207 1208 1211 1212 1220 1225 1228 1231 1234 1235 1235 1236 1236 1236 1236 1236 1236 1235 1234 1234 1233 1232 1232 1232 1233 1234 1234 1234 1234 1234 1234 1235 0 0 0 0 0 0 0 0 0 0 0 0 0 0 0 0 0 1001 977 950 920 901 890 889 888 0 0 0 0 0 0 0 0 0 0 0 0 0 0 0 0 0 0 0 0
1558 1558 1573 1576 1590 1605 1613 1619 1625 1633 1642 1648 1655 1660 1667 1674 1679 1693 1703 1716 1732 1750 1770 1777 1785 1793 1804 1815 1824 1835 1840 1850 1862 1879 1887 1894 1900 1907 1914 1921 1927 1933 1941 1953 1964 1972 1980 1992 2005 2015 2025 2032 2037 2044 2054 2062 2073 2082 2088 2095 2098 2102 2105 2113 2118 2127 2136 2143 2153 2166 2177 2188 2196 2202 2208 2212 2218 2225 2233 2241 2248 2254 2259 2267 2275 2280 2284 2288 2292 2297 2305 2312 2318 2322 2326 2331 2334 2339 2344 2350 2353 2355 2358 2361 2364 2366 2368 2373 2378 2385 2389 2390 2394 2399 2406 2414 2420 2420 2420 2415 2412 2411 2409 2405 2404 2395 2390 2387 2382 2370 2341 0 0 0 0 0 0 0 0 0 0 0 0 2558 2973 3209 3274 3283 3290 3290 3296 3303 3307 3310 3312 3312 3317 3318 3319 3321 3325 3328 3332 3337 3342 3348 3351 3355 3357 3360 3364 3373 3379 3385 3385 3385 3387 3385 3384 3383 3383 3378 3375 3375 3375 3382 3392 3405 3414 3418 3420 3420 3420 3410 3404 3389 3380 3373 3371 3370 3369 3369 3368 3366 3359 3351 3340 3336 3335 3335 3332 3320 3296 3237 3111 2945 2801 2613 0 0 0 2078 2076 2070 2064 2059 2059 2057 2054 2051 2050 2050 2049 2049 2049 2048 2045 2043 2043 2043 2046 2046 2046 2044 2044 2044 2047 2051 2053 2055 2056 2061 2065 2071 2087 2087 2088 0 0 0 0 0 0 0 2621 2777 2784 2858 2925 2983 3096 3186 3209 3223 3240 3240 3240 3240 3220 3210 3204 3196 3190 3183 3162 3134 3105 3076 3030 2999 2926 2807 2533 0 0 0 2042 2027 2024 2020 2018 2014 2010 2007 2000 1995 1990 1986 1982 1976 1973 1973 1971 1966 1960 1948 1932 1917 1908 1897 1879 1865 1857 1852 1843 1838 1834 1831 1831 1830 1830 1830 1831 1832 1832 1832 1821 0 0 0 0 0 1323 1313 1310 1308 1307 1307 1307 1307 1307 1307 1306 1306 1304 1304 1303 1302 1300 1299 1298 1297 1296 1296 1295 1293 1292 1292 1291 1290 1289 1289 1289 1289 1288 1287 1286 1286 1285 1284 1283 1283 1283 1283 1284 1284 1284 1284 1283 1283 1282 1282 1282 1282 1282 1282 1282 1282 1281 1280 1280 1280 1280 1279 1279 1279 1279 1279 1277 1277 1277 1276 1276 1276 1275 1274 1273 1272 1272 1271 1271 1270 1269 1268 1266 1266 1265 1265 1265 1264 1263 1263 1262 1262 1262 1262 1261 1261 1260 1260 1260 1261 1262 1262 1262 1263 1263 1264 1264 1264 1265 1265 1265 1264 1264 1263 1262 1262 1262 1262 1261 1260 1260 1259 1259 1258 1258 1258 1258 1257 1257 1257 1257 1257 1255 1254 1252 1252 1248 1244 1244 1244 1244 1244 1244 1243 1242 1242 1242 1243 1243 1243 1243 1243 1243 1242 1240 1239 1239 1238 1238 1239 1240 1241 1241 1243 1245 1246 1247 1247 1247 1246 1246 1245 1245 1245 1245 1244 1244 1243 1243 1243 1243 1242 1240 1239 1239 1239 1239 1240 1240 1239 1239 1239 1238 1238 1237 1236 1234 1232 1229 1224 1219 1217 1216 1212 1207 1207 1207 1207 1211 1211 1211 1210 1209 1209 1208 1208 1207 1207 1207 1208 1211 1211 1212 1213 1214 1220 1226 1231 1231 1234 1235 1236 1236 1236 1236 1236 1236 1236 1235 1234 1234 1233 1232 1232 1232 1232 1233 1233 1234 1234 1233 1233 1234 0 0 0 0 0 0 0 0 0 0 0 0 0 0 0 0 0 1005 997 965 934 901 890 890 889 0 0 0 0 0 0 0 0 0 0 0 0 0 0 0 0 0 0 0 0
1559 1559 1570 1574 1590 1605 1613 1620 1623 1630 1638 1648 1655 1660 1669 1679 1685 1695 1709 1723 1740 1754 1769 1777 1785 1793 1804 1815 1824 1835 1840 1849 1862 1877 1887 1893 1900 1907 1914 1921 1927 1933 1941 1951 1962 1972 1979 1992 2005 2015 2025 2031 2040 2049 2055 2062 2073 2074 2078 2083 2092 2100 2105 2113 2118 2127 2136 2143 2153 2165 2177 2188 2196 2202 2208 2212 2215 2221 2231 2240 2248 2254 2259 2266 2275 2280 2284 2288 2292 2297 2305 2312 2318 2322 2327 2331 2334 2339 2344 2349 2353 2355 2357 2359 2364 2366 2369 2374 2379 2385 2389 2390 2394 2399 2406 2414 2419 2419 2419 2415 2412 2411 2409 2405 2404 2400 2394 2387 2383 2366 2336 0 0 0 0 0 0 0 0 0 0 0 0 2594 3018 3220 3274 3281 3288 3295 3298 3303 3307 3310 3312 3312 3313 3313 3315 3318 3322 3326 3330 3335 3340 3346 3351 3354 3355 3358 3363 3372 3379 3385 3387 3389 3389 3389 3388 3388 3383 3378 3375 3375 3375 3382 3393 3405 3414 3418 3420 3420 3420 3410 3396 3387 3378 3370 3370 3369 3368 3368 3363 3359 3350 3343 3339 3337 3336 3336 3333 3330 3324 3295 3228 3094 2963 2797 0 0 0 0 2082 2079 2073 2070 2070 2068 2068 2068 2058 2053 2052 2052 2052 2052 2052 2051 2051 2051 2057 2062 2063 2068 2073 2080 2081 2082 2086 2092 2100 0 0 0 0 0 0 0 0 0 0 2616 2710 2719 2831 2900 3059 3175 3188 3211 3223 3227 3233 3246 3258 3258 3258 3251 3236 3210 3204 3191 3183 3173 3158 3134 3104 3064 3016 2971 2878 2623 0 0 0 2056 2040 2023 2022 2019 2015 2012 2007 2002 1997 1993 1988 1983 1978 1975 1972 1971 1967 1963 1958 1949 1937 1926 1913 1898 1885 1865 1859 1849 1843 1836 1831 1826 1824 1822 1821 1820 1820 1820 1817 1815 1815 0 0 0 0 0 1323 1313 1310 1308 1307 1307 1307 1307 1307 1306 1306 1305 1304 1304 1303 1302 1300 1299 1299 1298 1298 1297 1297 1296 1295 1294 1293 1292 1292 1291 1291 1290 1289 1288 1288 1288 1287 1287 1286 1286 1286 1286 1285 1284 1283 1283 1282 1282 1281 1280 1280 1280 1280 1280 1279 1279 1278 1277 1277 1276 1276 1276 1276 1276 1276 1276 1276 1275 1275 1275 1274 1274 1274 1273 1273 1273 1272 1272 1271 1271 1271 1269 1269 1268 1268 1268 1266 1266 1266 1266 1265 1265 1265 1265 1264 1264 1264 1263 1262 1262 1262 1262 1262 1262 1262 1263 1263 1263 1264 1264 1264 1263 1262 1262 1262 1261 1260 1258 1257 1257 1256 1256 1256 1256 1255 1255 1255 1255 1255 1255 1254 1254 1253 1253 1252 1252 1249 1248 1248 1248 1248 1247 1246 1246 1246 1246 1246 1246 1245 1245 1245 1245 1245 1245 1245 1245 1244 1244 1243 1243 1243 1243 1243 1243 1245 1246 1246 1246 1245 1245 1245 1245 1244 1243 1241 1241 1241 1240 1240 1240 1239 1238 1237 1237 1237 1237 1237 1237 1239 1239 1239 1237 1236 1236 1236 1236 1234 1232 1231 1228 1228 1227 1225 1223 1221 1220 1220 1220 1220 1220 1219 1217 1214 1212 1212 1212 1215 1215 1215 1216 1216 1217 1219 1220 1221 1226 1231 1231 1233 1234 1236 1236 1236 1236 1236 1236 1236 1235 1235 1234 1234 1233 1232 1231 1231 1231 1231 1231 1231 1231 1231 1231 1231 0 0 0 0 0 0 0 0 0 0 0 0 0 0 0 0 1023 1005 997 976 939 919 919 915 916 0 0 0 0 0 0 0 0 0 0 0 0 0 0 0 0 0 0 0 0
1559 1559 1570 1574 1587 1600 1615 1621 1622 1624 1631 1639 1650 1660 1669 1684 1690 1701 1717 1730 1740 1754 1768 1776 1785 1793 1804 1815 1826 1835 1840 1848 1862 1872 1883 1891 1897 1907 1914 1921 1927 1933 1941 1951 1962 1974 1979 1990 2005 2015 2024 2031 2042 2049 2055 2062 2065 2070 2078 2083 2092 2100 2105 2113 2118 2127 2137 2146 2156 2164 2176 2187 2194 2200 2206 2212 2215 2219 2229 2239 2248 2253 2259 2266 2274 2279 2285 2288 2292 2297 2304 2311 2317 2322 2327 2331 2335 2339 2344 2349 2352 2354 2356 2359 2363 2366 2369 2374 2379 2385 2388 2390 2394 2399 2406 2414 2419 2419 2419 2415 2413 2412 2409 2407 2404 2402 2395 2389 2383 2366 0 0 0 0 0 0 0 0 0 0 0 0 0 2644 3040 3222 3266 3281 3288 3295 3301 3303 3307 3310 3312 3312 3313 3313 3314 3316 3318 3323 3328 3333 3338 3342 3347 3349 3351 3357 3363 3370 3378 3387 3389 3390 3390 3392 3392 3392 3385 3378 3375 3375 3375 3382 3394 3405 3414 3418 3418 3418 3416 3406 3396 3385 3378 3370 3370 3369 3368 3368 3359 3351 3343 3336 3336 3336 3337 3339 3339 3337 3337 3327 3287 3216 3109 2971 2812 2650 0 0 0 2097 2092 2083 2083 2083 2077 2077 2071 2060 2060 2060 2064 2072 2073 2077 2077 2079 2079 2081 2084 2091 2093 2102 2105 2117 0 0 0 0 0 0 0 0 2237 2663 2754 2784 2811 2856 2904 3073 3156 3226 3245 3245 3245 3243 3243 3243 3246 3259 3263 3263 3263 3251 3237 3224 3204 3191 3180 3167 3150 3134 3097 3049 3006 2932 2699 0 0 0 0 2046 2035 2022 2017 2013 2009 2002 1999 1997 1993 1990 1986 1980 1977 1975 1972 1969 1962 1958 1954 1949 1941 1931 1920 1901 1887 1874 1859 1846 1838 1834 1827 1822 1818 1816 1814 1812 1810 1805 1798 1796 1792 0 0 0 0 0 1323 1315 1310 1308 1307 1307 1307 1307 1307 1306 1306 1305 1304 1304 1303 1302 1300 1300 1299 1298 1298 1298 1297 1296 1295 1295 1295 1295 1294 1293 1293 1291 1291 1291 1290 1290 1289 1289 1288 1287 1287 1286 1285 1284 1283 1281 1280 1280 1280 1278 1278 1278 1278 1278 1277 1276 1275 1275 1275 1274 1274 1274 1273 1273 1273 1273 1273 1273 1273 1273 1273 1273 1273 1273 1273 1273 1273 1272 1272 1272 1271 1271 1271 1270 1270 1270 1269 1269 1269 1269 1268 1268 1267 1267 1266 1266 1265 1264 1263 1263 1263 1263 1263 1262 1262 1262 1262 1262 1262 1262 1262 1261 1261 1260 1260 1260 1259 1257 1255 1254 1253 1253 1252 1252 1252 1251 1251 1251 1249 1249 1249 1250 1251 1251 1251 1251 1250 1250 1250 1250 1250 1250 1250 1249 1248 1248 1248 1248 1248 1248 1248 1248 1248 1248 1247 1247 1247 1246 1246 1246 1246 1246 1246 1246 1246 1246 1246 1246 1244 1244 1243 1242 1242 1241 1239 1236 1236 1236 1236 1235 1235 1234 1233 1233 1233 1235 1235 1235 1236 1236 1236 1236 1236 1236 1235 1235 1234 1233 1232 1231 1231 1231 1230 1230 1230 1229 1228 1227 1225 1225 1224 1224 1224 1222 1222 1222 1222 1224 1225 1225 1225 1225 1226 1227 1228 1230 1232 1233 1234 1234 1236 1236 1236 1236 1236 1236 1236 1235 1235 1234 1234 1232 1232 1231 1231 1231 1231 1231 1231 1231 1231 1231 1231 0 0 0 0 0 0 0 0 0 0 0 0 0 0 0 1052 1008 1005 997 980 954 941 932 930 929 920 0 0 0 0 0 0 0 0 0 0 0 0 0 0 0 0 0 0 0
1559 1559 1570 1574 1587 1600 1615 1621 1622 1624 1629 1635 1644 1655 1669 1685 1691 1707 1721 1731 1740 1754 1765 1775 1787 1800 1809 1818 1826 1835 1840 1846 1852 1863 1877 1890 1897 1910 1918 1923 1925 1933 1942 1951 1962 1974 1979 1988 2001 2012 2021 2031 2042 2049 2055 2056 2064 2070 2078 2083 2092 2100 2107 2116 2126 2132 2142 2149 2156 2163 2172 2183 2191 2199 2205 2211 2215 2219 2226 2235 2244 2251 2258 2266 2274 2279 2285 2288 2292 2297 2303 2310 2317 2322 2327 2331 2335 2339 2343 2348 2351 2353 2356 2359 2363 2366 2369 2374 2379 2382 2385 2386 2391 2399 2406 2410 2413 2415 2415 2415 2414 2412 2410 2407 2406 2402 2399 2395 2388 2365 0 0 0 0 0 0 0 0 0 0 0 0 0 2741 3071 3222 3256 3272 3288 3295 3301 3305 3308 3310 3311 3311 3313 3313 3313 3315 3316 3320 3325 3330 3335 3339 3340 3344 3350 3357 3363 3370 3378 3387 3390 3391 3392 3392 3392 3392 3387 3380 3380 3380 3381 3385 3394 3404 3408 3410 3410 3410 3409 3401 3395 3384 3378 3373 3373 3371 3371 3368 3359 3347 3336 3336 3336 3337 3346 3351 3351 3351 3351 3347 3326 3285 3217 3096 2962 2827 2623 0 0 0 2111 2100 2095 2095 2095 2095 2095 2093 2091 2090 2090 2090 2090 2112 2128 2128 0 0 0 0 0 0 0 0 0 0 0 0 0 2708 2841 2858 2867 2886 2919 2950 3125 3151 3188 3230 3248 3257 3258 3258 3258 3255 3252 3252 3252 3267 3267 3267 3263 3251 3237 3224 3208 3191 3172 3160 3150 3134 3096 3043 3005 2857 2631 0 0 0 2051 2034 2020 2015 2010 2006 1996 1995 1994 1992 1989 1987 1983 1980 1977 1974 1971 1967 1961 1956 1953 1949 1941 1933 1923 1906 1891 1879 1860 1846 1838 1834 1826 1819 1815 1813 1811 1808 1804 1802 1794 1787 1773 0 0 0 0 0 1323 1315 1310 1309 1309 1308 1308 1308 1307 1306 1305 1304 1304 1304 1303 1302 1301 1300 1299 1299 1298 1298 1298 1297 1297 1297 1296 1296 1296 1295 1295 1294 1293 1292 1291 1291 1289 1289 1288 1287 1287 1287 1286 1284 1283 1281 1279 1277 1277 1277 1277 1277 1277 1275 1275 1274 1273 1273 1272 1272 1272 1271 1271 1271 1271 1271 1271 1272 1272 1272 1272 1272 1273 1273 1273 1273 1273 1273 1273 1273 1272 1272 1272 1272 1272 1271 1271 1271 1271 1271 1270 1269 1269 1268 1268 1267 1266 1266 1265 1265 1264 1263 1263 1262 1261 1260 1260 1260 1259 1259 1258 1257 1256 1256 1255 1254 1254 1252 1249 1248 1248 1247 1247 1247 1246 1246 1246 1246 1246 1247 1247 1248 1249 1249 1250 1250 1250 1251 1251 1251 1251 1252 1252 1252 1251 1251 1251 1251 1251 1251 1251 1250 1250 1250 1249 1249 1248 1248 1248 1247 1247 1247 1247 1247 1246 1246 1246 1246 1240 1238 1236 1235 1233 1232 1230 1230 1228 1228 1228 1228 1228 1228 1227 1227 1227 1228 1229 1231 1232 1233 1233 1233 1233 1234 1234 1236 1236 1236 1236 1235 1235 1235 1234 1234 1234 1232 1232 1231 1231 1231 1231 1231 1231 1230 1228 1228 1228 1228 1228 1228 1228 1228 1229 1230 1231 1232 1233 1233 1234 1234 1236 1236 1236 1236 1236 1236 1235 1235 1235 1234 1234 1232 1232 1231 1231 1231 1231 1231 1231 1231 1231 1232 1233 1242 0 0 0 0 0 0 0 0 0 0 0 0 0 0 1041 1006 997 995 981 969 955 942 932 930 929 923 0 0 0 0 0 0 0 0 0 0 0 0 0 0 0 0 0 0
1560 1560 1570 1574 1586 1600 1619 1622 1624 1626 1629 1635 1644 1655 1669 1685 1691 1707 1721 1731 1740 1748 1759 1773 1787 1800 1809 1818 1826 1830 1836 1838 1843 1851 1867 1882 1900 1911 1918 1923 1926 1933 1943 1952 1962 1972 1977 1986 1997 2008 2018 2031 2042 2049 2051 2056 2064 2070 2082 2092 2099 2103 2107 2116 2126 2132 2142 2149 2156 2160 2167 2179 2189 2197 2205 2211 2215 2219 2223 2230 2239 2249 2258 2266 2273 2279 2285 2288 2292 2296 2302 2309 2317 2322 2326 2331 2335 2339 2343 2348 2351 2353 2356 2359 2362 2366 2369 2374 2378 2380 2383 2386 2391 2397 2402 2407 2410 2412 2412 2413 2413 2413 2411 2407 2407 2403 2399 2396 2390 2365 0 0 0 0 0 0 0 0 0 0 0 0 0 2809 3093 3222 3254 3264 3281 3292 3301 3305 3308 3310 3311 3311 3311 3313 3313 3315 3316 3320 3325 3330 3335 3339 3339 3343 3347 3355 3362 3370 3378 3387 3391 3392 3393 3392 3392 3392 3387 3384 3383 3383 3383 3385 3394 3399 3403 3403 3403 3403 3402 3394 3390 3384 3380 3380 3380 3379 3378 3369 3359 3346 3337 3337 3337 3345 3351 3353 3354 3356 3356 3356 3353 3329 3297 3246 3141 3009 2895 2638 0 0 0 0 0 2111 2111 2110 2110 2117 2110 2110 0 0 0 0 0 0 0 0 0 0 0 0 0 0 2554 2922 2946 2953 2998 3000 3005 3041 3115 3141 3169 3216 3235 3237 3242 3248 3264 3264 3264 3261 3258 3255 3255 3255 3263 3268 3268 3268 3261 3250 3238 3225 3210 3191 3172 3160 3150 3132 3094 3043 2992 2796 0 0 0 2071 2048 2028 2015 2005 2001 1996 1995 1995 1994 1991 1988 1986 1982 1979 1975 1972 1970 1967 1960 1956 1952 1948 1941 1933 1925 1919 1895 1884 1868 1846 1838 1834 1826 1818 1814 1810 1808 1806 1803 1799 1794 1785 1770 1740 0 0 0 0 1322 1315 1312 1310 1309 1308 1308 1308 1307 1306 1305 1304 1304 1303 1303 1302 1301 1300 1299 1299 1299 1299 1298 1298 1297 1297 1297 1296 1296 1296 1296 1295 1295 1293 1293 1292 1291 1290 1289 1288 1288 1287 1287 1284 1282 1281 1278 1277 1276 1276 1276 1275 1275 1275 1274 1273 1272 1271 1271 1270 1270 1270 1269 1269 1269 1269 1269 1270 1270 1270 1271 1271 1271 1272 1273 1273 1273 1274 1274 1274 1274 1274 1273 1273 1273 1272 1272 1272 1272 1271 1270 1270 1270 1269 1268 1268 1267 1266 1266 1265 1265 1263 1263 1262 1261 1260 1258 1258 1256 1256 1254 1253 1253 1252 1251 1251 1250 1248 1245 1245 1244 1244 1244 1243 1243 1243 1243 1244 1245 1245 1245 1246 1248 1248 1250 1250 1251 1252 1252 1252 1253 1253 1253 1253 1253 1253 1253 1253 1253 1252 1252 1251 1251 1251 1251 1251 1250 1250 1250 1249 1248 1247 1247 1247 1246 1246 1244 1242 1238 1235 1232 1230 1229 1227 1227 1226 1226 1224 1224 1224 1224 1224 1223 1223 1222 1222 1222 1224 1227 1228 1229 1229 1229 1232 1233 1234 1236 1236 1237 1237 1236 1236 1236 1235 1234 1233 1233 1233 1232 1232 1233 1232 1232 1232 1231 1231 1231 1231 1231 1231 1231 1231 1231 1231 1232 1233 1233 1234 1234 1235 1236 1236 1236 1236 1236 1236 1235 1235 1235 1233 1233 1232 1231 1231 1231 1231 1231 1231 1231 1231 1232 1232 1234 1241 0 0 0 0 0 0 0 0 0 0 0 0 0 0 1033 1006 1001 998 995 995 976 943 934 933 930 926 902 0 0 0 0 0 0 0 0 0 0 0 0 0 0 0 0 0
1560 1560 1570 1574 1585 1599 1619 1622 1623 1626 1628 1635 1644 1655 1669 1685 1691 1707 1721 1731 1737 1744 1755 1770 1787 1800 1809 1818 1822 1824 1829 1833 1840 1851 1866 1880 1901 1911 1919 1923 1926 1933 1943 1952 1962 1971 1976 1984 1993 2007 2017 2029 2038 2046 2050 2055 2064 2075 2085 2094 2099 2103 2107 2116 2126 2132 2142 2149 2152 2157 2165 2177 2187 2194 2203 2210 2215 2218 2223 2230 2239 2249 2258 2266 2272 2278 2283 2288 2292 2296 2301 2308 2315 2319 2323 2329 2335 2339 2343 2346 2348 2350 2353 2357 2362 2365 2369 2374 2378 2380 2383 2386 2391 2397 2402 2405 2408 2410 2412 2413 2415 2415 2415 2415 2409 2408 2403 2398 2390 0 0 0 0 0 0 0 0 0 0 0 0 0 0 2882 3157 3241 3254 3264 3276 3289 3299 3305 3308 3310 3311 3311 3311 3313 3314 3315 3316 3320 3324 3329 3334 3338 3339 3343 3347 3352 3360 3370 3378 3387 3391 3391 3391 3391 3391 3390 3387 3384 3383 3383 3383 3385 3389 3395 3400 3400 3400 3400 3397 3391 3384 3382 3381 3381 3380 3380 3378 3371 3359 3346 3345 3345 3345 3352 3354 3355 3355 3356 3360 3360 3360 3352 3338 3312 3278 3223 3152 3099 2870 2605 0 0 0 0 0 0 0 0 0 0 0 0 0 0 0 2533 2632 2735 2808 2848 2936 3018 3082 3100 3104 3108 3146 3166 3208 3242 3279 3279 3279 3273 3265 3258 3256 3253 3253 3253 3269 3269 3269 3262 3258 3258 3258 3260 3267 3271 3271 3271 3261 3250 3238 3228 3211 3194 3172 3160 3154 3132 3089 3030 2974 2724 0 0 0 2064 2042 2023 2006 1999 1995 1994 1993 1993 1993 1991 1987 1985 1980 1976 1973 1970 1967 1965 1960 1956 1952 1947 1939 1933 1929 1924 1910 1887 1878 1856 1841 1834 1826 1818 1811 1808 1805 1802 1796 1794 1789 1780 1766 1736 0 0 0 0 1322 1315 1313 1311 1309 1309 1308 1308 1307 1306 1305 1304 1304 1303 1303 1302 1302 1301 1300 1299 1299 1299 1298 1298 1298 1297 1297 1297 1296 1296 1296 1296 1295 1295 1294 1292 1291 1290 1290 1289 1288 1287 1287 1284 1282 1281 1278 1276 1275 1275 1274 1274 1274 1273 1272 1271 1270 1269 1269 1269 1269 1269 1268 1267 1267 1267 1268 1269 1269 1269 1269 1269 1271 1272 1273 1273 1274 1274 1275 1275 1275 1274 1274 1274 1273 1273 1273 1273 1272 1272 1272 1272 1271 1270 1270 1269 1268 1268 1267 1266 1265 1264 1263 1262 1261 1259 1257 1255 1255 1252 1250 1250 1250 1249 1249 1248 1247 1245 1244 1243 1242 1242 1242 1241 1240 1240 1240 1241 1243 1244 1245 1245 1247 1248 1249 1250 1251 1252 1253 1253 1254 1255 1255 1254 1254 1254 1254 1254 1254 1254 1253 1253 1253 1252 1252 1252 1251 1251 1250 1250 1249 1248 1248 1247 1247 1244 1242 1240 1236 1233 1231 1229 1227 1226 1225 1224 1223 1223 1223 1223 1223 1223 1223 1223 1222 1222 1222 1222 1224 1226 1227 1227 1227 1230 1233 1234 1236 1237 1237 1237 1237 1237 1237 1237 1236 1234 1234 1234 1233 1233 1233 1233 1233 1233 1233 1232 1232 1232 1232 1232 1232 1232 1232 1233 1234 1234 1234 1235 1235 1236 1236 1237 1237 1237 1237 1236 1236 1235 1235 1233 1233 1232 1231 1231 1231 1231 1231 1231 1231 1231 1232 1232 1234 1241 0 0 0 0 0 0 0 0 0 0 0 0 0 0 1029 1004 1004 1004 1007 1007 1007 960 936 933 932 930 902 901 0 0 0 0 0 0 0 0 0 0 0 0 0 0 0 0
1560 1560 1570 1573 1585 1599 1619 1622 1623 1626 1628 1635 1644 1654 1669 1685 1691 1703 1712 1722 1731 1739 1752 1766 1782 1797 1807 1813 1816 1819 1824 1832 1840 1851 1866 1879 1897 1911 1919 1923 1925 1932 1943 1952 1962 1971 1976 1983 1993 2003 2014 2024 2032 2040 2048 2053 2064 2075 2085 2094 2099 2103 2105 2113 2124 2128 2139 2144 2148 2153 2163 2174 2183 2191 2199 2206 2212 2218 2223 2230 2239 2249 2258 2266 2271 2277 2283 2287 2292 2296 2300 2306 2312 2317 2322 2328 2332 2338 2342 2344 2345 2348 2351 2354 2357 2363 2369 2374 2378 2380 2383 2387 2393 2397 2402 2405 2407 2410 2411 2412 2415 2415 2415 2415 2415 2413 2407 2402 0 0 0 0 0 0 0 0 0 0 0 0 0 0 2569 2964 3197 3253 3254 3264 3276 3289 3298 3303 3305 3306 3307 3308 3311 3313 3315 3316 3317 3320 3322 3325 3329 3335 3339 3343 3347 3352 3360 3370 3378 3387 3390 3390 3390 3386 3386 3385 3384 3384 3383 3383 3383 3384 3386 3391 3396 3400 3400 3400 3397 3391 3384 3382 3382 3381 3380 3380 3378 3371 3359 3346 3346 3346 3349 3352 3355 3355 3356 3356 3360 3365 3367 3367 3367 3356 3342 3317 3267 3210 3157 3080 2850 2649 2542 0 0 0 0 0 0 0 2574 2600 2616 2680 2680 2802 2830 2892 2979 3060 3124 3163 3216 3267 3293 3293 3313 3342 3342 3342 3335 3325 3310 3291 3283 3277 3273 3268 3268 3268 3272 3272 3272 3262 3258 3258 3258 3264 3273 3273 3273 3271 3258 3250 3238 3229 3217 3204 3191 3177 3155 3132 3081 3030 2910 2639 0 0 0 2063 2037 2021 2006 1997 1995 1992 1990 1990 1989 1988 1986 1981 1978 1974 1971 1968 1965 1962 1959 1956 1951 1947 1939 1933 1929 1924 1918 1898 1883 1872 1850 1836 1827 1818 1808 1805 1803 1798 1794 1789 1784 1775 1757 1736 0 0 0 0 1322 1315 1313 1311 1310 1309 1308 1308 1307 1306 1305 1304 1304 1303 1303 1302 1302 1301 1300 1300 1300 1299 1298 1298 1298 1298 1297 1297 1297 1297 1296 1296 1296 1295 1295 1293 1292 1291 1291 1290 1289 1288 1287 1285 1282 1280 1278 1276 1275 1274 1273 1273 1272 1271 1270 1269 1269 1268 1268 1268 1268 1268 1267 1266 1266 1266 1266 1267 1267 1267 1268 1269 1271 1272 1272 1273 1274 1275 1275 1275 1275 1275 1275 1275 1275 1274 1274 1274 1273 1273 1273 1272 1271 1271 1270 1270 1269 1268 1267 1266 1266 1265 1263 1262 1261 1259 1256 1254 1253 1251 1249 1249 1248 1247 1246 1246 1245 1243 1242 1241 1241 1241 1241 1240 1239 1239 1239 1240 1241 1243 1244 1244 1247 1247 1249 1249 1251 1253 1253 1254 1255 1255 1255 1255 1255 1255 1255 1255 1255 1254 1254 1254 1254 1253 1253 1252 1252 1252 1251 1251 1250 1249 1248 1247 1246 1244 1242 1240 1236 1233 1230 1228 1226 1225 1223 1222 1222 1222 1222 1222 1221 1221 1221 1221 1221 1221 1221 1221 1222 1223 1224 1224 1226 1228 1232 1234 1235 1237 1237 1237 1238 1238 1238 1237 1237 1236 1235 1235 1235 1235 1234 1234 1234 1234 1234 1234 1234 1234 1234 1234 1234 1234 1234 1234 1234 1235 1235 1236 1236 1236 1237 1237 1237 1237 1237 1236 1236 1235 1235 1233 1232 1232 1231 1231 1230 1230 1230 1230 1230 1230 1231 1232 1234 1240 0 0 0 0 0 0 0 0 0 0 0 0 0 1066 1021 1006 1006 1006 1007 1007 1007 977 950 947 933 933 933 922 892 0 0 0 0 0 0 0 0 0 0 0 0 0 0 0
1555 1555 1565 1568 1577 1592 1606 1617 1620 1623 1628 1635 1644 1654 1669 1682 1686 1696 1703 1713 1726 1739 1752 1765 1781 1792 1798 1804 1809 1816 1820 1829 1840 1852 1863 1877 1896 1910 1919 1923 1925 1929 1935 1945 1957 1967 1973 1983 1992 2003 2009 2016 2023 2034 2043 2053 2064 2075 2085 2094 2097 2099 2102 2110 2121 2126 2136 2142 2146 2151 2160 2169 2176 2185 2195 2203 2209 2217 2226 2234 2244 2251 2258 2266 2271 2275 2282 2287 2289 2293 2298 2304 2311 2317 2321 2326 2330 2334 2337 2339 2343 2346 2348 2351 2355 2361 2369 2374 2378 2380 2384 2389 2394 2397 2401 2405 2407 2408 2410 2411 2415 2415 2415 2415 2415 2413 2412 2402 0 0 0 0 0 0 0 0 0 0 0 0 0 0 2624 2993 3213 3259 3261 3265 3276 3289 3298 3302 3305 3305 3305 3307 3311 3313 3316 3319 3319 3320 3320 3320 3324 3331 3339 3343 3347 3352 3360 3369 3376 3385 3385 3385 3385 3381 3381 3381 3382 3382 3382 3382 3382 3382 3383 3391 3396 3400 3400 3400 3397 3391 3384 3382 3382 3380 3380 3380 3375 3369 3360 3353 3349 3349 3349 3352 3355 3355 3356 3356 3358 3365 3371 3372 3373 3373 3372 3368 3333 3291 3252 3219 3157 3102 3070 3021 2941 2926 2921 2914 2907 2887 2834 2834 2834 2889 3033 3133 3152 3267 3275 3279 3285 3296 3327 3342 3347 3357 3366 3370 3370 3370 3351 3339 3329 3314 3308 3302 3295 3286 3283 3283 3280 3280 3275 3267 3259 3259 3259 3270 3277 3277 3277 3268 3257 3249 3241 3231 3224 3215 3206 3184 3155 3123 3062 3020 2876 2526 0 0 2077 2051 2035 2019 2005 1997 1995 1992 1989 1988 1988 1985 1982 1979 1975 1972 1968 1965 1963 1960 1958 1955 1951 1946 1939 1933 1929 1924 1918 1904 1887 1878 1866 1844 1827 1818 1808 1805 1800 1796 1792 1787 1781 1774 1757 1739 0 0 0 0 1322 1315 1313 1311 1309 1309 1308 1307 1307 1306 1305 1304 1304 1303 1303 1302 1302 1301 1301 1300 1300 1300 1299 1299 1298 1298 1298 1297 1297 1297 1297 1296 1296 1295 1295 1294 1294 1293 1292 1291 1289 1288 1287 1285 1282 1279 1277 1275 1274 1273 1271 1270 1270 1270 1269 1269 1268 1268 1268 1268 1268 1267 1266 1265 1265 1265 1265 1266 1266 1266 1267 1269 1270 1272 1272 1273 1274 1275 1275 1276 1276 1275 1275 1275 1275 1275 1275 1274 1274 1273 1273 1272 1272 1271 1271 1270 1270 1269 1269 1268 1267 1265 1263 1262 1260 1259 1256 1253 1252 1250 1249 1248 1247 1246 1246 1245 1244 1243 1242 1240 1240 1240 1239 1238 1238 1238 1238 1239 1240 1240 1241 1242 1246 1246 1248 1249 1251 1253 1253 1254 1255 1256 1256 1256 1256 1256 1256 1256 1255 1255 1255 1255 1255 1255 1254 1253 1253 1253 1252 1252 1251 1250 1248 1247 1246 1244 1242 1240 1236 1233 1230 1227 1226 1224 1223 1222 1221 1221 1221 1220 1220 1219 1219 1219 1219 1220 1220 1220 1221 1221 1221 1222 1224 1226 1230 1233 1234 1235 1237 1238 1238 1238 1239 1239 1239 1237 1237 1236 1236 1236 1235 1235 1236 1236 1236 1236 1236 1235 1235 1235 1235 1235 1235 1235 1236 1236 1236 1236 1237 1237 1237 1237 1237 1237 1237 1236 1236 1235 1234 1233 1232 1231 1230 1230 1230 1230 1230 1230 1230 1230 1230 1231 1231 1240 0 0 0 0 0 0 0 0 0 0 0 0 0 1053 1021 1021 1021 1035 1035 1035 1007 977 971 971 971 971 971 951 914 0 0 0 0 0 0 0 0 0 0 0 0 0 0 0
1549 1549 1556 1560 1567 1578 1591 1604 1611 1616 1620 1628 1640 1649 1661 1674 1679 1690 1696 1709 1723 1739 1752 1765 1777 1788 1794 1799 1806 1813 1817 1829 1840 1852 1864 1877 1896 1907 1915 1920 1924 1926 1930 1940 1952 1963 1968 1979 1990 1998 2003 2009 2019 2030 2041 2051 2061 2070 2078 2083 2089 2094 2102 2110 2121 2126 2134 2141 2145 2151 2158 2166 2173 2183 2193 2200 2207 2217 2226 2234 2244 2251 2258 2265 2269 2275 2280 2284 2287 2292 2297 2303 2311 2317 2321 2324 2329 2331 2332 2335 2339 2343 2348 2350 2355 2361 2368 2374 2378 2380 2384 2389 2394 2397 2401 2404 2406 2407 2407 2408 2410 2412 2413 2413 2413 2413 2412 2402 0 0 0 0 0 0 0 0 0 0 0 0 0 0 2788 3100 3215 3261 3273 3277 3285 3292 3298 3300 3303 3303 3304 3307 3310 3315 3319 3320 3320 3320 3320 3320 3322 3330 3339 3343 3353 3358 3362 3367 3373 3379 3381 3381 3381 3381 3381 3381 3382 3382 3382 3382 3382 3382 3383 3389 3396 3401 3401 3401 3400 3393 3385 3382 3381 3380 3380 3379 3372 3365 3360 3357 3353 3352 3352 3352 3355 3355 3355 3356 3356 3356 3370 3374 3376 3378 3376 3376 3370 3348 3328 3312 3279 3254 3225 3199 3193 3176 3158 3158 3158 3177 3193 3202 3280 3364 3364 3364 3358 3357 3357 3357 3359 3365 3365 3367 3368 3369 3378 3379 3379 3379 3365 3354 3349 3344 3335 3329 3315 3302 3295 3292 3291 3288 3285 3275 3268 3268 3268 3277 3277 3277 3277 3268 3258 3251 3241 3235 3224 3215 3206 3184 3155 3113 3039 3002 2800 0 0 0 2047 2035 2022 2013 2000 1995 1994 1992 1989 1987 1985 1982 1979 1977 1974 1971 1967 1964 1962 1958 1955 1954 1951 1946 1939 1932 1929 1923 1918 1907 1891 1881 1870 1850 1831 1818 1808 1804 1800 1794 1788 1784 1780 1773 1757 1736 0 0 0 0 1322 1313 1313 1311 1309 1309 1307 1306 1306 1306 1305 1304 1304 1303 1303 1302 1302 1302 1301 1300 1300 1300 1299 1299 1298 1298 1298 1297 1297 1297 1297 1296 1296 1296 1295 1295 1294 1293 1292 1291 1289 1288 1287 1285 1282 1279 1277 1275 1273 1271 1271 1270 1269 1269 1269 1269 1268 1267 1267 1267 1266 1266 1266 1265 1265 1265 1265 1265 1265 1266 1267 1269 1270 1272 1272 1273 1274 1275 1275 1276 1276 1276 1276 1276 1275 1275 1275 1274 1274 1274 1273 1273 1273 1272 1271 1271 1270 1270 1269 1268 1267 1265 1263 1262 1259 1257 1255 1252 1251 1250 1249 1248 1247 1246 1245 1245 1244 1243 1241 1240 1240 1239 1238 1237 1237 1237 1237 1237 1238 1239 1240 1241 1244 1246 1248 1249 1251 1253 1253 1255 1255 1256 1256 1256 1256 1256 1256 1256 1256 1256 1256 1256 1255 1255 1255 1254 1254 1253 1253 1252 1251 1251 1248 1247 1246 1244 1242 1239 1235 1232 1230 1227 1225 1224 1223 1221 1220 1219 1219 1219 1217 1217 1217 1217 1217 1217 1219 1219 1219 1219 1219 1220 1222 1225 1229 1232 1234 1235 1237 1238 1239 1240 1240 1240 1239 1238 1238 1238 1238 1238 1237 1237 1237 1237 1237 1237 1237 1237 1236 1236 1236 1236 1236 1237 1237 1237 1237 1237 1237 1237 1237 1237 1237 1237 1237 1236 1236 1235 1234 1233 1232 1231 1230 1230 1229 1229 1229 1229 1229 1230 1229 1230 1230 1234 0 0 0 0 0 0 0 0 0 0 0 0 0 1043 1024 1024 1024 1035 1035 1035 992 977 971 971 971 971 971 951 924 911 0 0 0 0 0 0 0 0 0 0 0 0 0 0
1543 1543 1552 1554 1565 1576 1587 1595 1605 1612 1617 1628 1640 1649 1659 1668 1674 1684 1692 1709 1723 1739 1753 1765 1774 1785 1794 1799 1806 1813 1817 1829 1841 1853 1864 1875 1886 1895 1903 1912 1919 1923 1929 1935 1944 1956 1960 1972 1984 1993 1997 2003 2014 2027 2041 2051 2060 2067 2073 2078 2083 2090 2099 2108 2119 2124 2132 2138 2145 2151 2158 2165 2173 2183 2193 2200 2207 2216 2226 2234 2244 2251 2257 2261 2265 2270 2276 2280 2285 2290 2297 2303 2311 2317 2320 2323 2326 2329 2332 2333 2336 2341 2346 2350 2355 2361 2367 2373 2376 2379 2384 2389 2394 2396 2400 2403 2406 2406 2407 2407 2407 2407 2409 2409 2411 2411 2411 2401 0 0 0 0 0 0 0 0 0 0 0 0 0 0 2840 3100 3219 3266 3280 3286 3293 3297 3298 3300 3302 3302 3304 3306 3310 3315 3319 3320 3320 3320 3320 3320 3322 3328 3337 3343 3353 3360 3364 3367 3370 3376 3379 3379 3379 3379 3379 3381 3382 3382 3382 3382 3382 3382 3382 3389 3396 3401 3401 3401 3400 3393 3385 3382 3380 3379 3376 3373 3369 3365 3362 3358 3354 3351 3351 3351 3354 3354 3354 3356 3356 3356 3370 3377 3379 3382 3382 3382 3382 3382 3373 3359 3348 3334 3334 3331 3329 3329 3296 3286 3286 3286 3326 3338 3361 3364 3365 3368 3374 3378 3379 3379 3380 3383 3386 3386 3388 3391 3398 3398 3398 3386 3379 3373 3371 3368 3364 3349 3332 3315 3305 3300 3300 3299 3296 3289 3281 3281 3281 3285 3285 3285 3277 3268 3261 3253 3243 3235 3226 3215 3206 3184 3150 3107 3039 2944 2696 0 0 0 2039 2022 2014 2000 1994 1994 1992 1992 1989 1986 1983 1981 1978 1976 1973 1969 1966 1963 1959 1956 1954 1953 1948 1944 1936 1932 1926 1923 1918 1911 1902 1886 1876 1858 1836 1820 1811 1804 1798 1792 1788 1784 1780 1772 1757 1736 0 0 0 0 1316 1310 1310 1308 1308 1308 1306 1306 1306 1306 1305 1305 1304 1303 1303 1302 1302 1302 1301 1301 1300 1300 1299 1299 1298 1298 1298 1298 1297 1297 1297 1297 1296 1296 1295 1295 1294 1293 1292 1291 1289 1288 1287 1285 1282 1279 1275 1274 1273 1271 1271 1270 1269 1269 1269 1269 1268 1267 1267 1266 1265 1265 1265 1265 1264 1264 1265 1265 1265 1265 1265 1268 1270 1271 1272 1273 1275 1275 1276 1276 1276 1276 1276 1276 1276 1276 1275 1275 1275 1274 1274 1274 1273 1273 1272 1271 1271 1270 1269 1268 1267 1265 1263 1261 1258 1257 1254 1252 1251 1250 1248 1247 1246 1245 1244 1244 1244 1242 1241 1240 1239 1238 1237 1237 1236 1236 1236 1236 1236 1238 1239 1241 1244 1245 1248 1249 1251 1253 1254 1255 1255 1256 1256 1256 1256 1256 1256 1256 1256 1256 1256 1256 1256 1255 1255 1255 1254 1254 1254 1252 1251 1251 1248 1246 1245 1243 1240 1237 1235 1231 1227 1225 1223 1223 1220 1219 1218 1217 1217 1217 1216 1215 1214 1214 1214 1214 1215 1216 1217 1217 1218 1219 1221 1225 1228 1231 1233 1235 1236 1238 1240 1240 1240 1240 1240 1239 1239 1239 1239 1239 1239 1238 1238 1238 1238 1238 1238 1238 1238 1238 1238 1237 1237 1237 1238 1238 1238 1238 1238 1238 1238 1238 1238 1237 1236 1236 1235 1235 1233 1233 1232 1231 1230 1229 1229 1229 1229 1229 1229 1230 1229 1230 1230 1233 0 0 0 0 0 0 0 0 0 0 0 0 0 1043 1043 1043 1043 1043 1043 1035 992 959 959 959 971 971 971 951 924 911 867 0 0 0 0 0 0 0 0 0 0 0 0 0
1541 1541 1551 1554 1564 1576 1587 1595 1602 1612 1617 1627 1639 1649 1659 1668 1674 1684 1692 1709 1723 1741 1753 1765 1774 1784 1794 1799 1806 1813 1817 1829 1841 1853 1863 1872 1879 1887 1893 1902 1910 1917 1926 1934 1943 1950 1955 1965 1977 1986 1993 2001 2012 2025 2039 2049 2060 2066 2072 2078 2081 2088 2096 2106 2115 2121 2129 2135 2142 2149 2158 2165 2173 2183 2193 2200 2207 2216 2223 2232 2238 2241 2248 2254 2259 2265 2271 2278 2284 2289 2297 2303 2312 2317 2320 2322 2326 2329 2331 2333 2334 2338 2343 2349 2355 2362 2367 2371 2373 2377 2381 2386 2388 2389 2394 2398 2402 2405 2406 2407 2407 2407 2407 2407 2407 2407 2407 2390 0 0 0 0 0 0 0 0 0 0 0 0 0 0 2875 3119 3222 3266 3284 3292 3296 3297 3298 3299 3300 3302 3303 3305 3310 3315 3319 3320 3320 3320 3320 3320 3321 3322 3330 3341 3353 3360 3364 3366 3369 3374 3379 3379 3379 3379 3379 3380 3383 3383 3383 3382 3382 3382 3382 3387 3394 3400 3400 3400 3400 3393 3385 3377 3372 3371 3369 3369 3367 3365 3362 3358 3354 3351 3351 3351 3354 3355 3355 3356 3356 3356 3370 3377 3382 3383 3385 3386 3386 3386 3378 3378 3378 3380 3394 3394 3394 3387 3375 3352 3339 3339 3339 3339 3361 3364 3367 3368 3374 3383 3386 3391 3396 3398 3399 3399 3401 3406 3416 3419 3419 3419 3397 3391 3387 3383 3372 3356 3341 3330 3315 3310 3307 3307 3305 3301 3293 3293 3292 3292 3292 3285 3278 3269 3261 3253 3243 3235 3226 3211 3196 3171 3142 3095 3038 2928 2641 0 0 2048 2030 2015 2002 1995 1993 1992 1990 1990 1987 1985 1982 1980 1977 1974 1972 1968 1965 1961 1958 1955 1953 1950 1946 1941 1934 1929 1926 1922 1917 1912 1906 1892 1882 1871 1846 1827 1812 1804 1798 1792 1788 1784 1778 1772 1757 1734 0 0 0 0 1316 1310 1310 1308 1308 1307 1306 1306 1306 1306 1305 1304 1304 1304 1303 1302 1302 1302 1301 1301 1300 1300 1299 1299 1298 1298 1298 1298 1297 1297 1297 1297 1296 1296 1295 1295 1294 1293 1292 1291 1289 1288 1287 1285 1282 1279 1275 1273 1272 1271 1270 1270 1269 1269 1269 1269 1268 1267 1267 1266 1265 1265 1264 1264 1264 1264 1264 1264 1264 1265 1265 1267 1268 1270 1272 1273 1275 1275 1276 1276 1276 1276 1276 1276 1276 1276 1275 1275 1275 1275 1274 1274 1273 1273 1272 1272 1271 1270 1269 1268 1267 1264 1262 1260 1258 1256 1254 1252 1251 1249 1248 1247 1245 1245 1244 1244 1243 1242 1240 1239 1238 1237 1236 1236 1235 1235 1235 1235 1236 1238 1239 1240 1243 1245 1248 1249 1251 1253 1254 1255 1255 1256 1256 1256 1257 1257 1257 1257 1256 1256 1256 1256 1256 1255 1255 1255 1255 1254 1254 1253 1252 1251 1248 1245 1245 1243 1239 1236 1233 1228 1225 1223 1222 1220 1219 1217 1217 1216 1216 1216 1215 1214 1213 1213 1213 1213 1214 1215 1215 1217 1217 1219 1221 1224 1228 1231 1233 1235 1236 1238 1240 1241 1241 1241 1241 1240 1239 1239 1239 1239 1239 1239 1239 1239 1239 1239 1239 1239 1239 1239 1238 1238 1238 1238 1238 1238 1238 1238 1238 1238 1238 1238 1238 1237 1236 1236 1235 1234 1233 1233 1232 1231 1230 1229 1229 1229 1229 1230 1230 1230 1230 1230 1230 1232 0 0 0 0 0 0 0 0 0 0 0 0 0 1028 1028 1028 1043 1043 1043 1035 992 959 957 957 950 950 950 927 914 885 863 855 0 0 0 0 0 0 0 0 0 0 0 0
1538 1538 1550 1554 1564 1576 1587 1595 1602 1611 1617 1627 1638 1649 1659 1668 1674 1684 1692 1709 1727 1741 1753 1765 1773 1784 1793 1802 1807 1816 1821 1829 1839 1852 1863 1872 1878 1883 1889 1897 1907 1916 1925 1934 1943 1950 1955 1961 1971 1981 1990 2001 2012 2024 2036 2048 2059 2066 2070 2075 2080 2086 2094 2102 2113 2117 2124 2132 2141 2148 2157 2165 2176 2186 2194 2200 2207 2215 2221 2227 2230 2234 2239 2245 2251 2261 2270 2278 2284 2288 2295 2304 2312 2316 2318 2319 2324 2329 2331 2333 2334 2335 2342 2349 2355 2362 2367 2370 2372 2374 2379 2382 2383 2385 2388 2393 2399 2402 2405 2405 2405 2405 2405 2402 2401 2401 2400 2384 0 0 0 0 0 0 0 0 0 0 0 0 0 2604 2997 3160 3238 3266 3284 3292 3296 3296 3297 3297 3297 3298 3300 3303 3306 3311 3316 3319 3319 3319 3319 3319 3319 3322 3329 3337 3351 3360 3364 3366 3367 3371 3374 3376 3376 3377 3377 3380 3383 3383 3383 3382 3380 3380 3380 3383 3385 3391 3391 3391 3387 3383 3375 3370 3368 3368 3367 3367 3366 3364 3362 3358 3354 3352 3352 3352 3352 3355 3356 3356 3360 3366 3379 3382 3385 3390 3392 3392 3392 3388 3384 3384 3384 3395 3410 3410 3410 3409 3399 3387 3377 3357 3357 3357 3377 3378 3383 3384 3385 3387 3391 3404 3413 3413 3414 3415 3416 3426 3435 3435 3435 3427 3421 3416 3405 3392 3373 3356 3344 3335 3329 3319 3314 3310 3307 3303 3302 3299 3298 3298 3292 3285 3278 3271 3264 3255 3249 3239 3226 3211 3196 3171 3142 3087 3038 2902 2629 0 0 2044 2017 2004 2002 1994 1990 1988 1987 1987 1985 1983 1981 1978 1976 1973 1970 1967 1963 1959 1956 1954 1951 1948 1944 1939 1932 1928 1926 1922 1917 1913 1906 1896 1886 1874 1858 1833 1817 1804 1795 1791 1787 1783 1777 1768 1752 1730 0 0 0 0 1316 1310 1310 1308 1308 1307 1306 1306 1306 1306 1305 1304 1304 1303 1303 1302 1302 1302 1301 1300 1300 1299 1299 1299 1298 1298 1298 1297 1297 1297 1297 1296 1296 1295 1295 1295 1294 1293 1292 1291 1289 1288 1286 1285 1282 1279 1275 1273 1272 1271 1270 1270 1269 1269 1268 1267 1266 1266 1265 1265 1265 1264 1264 1264 1264 1264 1264 1264 1264 1264 1265 1266 1267 1270 1272 1273 1275 1275 1276 1276 1276 1276 1276 1276 1276 1276 1275 1275 1275 1275 1274 1274 1273 1273 1272 1272 1271 1270 1269 1268 1266 1264 1262 1260 1257 1255 1253 1251 1250 1248 1247 1246 1245 1244 1244 1242 1241 1240 1239 1239 1238 1237 1236 1235 1235 1235 1235 1235 1236 1237 1238 1240 1242 1245 1248 1249 1251 1253 1254 1255 1255 1256 1256 1257 1257 1257 1257 1257 1256 1256 1256 1256 1256 1256 1256 1256 1255 1255 1254 1253 1252 1250 1248 1245 1244 1242 1239 1235 1231 1227 1225 1223 1221 1220 1218 1217 1216 1215 1215 1214 1214 1213 1212 1212 1212 1212 1212 1213 1214 1216 1216 1217 1219 1224 1228 1231 1233 1235 1236 1237 1239 1241 1241 1241 1241 1241 1240 1240 1240 1240 1240 1240 1239 1239 1239 1239 1239 1239 1239 1239 1239 1239 1238 1238 1239 1238 1238 1238 1238 1238 1238 1238 1238 1237 1236 1235 1235 1234 1233 1232 1231 1231 1230 1228 1228 1228 1228 1230 1231 1231 1231 1231 1232 1232 0 0 0 0 0 0 0 0 0 0 0 0 0 1011 1011 1028 1048 1048 1048 1043 0 0 938 935 931 930 930 927 914 885 873 855 0 0 0 0 0 0 983 991 991 0 0 0
1537 1537 1549 1555 1564 1576 1587 1592 1600 1611 1617 1627 1639 1650 1661 1672 1678 1686 1699 1712 1727 1741 1753 1763 1773 1783 1793 1802 1808 1816 1821 1829 1839 1851 1860 1870 1875 1878 1884 1894 1906 1916 1925 1934 1943 1950 1955 1961 1969 1980 1989 2000 2012 2024 2035 2047 2059 2064 2068 2073 2078 2083 2091 2099 2106 2111 2121 2130 2139 2147 2157 2167 2179 2188 2194 2200 2207 2213 2218 2223 2226 2232 2236 2240 2246 2257 2267 2275 2283 2288 2295 2304 2312 2315 2315 2317 2321 2326 2330 2332 2332 2335 2341 2348 2355 2362 2367 2369 2370 2372 2376 2379 2380 2382 2385 2389 2393 2398 2404 2404 2404 2404 2404 2400 2399 2398 2396 2381 0 0 0 0 0 0 0 0 0 0 0 0 0 2658 3009 3184 3246 3267 3284 3292 3292 3293 3294 3294 3295 3297 3299 3301 3304 3306 3309 3313 3316 3316 3316 3316 3318 3322 3329 3337 3347 3358 3363 3365 3366 3368 3372 3374 3375 3375 3377 3380 3383 3383 3383 3382 3378 3378 3378 3378 3379 3379 3379 3376 3373 3364 3363 3363 3363 3363 3366 3366 3366 3363 3361 3356 3354 3352 3352 3352 3352 3353 3356 3357 3365 3376 3384 3389 3394 3396 3397 3397 3397 3389 3389 3389 3390 3404 3412 3412 3412 3412 3406 3400 3395 3375 3375 3375 3378 3379 3383 3384 3387 3391 3404 3420 3431 3435 3435 3435 3437 3437 3435 3435 3435 3427 3423 3418 3408 3392 3374 3357 3344 3335 3330 3326 3319 3312 3307 3303 3302 3302 3300 3298 3292 3282 3278 3271 3264 3260 3254 3243 3230 3211 3196 3171 3142 3079 3032 2889 2600 0 0 2039 2010 2002 2001 1993 1987 1986 1986 1985 1982 1981 1980 1977 1974 1971 1968 1965 1961 1958 1954 1952 1949 1946 1942 1938 1932 1928 1925 1921 1917 1913 1906 1898 1890 1874 1862 1836 1819 1804 1795 1792 1787 1783 1776 1765 1751 1730 0 0 0 0 1320 1312 1311 1310 1308 1307 1306 1306 1306 1306 1305 1304 1304 1303 1303 1302 1302 1302 1301 1300 1300 1299 1299 1299 1298 1298 1298 1297 1297 1297 1297 1296 1296 1295 1295 1295 1294 1293 1292 1291 1289 1287 1286 1285 1282 1280 1275 1273 1272 1271 1270 1270 1269 1268 1267 1266 1266 1265 1265 1265 1264 1263 1263 1263 1263 1263 1263 1263 1264 1264 1265 1265 1266 1270 1272 1273 1275 1275 1276 1276 1276 1276 1276 1276 1276 1276 1276 1275 1275 1275 1274 1274 1273 1273 1272 1272 1271 1270 1269 1268 1266 1264 1262 1260 1257 1255 1253 1251 1250 1248 1246 1246 1244 1243 1242 1241 1240 1240 1238 1237 1237 1236 1236 1235 1235 1235 1235 1235 1236 1237 1238 1239 1242 1246 1248 1250 1252 1253 1254 1255 1255 1256 1257 1257 1257 1257 1257 1257 1256 1256 1256 1256 1256 1256 1256 1256 1255 1255 1254 1253 1252 1250 1248 1246 1244 1241 1238 1233 1230 1227 1225 1222 1221 1219 1218 1217 1215 1214 1213 1213 1212 1212 1211 1211 1211 1211 1212 1212 1212 1213 1215 1216 1218 1222 1227 1230 1231 1235 1236 1237 1239 1241 1241 1241 1241 1241 1241 1240 1240 1240 1240 1240 1240 1240 1240 1240 1240 1239 1239 1239 1239 1239 1239 1239 1239 1239 1239 1239 1238 1238 1238 1238 1237 1237 1236 1235 1235 1234 1233 1232 1231 1230 1230 1228 1228 1228 1228 1230 1231 1231 1231 1231 1232 1232 0 0 0 0 0 0 0 0 0 0 0 0 0 1011 1011 1017 1044 1061 1061 1061 0 0 0 935 931 930 930 927 924 885 873 873 0 0 0 0 0 987 1015 1015 1015 999 0 0
1537 1537 1548 1555 1564 1576 1587 1592 1599 1611 1620 1628 1640 1650 1662 1677 1684 1692 1699 1712 1727 1736 1746 1756 1767 1782 1793 1802 1808 1816 1821 1825 1833 1843 1854 1863 1867 1873 1881 1894 1905 1916 1925 1936 1946 1950 1953 1960 1968 1978 1988 2000 2011 2024 2034 2046 2056 2058 2063 2070 2075 2083 2089 2095 2101 2109 2114 2127 2138 2147 2157 2167 2179 2188 2194 2200 2206 2212 2217 2222 2226 2231 2235 2239 2243 2252 2263 2272 2279 2288 2294 2304 2311 2312 2313 2315 2319 2322 2328 2330 2332 2335 2340 2348 2355 2362 2366 2367 2368 2370 2373 2376 2378 2380 2383 2386 2389 2393 2398 2404 2404 2404 2403 2400 2399 2391 2391 2372 0 0 0 0 0 0 0 0 0 0 0 0 0 2686 3031 3211 3252 3269 3283 3290 3290 3292 3293 3293 3294 3297 3299 3301 3302 3304 3305 3308 3311 3313 3314 3314 3316 3322 3329 3337 3344 3352 3360 3363 3364 3367 3369 3373 3374 3375 3375 3376 3377 3377 3377 3377 3371 3371 3371 3368 3368 3364 3354 3351 3348 3348 3349 3349 3358 3363 3365 3365 3365 3362 3357 3356 3355 3354 3354 3353 3353 3353 3356 3360 3372 3381 3386 3394 3399 3400 3402 3402 3402 3398 3393 3393 3393 3405 3415 3415 3415 3415 3411 3406 3400 3394 3386 3382 3382 3382 3383 3410 3421 3428 3432 3441 3448 3448 3448 3447 3442 3442 3439 3437 3433 3428 3423 3418 3408 3395 3374 3357 3346 3338 3331 3329 3321 3312 3307 3304 3304 3302 3302 3298 3291 3281 3276 3271 3264 3260 3254 3244 3231 3214 3197 3177 3145 3077 3015 2818 2519 0 0 2034 2007 2000 1999 1993 1986 1985 1984 1983 1982 1980 1977 1975 1973 1970 1967 1964 1960 1957 1954 1950 1948 1944 1940 1936 1931 1927 1924 1920 1916 1912 1906 1898 1890 1877 1867 1844 1829 1811 1795 1792 1787 1783 1776 1765 1749 1730 0 0 0 0 1321 1312 1311 1310 1310 1309 1307 1307 1306 1305 1305 1304 1304 1303 1303 1302 1302 1302 1301 1300 1300 1299 1299 1298 1298 1298 1297 1297 1297 1297 1297 1296 1296 1295 1295 1294 1294 1293 1292 1290 1289 1287 1286 1285 1282 1280 1276 1274 1272 1271 1271 1270 1269 1267 1266 1266 1265 1265 1265 1265 1264 1263 1263 1263 1263 1263 1263 1263 1264 1264 1265 1265 1266 1270 1272 1273 1274 1275 1276 1276 1276 1276 1276 1276 1276 1276 1276 1275 1275 1274 1274 1274 1273 1273 1272 1272 1271 1269 1268 1267 1266 1264 1262 1260 1257 1255 1253 1251 1248 1247 1246 1245 1244 1243 1241 1240 1240 1239 1238 1237 1237 1236 1236 1235 1235 1235 1235 1235 1236 1237 1238 1239 1242 1246 1248 1250 1252 1253 1254 1255 1255 1256 1257 1257 1257 1257 1257 1257 1256 1256 1256 1256 1256 1256 1256 1256 1255 1255 1254 1253 1252 1250 1248 1246 1243 1241 1238 1233 1230 1227 1225 1222 1221 1219 1218 1216 1214 1213 1212 1212 1211 1210 1210 1210 1210 1210 1211 1211 1211 1212 1213 1215 1217 1221 1224 1227 1231 1234 1236 1237 1239 1241 1241 1241 1241 1241 1241 1240 1240 1240 1240 1240 1240 1240 1240 1240 1240 1240 1240 1239 1239 1239 1239 1239 1239 1239 1239 1239 1238 1238 1238 1238 1237 1237 1236 1235 1234 1234 1233 1232 1231 1230 1229 1228 1228 1228 1228 1230 1231 1231 1231 1231 1232 1232 0 0 0 0 0 0 0 0 0 0 0 0 0 1008 1008 1008 1042 1067 1067 1067 1056 0 0 949 931 930 930 929 926 926 915 915 0 0 0 0 0 1029 1015 1015 1015 1007 0 0
1532 1532 1542 1555 1558 1572 1581 1588 1598 1611 1620 1630 1642 1653 1662 1677 1684 1692 1699 1712 1720 1726 1738 1750 1764 1778 1791 1800 1808 1814 1821 1825 1831 1840 1851 1858 1865 1872 1881 1894 1905 1916 1927 1938 1946 1950 1953 1958 1961 1972 1982 1998 2011 2022 2034 2046 2051 2055 2058 2065 2073 2082 2089 2094 2100 2109 2114 2127 2136 2147 2157 2167 2179 2188 2193 2198 2203 2210 2215 2221 2226 2230 2235 2239 2242 2249 2258 2267 2275 2285 2289 2300 2306 2309 2310 2312 2317 2319 2323 2326 2330 2333 2338 2345 2352 2359 2362 2364 2367 2370 2372 2372 2375 2376 2380 2383 2385 2388 2391 2396 2398 2398 2398 2398 2397 2390 2389 2360 0 0 0 0 0 0 0 0 0 0 0 0 0 2706 3051 3221 3253 3271 3280 3288 3290 3290 3292 3293 3294 3297 3298 3300 3301 3303 3305 3307 3310 3310 3310 3311 3316 3322 3331 3337 3344 3352 3360 3363 3364 3364 3368 3371 3374 3375 3375 3376 3376 3376 3374 3369 3365 3365 3359 3358 3356 3338 3303 3303 3303 3306 3310 3331 3353 3363 3365 3365 3365 3359 3358 3358 3358 3358 3358 3355 3355 3355 3359 3371 3380 3387 3389 3395 3399 3400 3404 3408 3408 3408 3399 3399 3399 3408 3415 3418 3418 3418 3416 3410 3406 3401 3401 3401 3410 3422 3429 3433 3438 3441 3445 3451 3451 3451 3450 3449 3448 3447 3442 3439 3433 3428 3424 3418 3408 3395 3374 3357 3346 3339 3335 3333 3325 3314 3307 3304 3304 3304 3302 3295 3287 3279 3272 3268 3264 3260 3254 3244 3231 3217 3199 3182 3147 3077 3010 2792 0 0 0 2020 2001 1998 1997 1991 1986 1984 1983 1982 1980 1978 1976 1974 1972 1968 1965 1962 1959 1956 1952 1949 1946 1943 1939 1935 1930 1927 1922 1917 1915 1911 1904 1898 1890 1877 1868 1858 1834 1816 1800 1792 1785 1779 1772 1763 1749 1729 0 0 0 0 1321 1312 1311 1310 1310 1309 1308 1307 1306 1305 1305 1304 1304 1303 1303 1302 1302 1302 1301 1300 1300 1299 1298 1298 1298 1297 1297 1297 1297 1296 1296 1295 1295 1294 1294 1294 1293 1292 1291 1290 1289 1287 1286 1285 1282 1280 1276 1274 1272 1272 1271 1270 1268 1267 1266 1265 1265 1265 1265 1265 1263 1263 1263 1263 1263 1263 1263 1263 1264 1264 1265 1265 1267 1270 1271 1273 1274 1275 1276 1276 1276 1276 1276 1276 1276 1276 1275 1275 1275 1274 1274 1274 1273 1272 1272 1272 1270 1269 1268 1267 1266 1264 1262 1260 1257 1255 1253 1249 1248 1247 1246 1245 1244 1243 1241 1240 1240 1239 1238 1237 1237 1236 1236 1235 1235 1235 1235 1235 1237 1237 1238 1239 1242 1246 1248 1250 1252 1252 1254 1255 1255 1256 1256 1256 1256 1256 1256 1256 1256 1256 1256 1256 1256 1256 1256 1256 1255 1255 1254 1253 1251 1250 1248 1246 1243 1240 1236 1232 1230 1227 1224 1222 1220 1219 1218 1216 1214 1213 1211 1211 1210 1209 1209 1209 1209 1209 1210 1210 1211 1212 1213 1214 1216 1220 1224 1226 1230 1233 1234 1236 1239 1240 1240 1241 1241 1241 1241 1241 1241 1240 1240 1240 1240 1240 1240 1240 1240 1240 1240 1239 1239 1239 1239 1239 1239 1239 1239 1239 1238 1238 1238 1238 1237 1237 1236 1235 1234 1233 1233 1232 1231 1230 1229 1228 1228 1228 1228 1228 1229 1229 1229 1229 1229 1231 0 0 0 0 0 0 0 0 0 0 0 0 0 0 1012 1012 1039 1067 1067 1067 1056 0 0 0 982 966 962 960 960 937 932 0 0 0 0 0 0 1029 1015 1015 1015 1007 0 0
1525 1525 1537 1548 1551 1565 1574 1585 1598 1609 1620 1630 1642 1653 1661 1677 1684 1692 1697 1704 1712 1723 1736 1750 1764 1777 1789 1797 1805 1812 1820 1824 1831 1840 1850 1858 1865 1872 1881 1894 1905 1916 1927 1939 1946 1949 1950 1954 1957 1963 1975 1991 2007 2019 2031 2042 2050 2053 2058 2065 2073 2082 2089 2094 2100 2109 2114 2127 2135 2145 2157 2166 2179 2187 2192 2196 2201 2206 2210 2217 2224 2230 2235 2237 2239 2246 2255 2265 2274 2285 2289 2297 2300 2303 2306 2309 2313 2316 2319 2321 2326 2330 2335 2342 2349 2355 2359 2362 2366 2368 2370 2370 2372 2373 2376 2380 2382 2385 2388 2392 2398 2398 2398 2394 2392 2374 2373 2336 0 0 0 0 0 0 0 0 0 0 0 0 0 2826 3113 3241 3262 3272 3279 3284 3289 3290 3292 3294 3294 3297 3298 3300 3300 3302 3305 3306 3308 3309 3309 3310 3315 3322 3331 3338 3344 3352 3360 3363 3363 3364 3365 3368 3371 3372 3372 3372 3372 3372 3368 3366 3353 3347 3346 3344 3342 3297 3260 3260 3260 3287 3310 3329 3347 3361 3361 3361 3357 3357 3357 3358 3360 3360 3360 3360 3360 3360 3364 3376 3387 3391 3394 3398 3399 3404 3407 3409 3409 3409 3404 3404 3404 3409 3414 3417 3419 3419 3419 3415 3411 3408 3408 3408 3419 3426 3434 3436 3439 3441 3445 3451 3451 3451 3451 3451 3452 3452 3452 3442 3433 3430 3426 3417 3408 3395 3375 3359 3349 3340 3337 3333 3326 3316 3310 3308 3307 3304 3298 3291 3284 3276 3271 3262 3258 3255 3251 3244 3233 3217 3201 3182 3147 3074 3009 2767 0 0 0 2015 1998 1993 1992 1990 1985 1983 1983 1982 1980 1978 1974 1972 1970 1968 1964 1961 1956 1955 1951 1947 1943 1941 1937 1933 1930 1927 1922 1915 1911 1908 1904 1895 1889 1877 1868 1858 1838 1816 1801 1792 1785 1776 1768 1763 1749 1727 0 0 0 0 1321 1312 1311 1310 1310 1309 1308 1307 1306 1305 1305 1304 1304 1303 1303 1302 1302 1302 1301 1300 1300 1299 1298 1298 1298 1297 1297 1297 1296 1296 1296 1295 1295 1294 1294 1294 1293 1292 1291 1290 1289 1288 1287 1285 1283 1280 1277 1275 1272 1272 1271 1270 1268 1267 1266 1265 1265 1264 1264 1264 1263 1263 1263 1263 1263 1263 1263 1263 1264 1265 1265 1265 1267 1270 1271 1273 1274 1275 1275 1276 1276 1276 1276 1276 1276 1276 1275 1275 1275 1274 1274 1274 1273 1272 1272 1271 1270 1269 1268 1266 1266 1264 1262 1259 1256 1254 1252 1249 1248 1247 1246 1245 1244 1243 1241 1240 1240 1239 1238 1237 1237 1236 1236 1235 1235 1235 1235 1235 1237 1238 1238 1239 1242 1245 1248 1250 1252 1253 1254 1255 1255 1256 1256 1256 1256 1256 1256 1256 1256 1256 1256 1256 1256 1256 1256 1256 1255 1255 1254 1253 1251 1249 1248 1246 1243 1239 1236 1232 1230 1227 1224 1222 1220 1219 1218 1216 1214 1212 1211 1210 1210 1209 1209 1209 1209 1209 1209 1210 1210 1211 1213 1214 1216 1219 1223 1225 1230 1232 1234 1236 1238 1239 1240 1241 1241 1241 1241 1241 1241 1240 1240 1240 1240 1240 1240 1240 1240 1240 1240 1239 1239 1239 1239 1239 1239 1239 1239 1239 1238 1238 1238 1238 1237 1237 1236 1235 1234 1233 1233 1232 1230 1230 1229 1228 1227 1227 1227 1227 1227 1227 1227 1227 1227 1231 0 0 0 0 0 0 0 0 0 0 0 0 0 0 1030 1030 1037 1052 1052 1052 1037 0 0 0 0 966 962 960 960 937 0 0 0 0 0 0 0 0 1014 1014 1014 0 0 0
