545 0 0 0 0 0 568 568 561 548 545 545 0 0 0 674 685 685 685 685 665 658 658 658 658 0 0 0 0 0 0 0 0 0 0 0 0 0 0 0 0 0 0 0 0 0 0 0 0 1510 1510 1510 1492 1492 1492 0 0 0 0 0 1784 1790 1834 1844 1844 0 0 0 0 0 0 0 0 0 0 0 0 0 0 0 0 0 0 0 0 0 0 0 0 0 0 0 0 0 0 0 0 0 0 0 0 0 0 0 0 0 0 0 0 0 0 0 0 0 0 0 0 0 0 0 0 0 0 0 0 0 0 0 0 0 0 0 0 0 0 0 0 0 0 0 0 0 0 0 0 0 0 2137 2150 2151 2151 2151 2144 2129 2103 2102 0 0 0 0 0 0 0 2191 2191 2159 0 0 0 0 0 0 0 2140 2145 2167 2167 2171 2171 2167 2160 0 0 0 2001 2001 2001 2007 2007 2007 1995 1984 1981 1969 1949 1921 1894 1884 1869 1863 1856 1856 1856 1858 1873 1878 0 0 0 0 0 0 0 0 0 0 0 0 0 0 0 0 0 0 0 0 0 0 0 0 0 0 0 0 0 0 0 0 0 0 0 0 0 0 0 0 0 0 0 0 0 0 0 0 0 0 0 0 0 0 0 0 0 0 0 0 0 0 0 0 0 0 0 0 0 0 0 0 0 0 0 0 0 0 0 0 0 0 0 0 0 0 0 0 0 0 0 0 0 0 0 0 2256 2256 2262 2276 0 0 0 0 0 0 0 0 0 0 0 0 0 0 0 0 0 0 0 0 0 2527 2653 2653 2653 2572 2528 0 0 0 0 0 0 0 0 0 0 0 0 0 0 0 2566 2606 2671 2704 2752 2867 3023 3140 3140 3140 3124 3096 3073 3059 3055 3052 3035 2997 2919 2803 2642 2642 2642 2642 2664 3054 3059 3152 3194 3194 3194 3190 3190 3190 3193 3193 3200 3209 3217 3217 3217 3211 3197 3172 3107 3107 3107 3126 3193 3231 3248 3251 3251 3251 3241 3235 3223 3175 3041 2688 0 0 0 0 0 0 0 1915 1941 1941 1941 1875 1854 1840 1836 1824 1810 1793 1776 1757 1745 1728 1717 1707 1696 1691 1687 1682 1678 1674 1669 1665 1659 1654 1649 1645 1641 1636 1632 1629 1625 1621 1618 1615 1612 1609 1605 1601 1597 1594 1592 1588 1585 1582 1579 1577 1575 1572 1570 1567 1564 1562 1560 1558 1555 1552 1550 1547 1545 1543 1541 1539 1536 1534 1531 1529 1528 1525 1524 1522 1521 1520 1518 1516 1514 1513 1512 1511 1509 1508 1506 1505 1504 1502 1501 1499 1498 1498 1496 1496 1495 1494 1494 1493 1493 1493 1492 1492 1492 1491 1491 1490 1489 1489 1488 1487 1486 1485 1484 1483 1482 1481 1480 1480 1479 1478 1478 1477 1476 1476 1476 1475 1475 1474 1474 1474 1474 1474 1473 1472 1472 1472 1472 1472 1472 1472 1472 1472 1471 1471 1470 1470 1469 1469 1469 1468 1467 1466 1466 1466 1465 1465 1465 1464 1464 1463 1463 1463 1462 1463 1463 1463 1463 1463 1463 1463 1463 1463 1463 1463 1462 1462 1462 1461 1460 1460 1459 1457 1455 1455 1455 1454 1453 1452 1452 1451 1450 1450 1449 1448 1445 1445 1445 1444 1441 1437 1435 1431 1431 1431 1431 1431 1431 1431 1431 1430 1427 1424 1422 1420 1418 1415 1411 1411 1410 1409 1409 1409 1409 1409 1409
545 0 0 0 0 0 568 567 548 548 545 0 0 0 0 674 684 685 685 685 643 643 643 677 0 0 0 0 0 0 0 806 806 811 0 0 0 0 0 0 0 0 0 0 0 0 0 0 0 0 1522 1508 1478 1478 0 0 0 0 0 0 0 0 0 0 0 0 0 0 0 0 0 0 0 0 0 0 0 0 0 0 0 0 0 0 0 0 0 0 0 0 0 0 0 0 0 0 0 0 0 0 0 0 0 0 0 0 0 0 0 0 0 0 0 0 0 0 0 0 0 0 0 0 0 0 0 0 0 0 0 0 0 2117 2099 2099 2098 2096 2098 2098 2096 2091 2093 2093 2093 2098 2100 2103 2104 2106 2106 2110 2106 2106 2104 2096 2096 2096 2099 0 0 0 0 0 2237 2237 2220 2180 2165 0 0 0 0 0 0 2204 2200 2200 2200 2223 2237 2237 2237 2190 0 2031 2001 2001 2001 2007 2007 2007 1995 1984 1982 1969 1949 1921 1894 1884 1869 1863 1856 1856 1856 1868 1892 0 0 0 0 0 0 0 0 0 0 0 0 0 0 0 0 0 0 0 0 0 0 0 0 0 0 0 0 0 0 0 0 0 0 0 0 0 0 0 0 0 0 0 0 0 0 0 0 0 0 0 0 0 0 0 0 0 0 0 0 0 0 0 0 0 0 0 0 0 0 0 0 0 0 0 0 0 0 0 0 0 0 0 0 0 0 0 0 0 0 0 0 0 0 0 0 0 0 0 0 0 0 0 0 0 0 0 0 0 0 0 0 0 0 0 0 0 0 0 0 0 0 2916 2916 2916 2712 2561 0 0 0 0 0 0 0 0 0 0 0 0 0 0 0 0 2566 2604 2639 2676 2718 2845 3023 3134 3134 3134 3121 3087 3066 3057 3048 3037 3004 2918 2787 2654 2629 2629 2629 2642 3040 3080 3159 3193 3220 3220 3220 3213 3200 3200 3200 3202 3202 3211 3222 3222 3222 3216 3210 3192 3124 3104 3104 3104 3193 3231 3248 3256 3256 3256 3252 3247 3231 3164 3012 2734 0 0 0 0 0 0 0 1901 1948 1948 1948 1881 1856 1844 1837 1824 1810 1799 1776 1760 1745 1728 1717 1707 1700 1691 1687 1683 1678 1674 1669 1665 1660 1654 1649 1645 1641 1636 1632 1629 1625 1621 1618 1615 1612 1609 1605 1601 1597 1594 1592 1589 1586 1582 1579 1577 1575 1572 1570 1567 1564 1562 1560 1558 1555 1552 1550 1547 1545 1543 1541 1538 1536 1533 1531 1529 1527 1525 1524 1522 1521 1519 1518 1515 1514 1513 1511 1510 1509 1507 1506 1505 1504 1502 1501 1499 1498 1498 1497 1496 1495 1494 1494 1493 1493 1493 1493 1492 1492 1491 1491 1490 1489 1489 1488 1487 1486 1485 1484 1483 1482 1481 1480 1480 1479 1478 1478 1476 1476 1476 1476 1475 1474 1474 1474 1474 1474 1473 1473 1472 1472 1472 1472 1472 1472 1472 1472 1472 1471 1471 1470 1469 1469 1469 1468 1468 1467 1466 1466 1466 1465 1465 1464 1464 1463 1463 1463 1463 1462 1462 1462 1462 1463 1463 1463 1463 1463 1463 1463 1463 1463 1462 1462 1461 1461 1460 1459 1457 1455 1455 1454 1453 1453 1452 1452 1451 1450 1450 1448 1447 1445 1445 1444 1443 1440 1436 1434 1431 1431 1431 1431 1432 1432 1432 1431 1430 1427 1424 1421 1418 1417 1415 1411 1411 1411 1410 1410 1409 1409 1409 1409
551 0 0 0 0 0 549 548 549 549 548 548 0 0 0 684 685 685 684 671 640 640 640 684 0 724 724 733 733 773 790 791 796 796 802 0 0 0 0 0 0 0 0 0 0 0 0 0 0 0 0 0 0 0 0 0 0 0 0 0 0 0 0 0 0 0 0 0 0 0 0 0 0 0 0 0 0 0 0 0 0 0 0 0 0 0 0 0 0 0 0 0 0 0 0 0 0 0 0 0 0 0 0 0 0 0 0 0 0 0 0 0 0 0 0 0 0 0 2205 2182 2177 2173 2171 2168 2154 2145 2145 0 0 0 2142 2117 2099 2099 2098 2096 2096 2089 2087 2086 2084 2080 2080 2080 2085 2087 2087 2087 2079 2079 2079 2078 2081 2083 2085 2089 2099 0 0 0 0 0 2310 2265 2254 2254 2254 2265 2265 2265 2265 2264 2258 2257 2233 2233 2233 2250 2250 2250 2237 2198 0 2066 2031 2022 2022 2021 2019 2019 2009 1992 1982 1969 1949 1935 1921 1910 1890 1878 1878 1878 1879 1896 0 0 0 0 0 0 0 0 0 0 0 0 0 0 0 0 0 0 0 0 0 0 0 0 0 0 0 0 0 0 0 0 0 0 2244 2238 2236 0 0 0 0 0 0 0 0 0 0 0 0 0 0 0 0 0 0 0 0 0 0 0 0 0 0 0 0 0 0 0 0 0 0 0 0 0 0 0 0 0 0 0 0 0 0 0 0 0 0 0 0 0 0 0 0 0 0 0 0 0 0 0 0 0 0 0 0 0 0 0 0 0 0 0 0 0 0 0 0 0 0 0 0 0 2960 2960 2960 2916 2712 0 0 0 0 0 0 0 0 0 0 0 0 0 0 0 0 0 0 2557 2594 2621 2655 2800 2998 3089 3089 3089 3062 3048 3045 3036 3028 2986 2921 2803 2657 2597 2597 2597 2723 2936 3079 3150 3193 3226 3236 3236 3236 3234 3222 3217 3216 3216 3216 3228 3237 3237 3237 3231 3230 3229 3161 3084 3084 3084 3184 3231 3249 3259 3262 3262 3262 3261 3238 3164 3012 2734 0 0 0 0 0 0 0 0 1950 1950 1950 1881 1863 1844 1838 1825 1811 1799 1778 1760 1745 1727 1718 1711 1703 1694 1687 1683 1679 1674 1670 1665 1660 1654 1651 1646 1642 1638 1634 1630 1625 1621 1618 1615 1612 1609 1605 1601 1597 1594 1592 1589 1586 1584 1581 1578 1574 1572 1570 1567 1564 1562 1560 1558 1555 1552 1549 1547 1545 1543 1540 1538 1536 1533 1531 1529 1527 1525 1524 1522 1521 1519 1518 1515 1514 1513 1511 1510 1509 1507 1506 1505 1504 1502 1501 1500 1499 1498 1497 1496 1495 1495 1494 1493 1493 1493 1493 1492 1492 1491 1491 1490 1489 1489 1488 1487 1486 1485 1484 1483 1482 1481 1480 1480 1479 1478 1477 1476 1476 1476 1476 1475 1474 1474 1474 1474 1473 1473 1473 1472 1472 1472 1472 1472 1472 1472 1472 1472 1471 1471 1470 1469 1469 1469 1468 1467 1467 1466 1466 1465 1465 1465 1464 1464 1463 1462 1462 1462 1462 1462 1462 1462 1463 1463 1463 1463 1463 1463 1463 1463 1463 1462 1462 1461 1461 1460 1459 1457 1455 1455 1454 1453 1453 1452 1452 1451 1450 1450 1448 1447 1445 1445 1444 1443 1440 1436 1434 1431 1431 1431 1431 1432 1432 1432 1431 1431 1427 1424 1420 1418 1417 1415 1413 1413 1413 1411 1410 1409 1409 1409 1409
551 569 569 569 542 542 542 545 548 559 560 581 0 0 0 684 683 668 667 655 655 655 657 0 723 728 728 733 733 749 769 771 783 789 796 800 0 0 0 0 0 0 0 0 0 0 0 0 0 0 0 0 0 0 0 0 0 0 0 0 0 0 0 0 0 0 0 0 0 0 0 0 0 0 0 0 0 0 0 0 0 0 0 0 0 0 0 0 0 0 0 0 0 0 0 0 0 0 0 0 0 0 0 0 0 0 0 0 0 0 0 0 0 0 0 0 0 2206 2189 2181 2171 2168 2162 2162 2154 2145 2145 0 0 0 2142 2117 2099 2099 2098 2096 2096 2089 2087 2086 2084 2080 2080 2080 2085 2085 2085 2085 2071 2071 2071 2078 2078 2079 2081 2091 2117 0 0 0 0 0 2310 2265 2254 2254 2260 2265 2265 2265 2265 2264 2258 2257 2235 2235 2235 2250 2250 2250 2237 2198 2146 2085 2063 2056 2047 2042 2034 2032 2021 2002 1989 1980 1978 1964 1961 1944 1935 1909 1900 1900 1900 0 0 0 0 0 0 0 0 0 0 0 0 0 0 0 0 0 0 0 0 0 0 0 0 0 2262 2278 2282 2285 2289 2299 2299 2299 2278 2256 2251 2247 2245 2223 0 0 0 0 0 0 0 0 0 0 0 0 0 0 0 0 0 0 0 0 0 0 0 0 0 0 0 0 0 0 0 0 0 0 0 0 0 0 0 0 0 0 0 0 0 0 0 0 0 0 0 0 0 0 0 0 0 0 0 0 0 0 0 0 0 0 0 0 0 0 0 0 0 0 0 0 0 0 0 0 0 0 0 2921 3018 3018 3018 2806 2653 0 0 0 0 0 0 0 0 0 0 0 0 0 0 0 0 0 0 0 0 2611 2637 2763 2967 3047 3047 3047 3001 2965 2946 2940 2940 2878 2818 2691 2565 2565 2565 2686 2885 2981 3082 3180 3217 3233 3243 3250 3250 3250 3238 3233 3233 3233 3241 3250 3250 3250 3248 3246 3245 3240 3197 3115 3115 3115 3144 3222 3255 3265 3276 3276 3276 3276 3238 3164 3012 2734 0 0 0 0 0 0 0 0 0 0 1950 1885 1869 1846 1838 1826 1814 1799 1779 1760 1742 1726 1718 1711 1705 1698 1691 1684 1680 1675 1670 1665 1660 1656 1651 1646 1642 1638 1634 1630 1626 1621 1618 1615 1612 1609 1605 1601 1597 1594 1592 1589 1586 1584 1581 1578 1574 1572 1569 1566 1564 1562 1560 1558 1555 1552 1549 1546 1545 1543 1540 1538 1535 1533 1531 1529 1527 1526 1524 1522 1521 1519 1518 1515 1514 1513 1511 1510 1508 1507 1506 1504 1504 1502 1501 1500 1499 1498 1497 1497 1496 1495 1494 1494 1493 1493 1493 1492 1492 1491 1491 1490 1489 1489 1488 1487 1486 1485 1484 1484 1483 1481 1481 1480 1479 1478 1478 1476 1476 1476 1476 1475 1475 1474 1474 1473 1473 1473 1472 1472 1472 1472 1472 1472 1472 1471 1471 1471 1471 1470 1470 1469 1469 1469 1468 1467 1467 1466 1465 1465 1465 1464 1464 1463 1463 1462 1462 1462 1462 1462 1462 1462 1463 1463 1463 1463 1463 1463 1463 1463 1463 1463 1462 1462 1461 1460 1459 1458 1456 1455 1454 1453 1453 1452 1452 1451 1450 1449 1448 1447 1445 1444 1444 1442 1440 1436 1433 1431 1431 1431 1433 1433 1433 1433 1431 1430 1427 1423 1420 1418 1417 1417 1415 1414 1414 1414 1411 1408 1408 1408 1407
550 548 548 528 525 525 525 544 545 547 560 581 0 0 0 684 677 647 646 641 641 641 657 0 720 732 733 734 742 745 754 771 783 788 789 790 0 0 0 0 0 0 0 0 0 0 0 0 0 0 0 0 0 0 0 0 0 0 0 0 0 0 0 0 0 0 0 0 0 0 0 0 0 0 0 0 0 0 0 0 0 0 0 0 0 0 0 0 0 0 0 0 0 0 0 0 0 0 0 0 0 0 0 0 0 0 0 0 0 0 0 0 0 0 0 0 0 2198 2178 2175 2171 2168 2162 2162 2154 2145 2145 0 0 0 2143 2130 2120 2120 2117 2113 2107 2096 2087 2086 2084 2080 2080 2080 2085 2085 2085 2085 2071 2071 2071 2078 2078 2079 2084 2095 2145 0 0 0 0 0 2310 2265 2254 2254 2260 2265 2265 2265 2265 2264 2258 2257 2235 2235 2235 2234 2234 2234 2229 2190 2153 2101 2093 2086 2074 2055 2050 2050 2038 2021 2017 2014 2013 1998 1978 1967 1949 1932 1932 1932 1932 0 0 0 0 0 0 0 0 0 2333 2333 2333 2333 0 0 0 0 0 0 0 0 0 0 0 2278 2278 2278 2282 2285 2290 2304 2304 2304 2294 2271 2261 2252 2251 2240 0 0 0 0 0 0 0 0 0 0 0 0 0 0 0 0 0 0 0 0 0 0 0 0 0 0 0 0 0 0 0 0 0 0 0 0 0 0 0 0 0 0 0 0 0 0 0 0 0 0 0 0 0 0 0 0 0 0 0 0 0 0 0 0 0 0 0 0 0 0 0 0 0 0 0 0 0 0 0 0 0 0 0 2921 2974 2974 2974 2677 2647 0 0 0 0 0 0 0 0 0 0 0 0 0 0 0 0 0 0 0 0 0 2517 2635 2876 3025 3025 3025 2996 2949 2933 2900 2858 2858 2694 2619 2581 2581 2581 2883 2935 3012 3082 3185 3224 3245 3253 3255 3255 3255 3250 3243 3243 3243 3253 3258 3258 3258 3256 3256 3256 3255 3229 3141 3085 3085 3085 3214 3249 3270 3285 3285 3285 3282 3245 3185 3067 2830 0 0 0 0 0 0 0 0 0 0 0 1893 1869 1846 1837 1826 1814 1799 1779 1757 1740 1725 1718 1711 1705 1698 1691 1686 1680 1675 1672 1666 1662 1656 1651 1646 1642 1639 1635 1630 1627 1622 1619 1616 1612 1609 1605 1601 1597 1594 1591 1588 1586 1584 1581 1578 1574 1572 1569 1566 1564 1562 1560 1558 1555 1552 1549 1546 1545 1543 1540 1538 1535 1533 1531 1530 1528 1526 1524 1522 1521 1519 1518 1516 1514 1512 1511 1509 1508 1507 1505 1504 1503 1502 1501 1500 1499 1498 1498 1497 1496 1495 1495 1494 1494 1493 1493 1492 1492 1491 1491 1490 1489 1489 1488 1487 1486 1486 1485 1484 1483 1482 1481 1480 1479 1478 1478 1477 1476 1476 1476 1475 1475 1474 1474 1473 1473 1472 1472 1472 1472 1472 1472 1472 1472 1471 1471 1471 1471 1470 1470 1469 1469 1469 1468 1467 1467 1466 1466 1465 1465 1464 1464 1463 1463 1463 1463 1463 1463 1463 1463 1463 1463 1463 1464 1464 1464 1464 1463 1463 1463 1463 1462 1462 1461 1461 1459 1458 1457 1455 1454 1453 1453 1452 1452 1451 1450 1449 1448 1446 1445 1443 1443 1441 1440 1437 1433 1433 1433 1434 1434 1434 1433 1433 1432 1430 1427 1423 1420 1419 1419 1418 1418 1417 1414 1413 1411 1408 1408 1408 1407
526 521 521 521 521 525 525 544 545 546 560 581 0 0 0 684 677 645 629 629 629 639 657 0 710 726 735 740 742 745 754 771 783 783 786 789 0 0 0 0 0 0 0 0 0 0 0 0 0 0 0 0 0 0 0 0 0 0 0 0 0 0 0 0 0 0 0 0 0 0 0 0 0 0 0 0 0 0 0 0 0 0 0 0 0 0 0 0 0 0 0 0 0 0 0 0 0 0 0 0 0 0 0 0 0 0 0 0 0 0 0 0 0 0 0 0 0 2178 2178 2175 2173 2173 2173 2173 2173 2159 2147 0 0 0 0 2153 2138 2135 2132 2130 2123 2112 2094 2094 2092 2091 2092 2095 2096 2096 2096 2085 2071 2071 2071 2078 2079 2087 2097 2108 2145 0 0 0 0 0 0 2238 2238 2238 2249 2258 2258 2258 2250 2248 2239 2235 2228 2225 2206 2206 2196 2195 2195 2182 2146 2123 2111 2086 2074 2055 2050 2050 2038 2021 2017 2014 2013 1998 1978 1967 1949 1932 1932 1932 0 0 0 0 0 0 0 0 0 2368 2335 2335 2335 2336 2336 0 0 0 0 0 0 0 0 0 0 2282 2282 2282 2290 2293 2294 2304 2304 2304 2301 2284 2277 2267 2253 2240 0 0 0 0 0 0 0 0 0 0 0 2557 2612 2765 2855 2858 2895 3069 3275 3275 3275 3254 3146 2623 0 0 0 0 0 0 0 0 0 0 0 0 1501 1551 1576 0 0 0 0 0 0 0 0 0 0 0 0 0 0 0 0 0 0 0 0 0 0 0 0 0 0 0 0 0 0 0 0 0 0 0 0 0 0 0 0 0 0 0 0 2921 2921 2921 2836 2651 0 0 0 0 0 0 0 0 0 0 0 0 0 0 0 0 0 0 0 0 0 0 0 0 2767 2767 2767 2675 2675 2675 2768 2768 2768 2623 2619 2619 2623 2723 2902 2903 2963 3012 3095 3185 3229 3251 3256 3256 3258 3258 3258 3254 3254 3254 3260 3263 3263 3263 3263 3262 3258 3257 3255 3228 3076 3076 3076 3180 3247 3270 3285 3285 3285 3282 3245 3199 3114 2935 2676 0 0 0 0 0 0 0 0 0 0 1894 1869 1846 1837 1826 1814 1794 1779 1755 1740 1725 1717 1710 1705 1698 1691 1687 1681 1678 1672 1668 1663 1657 1652 1646 1642 1639 1635 1631 1627 1622 1619 1616 1613 1609 1605 1600 1597 1594 1591 1588 1585 1583 1580 1578 1574 1571 1569 1566 1564 1562 1560 1558 1555 1552 1549 1546 1545 1542 1541 1538 1535 1533 1532 1530 1528 1526 1524 1523 1521 1519 1518 1516 1514 1512 1511 1509 1508 1507 1505 1504 1503 1502 1501 1500 1499 1498 1498 1497 1496 1495 1495 1494 1494 1493 1493 1492 1492 1491 1490 1490 1490 1489 1488 1488 1487 1486 1485 1484 1483 1482 1481 1480 1479 1479 1478 1477 1476 1476 1476 1475 1475 1474 1473 1473 1472 1472 1472 1472 1472 1472 1472 1472 1472 1471 1471 1471 1470 1470 1470 1469 1469 1468 1468 1467 1467 1466 1465 1465 1465 1464 1464 1463 1463 1463 1463 1463 1463 1463 1463 1463 1464 1464 1464 1464 1464 1464 1463 1463 1463 1463 1462 1462 1461 1461 1460 1458 1457 1456 1454 1454 1453 1452 1452 1451 1449 1449 1447 1446 1445 1443 1442 1441 1440 1437 1433 1433 1433 1434 1436 1437 1437 1437 1434 1430 1427 1423 1420 1420 1420 1420 1420 1419 1414 1413 1411 1410 1409 1408 1408
526 521 521 521 521 525 532 544 545 546 560 579 0 0 0 672 672 645 625 623 623 625 628 0 0 714 733 735 742 746 751 771 779 779 779 0 0 0 0 0 0 0 0 0 0 0 0 0 0 0 0 0 0 0 0 0 0 0 0 0 0 0 0 0 0 0 0 0 0 0 0 0 0 0 0 0 0 0 0 0 0 0 0 0 0 0 0 0 0 0 0 0 0 0 0 0 0 0 0 0 0 0 0 0 0 0 0 0 0 0 0 0 0 0 0 0 0 0 2178 2178 2178 2179 2183 2189 2227 2227 2229 0 0 0 0 0 0 2163 2150 2146 2136 2133 2113 2107 2107 2107 2113 2117 2120 2120 2120 2109 2096 2090 2090 2090 2091 2093 2102 2117 2145 0 0 0 0 0 0 2182 2182 2197 2215 2220 2221 2221 2221 2216 2195 0 0 0 2167 2167 2159 0 0 0 2146 2123 2111 2086 2074 2055 2050 2050 2038 2021 2020 2014 2013 2011 1984 1968 1957 1941 1941 0 0 0 0 0 0 0 2429 2429 2418 2381 2354 2349 2345 2345 2349 0 0 0 0 0 0 0 0 0 0 2289 2289 2289 2293 2295 2297 2304 2317 2317 2317 2316 2299 2270 2264 2257 0 0 0 0 0 0 0 0 2933 3191 3251 3320 3345 3374 3395 3395 3395 3393 3393 3383 3350 3272 3199 3163 2960 0 0 0 0 0 0 0 0 0 0 1551 1551 1551 1576 1617 0 0 0 0 0 0 0 0 0 0 0 0 0 0 0 0 0 0 0 0 0 0 0 0 0 0 0 0 0 0 0 0 0 0 0 0 0 0 0 0 0 0 0 0 2606 2606 2577 0 0 0 0 0 0 0 0 0 0 0 0 0 0 0 0 0 0 0 0 0 0 0 0 0 0 0 0 0 0 0 0 0 0 2584 2619 2623 2762 2895 2920 2988 2994 3012 3095 3185 3229 3251 3256 3256 3258 3258 3258 3254 3254 3254 3260 3263 3263 3263 3263 3262 3258 3257 3255 3228 3177 3132 3132 3132 3209 3270 3285 3285 3285 3282 3238 3199 3116 2979 2774 0 0 0 0 0 0 0 0 0 0 1895 1869 1846 1833 1817 1800 1789 1769 1754 1739 1725 1717 1710 1703 1698 1692 1687 1682 1678 1672 1668 1663 1657 1652 1646 1643 1639 1635 1631 1627 1622 1619 1616 1613 1609 1605 1600 1596 1593 1591 1588 1585 1583 1580 1578 1574 1571 1569 1566 1564 1562 1559 1557 1554 1551 1549 1546 1544 1542 1541 1538 1536 1534 1532 1530 1528 1527 1525 1523 1521 1519 1518 1516 1514 1512 1511 1510 1509 1507 1505 1505 1504 1503 1501 1501 1499 1499 1498 1497 1496 1495 1495 1494 1494 1493 1493 1492 1491 1491 1490 1490 1489 1489 1488 1488 1487 1486 1485 1484 1483 1482 1481 1480 1479 1479 1478 1478 1477 1476 1476 1475 1475 1474 1473 1473 1472 1472 1472 1472 1472 1472 1472 1472 1471 1471 1471 1471 1470 1470 1470 1469 1469 1468 1468 1467 1467 1466 1466 1465 1464 1464 1464 1464 1464 1464 1463 1463 1464 1464 1464 1464 1464 1464 1464 1464 1464 1464 1463 1463 1463 1463 1463 1462 1461 1461 1460 1458 1458 1456 1455 1454 1453 1452 1452 1451 1449 1448 1446 1445 1445 1443 1442 1441 1439 1437 1432 1432 1432 1434 1436 1437 1437 1437 1435 1430 1427 1422 1420 1420 1420 1420 1420 1419 1414 1412 1411 1411 1411 1410 1410
526 521 521 521 521 532 533 544 546 546 560 560 0 0 0 645 645 645 625 623 619 618 618 0 0 704 733 735 742 743 743 771 771 0 0 0 0 0 0 0 0 0 0 0 0 0 0 0 0 0 0 0 0 0 0 0 0 0 0 0 0 0 0 0 0 0 0 1852 1852 1851 1829 1818 0 0 0 0 0 0 0 0 0 0 0 0 0 1892 1892 1894 1914 1938 1966 1980 1980 1980 0 0 0 0 0 0 0 0 0 0 0 0 0 0 0 0 0 0 0 0 0 0 0 0 0 0 0 0 0 0 0 0 2286 0 0 0 0 0 0 0 0 2158 2148 2137 2119 2119 2119 2125 2132 2133 2134 2134 2134 2134 2134 2129 2126 2118 2118 2118 2124 2127 2145 0 0 0 0 0 0 0 2162 2162 2163 2163 0 0 0 0 0 0 0 0 0 0 0 0 0 0 0 2106 2106 2106 2071 2064 2041 2027 2023 2023 2020 1998 1998 1993 1978 1967 1957 1957 1957 0 0 0 0 0 0 2439 2449 2449 2449 2419 2354 2349 2349 2349 2355 0 0 0 0 0 0 0 0 0 0 0 2319 2319 2326 2336 2336 2348 2351 2351 2351 2347 2342 2318 2312 0 0 0 0 0 0 0 0 2672 2933 3351 3397 3412 3412 3401 3412 3423 3427 3427 3427 3397 3394 3272 3199 3163 2960 0 0 0 0 0 0 0 0 0 0 1564 1564 1564 1574 1605 0 0 0 0 0 0 0 0 0 0 0 0 0 0 0 0 0 0 0 0 0 0 0 0 0 0 0 0 0 0 0 0 0 0 0 0 0 0 0 0 0 0 0 0 0 0 0 0 0 0 0 0 0 0 0 0 0 0 0 0 0 0 0 0 0 0 0 0 0 0 0 0 0 0 0 0 0 0 0 0 0 2584 2623 2791 2796 2895 2920 2988 2994 3012 3095 3164 3229 3251 3256 3256 3258 3258 3258 3254 3254 3254 3260 3263 3263 3263 3263 3262 3258 3257 3255 3228 3177 3082 3082 3082 3134 3210 3252 3271 3271 3271 3233 3199 3129 3006 2774 0 0 0 0 0 0 0 0 0 0 1899 1869 1845 1833 1815 1791 1771 1759 1747 1738 1723 1717 1710 1703 1698 1692 1687 1682 1678 1672 1668 1663 1658 1653 1647 1644 1639 1635 1631 1627 1623 1619 1616 1613 1608 1604 1599 1596 1593 1590 1588 1585 1583 1580 1577 1574 1571 1569 1566 1564 1561 1559 1557 1554 1551 1548 1546 1544 1542 1541 1538 1536 1534 1532 1531 1528 1527 1525 1523 1521 1519 1518 1516 1514 1512 1511 1510 1509 1507 1506 1505 1504 1503 1502 1501 1499 1499 1498 1497 1496 1496 1495 1494 1494 1493 1492 1492 1491 1491 1490 1490 1490 1489 1488 1488 1487 1486 1485 1484 1483 1482 1481 1481 1480 1479 1479 1478 1477 1477 1477 1476 1475 1474 1473 1473 1472 1472 1472 1472 1471 1471 1471 1471 1471 1471 1471 1471 1471 1470 1470 1470 1469 1468 1468 1467 1467 1466 1466 1465 1465 1464 1464 1464 1464 1464 1464 1464 1464 1464 1464 1464 1464 1464 1464 1464 1464 1464 1464 1463 1463 1463 1463 1462 1462 1461 1460 1459 1458 1457 1455 1454 1453 1452 1452 1451 1449 1448 1446 1444 1444 1443 1442 1440 1438 1432 1431 1431 1431 1434 1436 1437 1437 1437 1435 1431 1427 1419 1419 1419 1420 1420 1420 1419 1414 1412 1412 1411 1411 1411 1411
0 0 0 541 541 541 543 554 559 559 561 568 568 0 0 0 640 640 640 618 616 605 0 0 0 0 729 735 735 742 742 747 0 0 0 0 0 0 0 0 0 0 0 0 0 0 0 0 0 0 0 0 0 0 0 0 0 0 0 0 0 0 0 1834 1859 1867 1878 1878 1878 1866 1842 1842 1842 0 0 0 0 0 0 0 0 1910 1928 1929 1930 1931 1933 1937 1946 1962 1979 1988 1988 1988 1986 1973 0 0 0 0 0 0 0 0 0 0 0 0 0 0 0 0 0 0 0 0 0 0 0 0 0 0 0 0 0 0 0 0 0 0 0 0 0 0 0 0 2168 2137 2131 2131 2131 2133 2133 2134 2134 2134 2134 2134 2134 2129 2126 2118 2118 2118 2124 2127 2136 0 0 0 0 0 0 0 0 0 0 0 0 0 0 0 0 0 0 0 0 0 0 0 0 0 0 2076 2076 2076 2039 2036 2021 2020 2018 1991 1987 1985 1980 1970 1968 1967 1957 1957 0 0 0 0 0 0 0 2459 2459 2459 2455 2455 2383 2351 2351 2351 0 0 0 0 0 0 0 0 0 0 0 0 0 0 0 0 0 0 0 0 0 0 0 0 0 0 0 0 0 0 0 0 0 2672 2933 3351 3427 3429 3438 3455 3455 3455 3455 3439 3431 3397 3394 3272 3199 3163 2960 0 0 0 0 0 0 0 0 0 0 1570 1570 1570 1570 1570 0 0 0 0 0 0 0 0 0 0 0 0 0 0 0 0 0 0 0 0 0 0 0 0 0 0 0 0 0 0 0 0 0 0 0 0 0 0 0 0 0 0 1735 1763 1808 1808 1808 1786 0 0 0 0 0 0 0 0 0 0 0 0 0 0 0 0 0 0 0 0 0 0 0 0 0 0 0 0 0 0 0 0 0 2551 2696 2791 2796 2895 2920 2988 2994 2994 3044 3130 3175 3197 3206 3215 3220 3221 3223 3233 3243 3254 3258 3261 3261 3261 3256 3251 3250 3246 3245 3227 3177 3083 3018 3018 3018 3136 3195 3202 3202 3202 3198 3192 3129 3006 2809 0 0 0 0 0 0 0 0 0 0 0 1869 1845 1833 1809 1782 1768 1753 1741 1733 1723 1717 1710 1703 1698 1693 1687 1682 1677 1672 1668 1663 1658 1654 1648 1644 1640 1636 1632 1628 1623 1619 1616 1613 1608 1604 1599 1595 1593 1590 1587 1585 1582 1580 1577 1574 1571 1569 1566 1564 1561 1558 1556 1554 1551 1548 1546 1544 1542 1540 1538 1536 1534 1532 1531 1529 1527 1525 1523 1522 1520 1518 1516 1514 1513 1511 1510 1509 1507 1506 1505 1504 1503 1502 1501 1500 1499 1498 1497 1497 1496 1495 1495 1494 1493 1493 1492 1491 1491 1491 1490 1490 1489 1488 1487 1487 1486 1485 1484 1483 1483 1481 1481 1480 1479 1479 1478 1477 1477 1477 1477 1475 1474 1473 1473 1472 1472 1472 1472 1471 1471 1471 1471 1471 1471 1471 1471 1470 1470 1470 1469 1469 1468 1468 1467 1467 1466 1465 1465 1465 1464 1464 1464 1464 1464 1464 1464 1465 1465 1465 1465 1465 1464 1464 1464 1464 1464 1463 1463 1463 1463 1463 1462 1462 1461 1461 1460 1460 1458 1456 1455 1453 1452 1452 1451 1449 1448 1445 1444 1444 1443 1441 1439 1435 1432 1431 1431 1431 1432 1434 1434 1435 1435 1434 1433 1427 1419 1419 1419 1419 1419 1419 1415 1412 1412 1412 1412 1412 1412 1412
0 0 0 541 541 541 546 554 559 559 559 559 559 0 0 0 0 640 640 618 616 0 0 0 0 0 0 0 0 0 0 0 0 0 0 0 0 0 0 0 0 0 0 0 0 0 0 0 0 0 0 0 0 0 0 0 0 0 0 0 0 0 0 1834 1859 1867 1878 1884 1884 1878 1884 1884 1884 1895 1904 1910 1916 1920 1925 1929 1930 1932 1932 1932 1932 1935 1937 1948 1954 1964 1983 1991 1991 1991 1986 1979 1970 0 0 0 0 0 0 0 0 0 0 0 0 0 0 0 0 0 0 0 0 0 0 0 0 0 0 0 0 0 0 0 0 0 0 0 0 0 0 0 0 2137 2131 2131 2131 2133 2133 2134 2134 2134 2134 2134 2134 2129 2126 2118 2118 2118 2118 2118 0 0 0 0 0 0 0 0 0 0 0 0 0 0 0 0 0 0 0 0 0 0 0 0 0 0 0 0 2042 2042 2039 2036 2021 2020 2018 1991 1987 1985 1980 1980 1980 0 0 0 0 0 0 0 2501 2548 2548 2548 2555 2540 2527 2517 0 0 0 0 0 2837 3063 3098 3179 3202 3202 3202 3130 0 0 0 0 2446 2462 2462 2463 2464 2464 2466 2466 2467 0 0 0 0 0 0 0 0 0 0 0 2672 2925 3351 3427 3429 3438 3455 3455 3455 3431 3393 3383 3350 3261 3213 3171 3075 2945 0 0 0 0 0 0 0 0 0 0 1581 1581 1578 1567 1550 0 0 0 0 0 0 0 0 0 0 0 0 0 0 0 0 0 0 0 0 0 0 0 0 0 0 0 0 0 0 0 0 0 0 0 0 0 1811 1811 1811 1726 1726 1726 1752 1768 1785 1785 1785 1730 0 0 0 0 0 0 0 0 0 0 0 0 0 0 0 0 0 0 0 0 0 0 0 0 0 0 0 0 0 0 0 0 2551 2696 2791 2796 2872 2894 2911 2931 2956 2992 3042 3128 3135 3143 3153 3154 3156 3157 3160 3171 3193 3221 3226 3226 3226 3224 3223 3219 3214 3200 3194 3176 3088 3007 3007 3007 3029 3145 3175 3180 3180 3180 3175 3129 3006 2809 0 0 0 0 0 0 0 0 0 0 0 1869 1844 1833 1808 1782 1768 1752 1740 1731 1723 1717 1710 1704 1700 1693 1687 1682 1676 1671 1667 1662 1658 1654 1649 1645 1640 1636 1632 1628 1623 1620 1616 1612 1607 1602 1598 1595 1593 1590 1587 1584 1582 1580 1577 1574 1571 1569 1566 1564 1561 1558 1556 1554 1551 1548 1546 1544 1542 1540 1538 1536 1534 1533 1531 1529 1528 1526 1523 1522 1520 1518 1516 1514 1513 1511 1510 1509 1507 1506 1505 1504 1503 1502 1501 1500 1499 1499 1498 1497 1496 1495 1495 1494 1493 1493 1492 1491 1491 1491 1490 1490 1489 1488 1487 1486 1485 1485 1484 1483 1483 1482 1481 1480 1479 1479 1478 1478 1478 1477 1477 1475 1474 1474 1473 1472 1472 1472 1472 1471 1471 1471 1471 1471 1471 1471 1470 1470 1470 1470 1470 1469 1468 1468 1467 1466 1466 1465 1465 1464 1464 1464 1464 1464 1464 1464 1465 1465 1465 1465 1465 1465 1464 1464 1464 1464 1463 1463 1463 1463 1463 1463 1462 1462 1462 1461 1461 1460 1459 1457 1455 1453 1453 1452 1451 1449 1448 1445 1444 1443 1442 1439 1439 1435 1432 1431 1430 1430 1430 1432 1432 1433 1433 1433 1433 1427 1419 1419 1419 1419 1419 1417 1412 1412 1412 1412 1412 1412 1412 1412
0 0 0 0 541 541 546 554 554 554 544 529 529 0 0 0 0 0 0 0 0 0 0 0 0 0 0 0 0 0 0 0 0 0 0 0 0 0 0 0 0 0 0 0 0 0 0 0 0 0 0 0 0 0 0 0 0 0 0 0 0 0 1789 1834 1859 1866 1867 1878 1878 1878 1884 1884 1884 1895 1904 1910 1916 1920 1925 1929 1930 1932 1933 1934 1936 1940 1949 1951 1955 1964 1983 1991 1992 1992 1992 1992 1992 0 0 0 0 0 0 0 0 0 0 0 0 0 0 0 0 0 0 0 0 0 0 0 0 0 0 0 0 0 0 0 0 0 0 0 0 0 0 0 0 0 0 2131 2126 2126 2126 0 0 0 0 0 0 0 0 0 0 0 0 0 0 0 0 0 0 0 0 0 0 0 0 0 0 0 0 0 0 0 0 0 0 0 0 0 0 0 0 0 0 0 0 0 0 0 0 0 0 0 0 0 0 0 0 0 0 2512 2654 2755 3081 3101 3101 3101 3042 2761 2671 2517 0 0 0 0 2913 3338 3416 3434 3437 3437 3437 3335 3130 2742 2478 2469 2469 2469 2478 2485 2485 2485 2485 2486 2489 2491 2496 0 0 0 0 0 0 0 0 0 2550 2653 2658 2923 3387 3397 3401 3401 3412 3401 3377 3362 3206 3085 2900 2883 2811 2602 0 0 0 0 0 0 0 0 0 0 0 0 1594 1592 1575 0 0 0 0 0 0 0 0 0 0 0 0 0 0 0 0 0 0 0 0 0 0 0 0 0 0 0 0 0 0 0 0 0 0 0 0 0 0 1756 1756 1756 1726 1726 1726 1741 1764 1764 1764 1740 1690 1690 1690 1690 0 0 0 0 1839 1844 1844 1844 1843 0 0 0 0 0 0 0 0 0 0 0 0 0 0 0 0 0 0 0 0 0 2696 2697 2786 2833 2844 2883 2891 2910 2944 2989 3028 3051 3078 3100 3115 3115 3115 3111 3111 3111 3116 3162 3175 3175 3175 3175 3175 3177 3177 3177 3172 3088 3007 2971 2971 2971 3087 3165 3179 3179 3179 3148 3047 2938 2754 0 0 0 0 0 0 0 0 0 0 0 1869 1842 1826 1804 1780 1767 1752 1739 1728 1723 1716 1710 1705 1700 1693 1687 1682 1676 1671 1667 1662 1658 1654 1650 1645 1641 1636 1632 1629 1623 1620 1616 1612 1607 1602 1597 1594 1591 1589 1586 1584 1582 1579 1577 1574 1571 1569 1565 1563 1560 1558 1556 1554 1551 1548 1546 1544 1542 1540 1538 1536 1535 1533 1531 1529 1528 1526 1524 1522 1520 1518 1515 1514 1513 1511 1510 1509 1507 1506 1505 1504 1503 1503 1502 1501 1500 1499 1498 1497 1496 1495 1494 1494 1493 1493 1492 1491 1491 1491 1490 1489 1489 1488 1487 1486 1485 1484 1484 1483 1483 1482 1481 1480 1480 1479 1479 1479 1479 1478 1477 1476 1475 1474 1474 1473 1472 1472 1472 1471 1471 1471 1470 1470 1470 1470 1470 1470 1470 1470 1469 1469 1468 1467 1467 1466 1466 1465 1465 1464 1464 1464 1464 1464 1464 1464 1465 1465 1465 1465 1465 1464 1464 1464 1464 1463 1463 1463 1463 1463 1463 1462 1462 1462 1462 1461 1461 1460 1459 1458 1456 1455 1453 1452 1451 1449 1448 1445 1444 1442 1439 1438 1438 1435 1433 1431 1430 1430 1430 1430 1430 1431 1432 1432 1432 1427 1424 1424 1422 1422 1422 1417 1411 1411 1411 1411 1412 1412 1412 1412
0 0 0 0 526 526 535 540 544 540 535 527 515 515 0 0 0 0 0 0 0 0 0 0 0 0 0 0 0 0 0 0 0 0 0 0 0 0 0 0 0 0 0 0 0 0 0 0 0 0 0 0 0 0 0 0 0 0 0 0 0 1773 1796 1822 1837 1858 1865 1868 1875 1877 1884 1884 1884 1895 1904 1910 1916 1920 1925 1929 1930 1932 1933 1934 1936 1940 1949 1951 1955 1964 1979 1988 1992 1992 1992 1994 2001 0 0 0 0 2548 2548 2548 2548 2547 2536 0 0 0 0 0 0 0 0 0 0 0 0 0 0 0 0 0 0 0 0 0 0 0 0 0 0 0 0 0 0 0 0 0 0 0 0 0 0 0 0 0 0 0 0 0 0 0 0 0 0 0 0 0 0 0 0 0 0 0 0 0 0 0 0 0 0 0 0 0 0 0 0 0 0 0 0 0 0 0 0 0 0 0 2517 2542 2555 2669 2817 2856 3082 3151 3201 3229 3237 3237 3241 3237 3225 3203 3118 3101 3042 2761 2671 2517 2517 2517 2523 2925 3327 3416 3419 3434 3437 3437 3437 3335 3130 2742 2515 2504 2503 2503 2503 2503 2503 2501 2500 2501 2500 2500 2501 0 0 0 0 0 0 0 0 0 2554 2642 2652 2675 2784 2924 2983 2997 3016 3016 2983 2936 2805 2649 2559 0 0 0 0 0 1881 1880 1880 0 0 0 0 0 0 0 0 0 0 0 0 0 0 0 0 0 0 0 0 0 0 0 0 0 0 0 0 0 0 0 0 0 0 0 0 0 0 0 0 0 0 0 1701 1701 1708 1724 1739 1744 1744 1744 1726 1726 1726 1731 1731 1731 1717 1697 1674 1674 1674 1677 1700 1721 1764 1768 1798 1840 1843 1844 1843 1843 0 0 0 0 0 0 0 0 0 0 0 0 0 0 0 0 0 0 0 0 0 2615 2632 2635 2648 2648 2658 2737 2919 2973 3028 3051 3066 3081 3081 3081 3075 3054 3054 3054 3055 3074 3105 3105 3105 3104 3104 3104 3152 3152 3152 3088 3000 2910 2910 2910 3036 3132 3177 3177 3177 3089 3032 2903 0 0 0 0 0 0 0 0 0 0 0 0 1869 1833 1819 1799 1777 1763 1748 1734 1728 1723 1715 1710 1705 1700 1694 1687 1682 1676 1671 1667 1662 1658 1654 1651 1646 1641 1637 1633 1629 1625 1621 1616 1612 1607 1602 1597 1594 1591 1588 1585 1583 1581 1579 1577 1574 1571 1568 1565 1562 1560 1558 1555 1553 1551 1548 1546 1544 1542 1540 1538 1536 1535 1533 1531 1529 1528 1526 1525 1522 1520 1518 1516 1514 1512 1511 1510 1508 1508 1506 1505 1505 1504 1503 1502 1501 1500 1499 1498 1497 1497 1495 1495 1494 1493 1493 1492 1491 1491 1491 1489 1489 1488 1488 1487 1486 1485 1484 1484 1483 1483 1482 1481 1481 1480 1480 1479 1479 1479 1478 1477 1476 1475 1474 1474 1473 1472 1472 1472 1472 1471 1471 1470 1470 1470 1470 1470 1470 1470 1469 1469 1469 1468 1467 1467 1466 1466 1465 1465 1464 1464 1464 1464 1465 1465 1465 1465 1465 1465 1465 1464 1464 1464 1463 1463 1463 1463 1463 1463 1463 1462 1462 1462 1462 1462 1461 1461 1460 1460 1458 1456 1455 1453 1452 1451 1449 1447 1445 1444 1442 1439 1438 1437 1435 1433 1431 1430 1430 1430 1430 1429 1429 1429 1429 1429 1426 1424 1424 1422 1422 1422 1414 1411 1409 1409 1411 1411 1410 1410 1410
0 0 0 0 483 493 513 522 525 527 527 525 515 515 0 0 0 0 558 547 546 546 547 554 576 0 0 0 0 0 0 0 0 0 0 0 0 0 0 0 0 0 0 0 0 0 0 0 0 0 0 0 0 0 0 0 0 0 0 0 0 1778 1801 1817 1833 1844 1860 1867 1874 1874 1875 1877 1878 1882 1890 1900 1905 1907 1913 1917 1923 1929 1933 1934 1936 1940 1949 1951 1955 1963 1979 1988 1992 1992 1994 2000 2025 0 0 0 2545 2605 2617 2638 2638 2638 2624 2597 2533 0 0 0 0 0 0 0 0 0 0 0 0 0 0 0 0 0 0 0 0 0 0 0 0 0 0 0 0 0 0 0 0 0 0 0 0 0 0 0 0 0 0 0 0 0 0 0 0 0 0 0 0 0 0 0 0 0 0 0 0 0 0 0 0 0 0 0 0 0 0 0 0 0 0 0 2626 2910 3046 3129 3173 3217 3275 3275 3291 3292 3345 3345 3350 3350 3335 3284 3282 3256 3248 3241 3225 3203 3118 3101 3042 2761 2748 2641 2641 2641 3109 3331 3361 3416 3419 3434 3437 3437 3437 3335 3082 2615 2507 2507 2507 2526 2526 2526 2516 2516 2515 2515 2514 2511 2502 0 0 0 0 0 0 0 0 0 2554 2609 2624 2626 2669 2717 2717 2717 2648 2648 2606 2588 0 0 0 0 0 0 1854 1873 1878 1881 1883 1891 0 0 0 0 0 0 0 0 0 0 0 0 0 0 0 0 0 0 0 0 0 0 0 0 0 0 0 0 0 0 0 0 0 0 0 0 0 0 0 0 0 1750 1744 1735 1735 1735 1735 1737 1742 1742 1742 1737 1734 1729 1723 1719 1699 1697 1674 1674 1674 1677 1700 1721 1762 1764 1768 1798 1840 1843 1843 1843 1839 1839 0 0 0 0 0 0 0 0 0 0 0 0 0 0 0 0 0 0 0 0 0 0 0 0 0 2636 2814 2973 3028 3051 3066 3079 3079 3079 3075 3053 3011 3011 3011 3016 3099 3099 3099 3098 3085 3085 3079 3079 3079 3054 3000 2910 2905 2905 2905 3103 3108 3108 3108 3033 2928 2816 0 0 0 0 0 0 0 0 0 0 0 0 1849 1828 1811 1793 1773 1756 1741 1734 1728 1723 1715 1710 1705 1699 1693 1688 1682 1678 1673 1667 1662 1658 1655 1652 1648 1643 1639 1635 1631 1627 1623 1618 1612 1607 1602 1597 1594 1591 1588 1585 1583 1581 1579 1577 1573 1571 1568 1565 1562 1560 1558 1555 1553 1551 1548 1546 1544 1542 1541 1538 1536 1535 1533 1531 1529 1528 1526 1525 1522 1520 1518 1515 1514 1512 1511 1510 1508 1508 1506 1506 1505 1504 1503 1503 1501 1500 1499 1498 1497 1497 1495 1495 1494 1493 1493 1492 1491 1491 1491 1489 1489 1488 1487 1487 1486 1485 1484 1484 1484 1483 1482 1481 1481 1480 1480 1480 1479 1479 1478 1478 1476 1475 1475 1474 1473 1472 1472 1472 1472 1471 1471 1470 1470 1470 1470 1469 1469 1469 1469 1469 1469 1468 1467 1467 1466 1466 1465 1465 1465 1464 1464 1465 1465 1465 1465 1465 1465 1465 1464 1464 1464 1463 1463 1463 1463 1463 1463 1462 1462 1462 1462 1462 1462 1462 1461 1461 1460 1460 1459 1457 1456 1454 1452 1451 1449 1447 1445 1444 1442 1438 1437 1436 1435 1433 1431 1430 1430 1430 1430 1429 1428 1428 1428 1427 1425 1424 1424 1422 1422 1422 1413 1408 1406 1406 1404 1404 1404 1402 1402
0 0 483 483 483 493 504 505 511 514 515 515 515 515 515 541 541 541 538 538 538 545 546 573 576 610 0 0 0 0 0 0 0 0 0 0 0 0 0 0 789 803 803 803 0 0 0 0 0 0 0 0 0 0 0 0 0 0 0 0 0 1778 1801 1817 1823 1838 1849 1861 1863 1864 1864 1866 1869 1875 1883 1884 1887 1889 1889 1893 1902 1909 1914 1919 1928 1939 1948 1951 1956 1964 1983 1991 1994 1998 2006 2015 2051 0 0 0 2545 2605 2635 2654 2654 2654 2624 2598 2568 2547 2502 0 0 0 0 0 0 0 0 0 0 0 0 0 0 0 0 0 0 0 0 0 0 0 0 0 0 0 0 0 0 0 0 0 0 0 0 0 0 0 0 0 0 0 0 0 0 0 0 0 0 0 0 0 0 0 0 0 0 0 0 0 0 0 0 0 0 0 0 0 0 0 0 2941 3151 3247 3289 3315 3328 3336 3336 3336 3336 3336 3353 3353 3353 3350 3335 3284 3282 3256 3248 3241 3225 3203 2973 2911 2778 2761 2761 2761 2811 3251 3326 3331 3361 3406 3406 3406 3403 3397 3366 3240 3018 2562 2507 2507 2507 2526 2532 2534 2535 2536 2536 2534 2514 2511 2500 0 0 0 0 0 0 0 0 0 0 2552 2554 2560 2561 2566 2566 2566 2502 0 0 0 0 0 0 0 0 1854 1857 1873 1878 1916 1925 1941 1955 0 0 0 0 0 0 0 0 0 0 0 0 0 0 0 0 0 0 0 0 0 0 0 0 0 0 0 0 0 0 0 0 0 0 0 0 0 0 0 0 1750 1744 1735 1729 1729 1729 1734 1749 1749 1749 1743 1725 1725 1713 1711 1699 1697 1679 1677 1677 1679 1706 1744 1758 1762 1766 1778 1802 1824 1835 1835 1835 1839 1839 0 0 0 0 0 0 0 0 0 0 0 0 0 0 0 0 0 0 0 0 0 0 0 0 0 2717 2948 3025 3040 3055 3056 3070 3070 3056 3043 2912 2856 2856 2856 2926 2961 2961 2961 2897 2833 2833 2833 2836 2851 2851 2851 2780 2780 2780 3042 3081 3081 3081 2984 2815 0 0 0 0 0 0 0 0 0 0 0 0 1887 1842 1826 1808 1788 1769 1752 1739 1734 1728 1723 1715 1710 1705 1699 1693 1688 1683 1678 1673 1669 1663 1659 1656 1653 1648 1644 1640 1636 1632 1628 1624 1619 1613 1608 1602 1597 1594 1591 1588 1585 1582 1580 1578 1575 1573 1571 1567 1565 1562 1560 1557 1555 1553 1551 1548 1546 1544 1542 1541 1538 1536 1535 1533 1531 1529 1528 1527 1525 1522 1520 1518 1515 1514 1512 1511 1510 1508 1508 1506 1506 1505 1504 1504 1503 1501 1500 1499 1498 1497 1497 1495 1494 1494 1493 1492 1492 1491 1490 1489 1488 1488 1488 1487 1486 1485 1485 1484 1484 1484 1483 1482 1481 1481 1480 1480 1480 1479 1479 1478 1478 1476 1475 1475 1474 1473 1472 1472 1472 1472 1471 1471 1471 1470 1470 1470 1469 1469 1469 1469 1469 1469 1467 1467 1467 1466 1466 1465 1465 1465 1465 1465 1465 1465 1465 1465 1465 1465 1465 1464 1464 1463 1463 1463 1462 1462 1462 1462 1462 1462 1462 1462 1462 1462 1461 1461 1460 1460 1460 1459 1457 1456 1454 1452 1451 1448 1446 1445 1444 1442 1438 1436 1435 1432 1432 1431 1431 1431 1431 1430 1429 1428 1427 1427 1426 1425 1422 1421 1421 1420 1414 1412 1407 1404 1403 1400 1399 1398 1398 1398
524 483 483 483 483 493 503 504 0 0 0 543 543 551 551 545 541 541 538 538 538 545 546 573 576 608 0 0 0 0 0 0 0 0 0 0 0 0 0 789 789 800 802 803 818 0 0 0 0 0 0 0 0 0 0 0 0 0 0 0 0 1778 1801 1810 1812 1825 1849 1851 1851 1851 1845 1845 1845 1853 1858 1863 1864 1866 1869 1879 1898 1909 1914 1919 1928 1939 1948 1951 1956 1964 1983 1991 1998 2007 2020 2033 2057 0 0 0 2545 2605 2640 2654 2654 2654 2624 2598 2568 2547 2511 2502 0 0 0 0 0 0 0 0 0 0 0 0 0 0 0 0 0 0 0 0 0 0 0 0 0 0 0 0 0 0 0 0 0 0 0 0 0 0 0 0 0 0 0 0 0 0 0 0 0 0 0 0 0 0 0 0 0 0 0 0 0 0 0 0 0 0 0 0 0 0 0 2942 3163 3247 3289 3315 3328 3337 3337 3337 3340 3350 3353 3353 3353 3350 3335 3284 3282 3256 3248 2981 2875 2831 2831 2831 2778 2778 2973 3192 3269 3270 3326 3331 3333 3333 3333 3323 3306 3288 3250 3142 2923 2508 2507 2507 2507 2526 2532 2534 2535 2536 2536 2534 2514 2511 0 0 0 0 0 0 0 0 0 0 0 0 0 0 0 0 0 0 0 0 0 0 0 0 0 0 0 1884 1888 1895 1924 1924 1925 1941 1955 1957 0 0 0 0 0 0 0 0 0 0 0 0 0 0 0 0 0 0 0 0 0 0 0 0 0 0 0 0 0 0 0 0 2160 2160 2158 0 0 0 0 1750 1744 1735 1722 1722 1722 1734 1750 1750 1750 1745 1728 1725 1713 1711 1711 1711 1707 1707 1713 1713 1717 1744 1755 1755 1758 1758 1766 1785 1805 1805 1805 1809 1809 1833 0 0 0 0 0 0 0 0 0 0 0 0 0 0 0 0 0 0 0 0 0 0 0 0 2508 2939 3025 3040 3045 3045 3045 3014 3011 2934 2910 2800 2771 2766 2761 2687 2675 2651 2614 2605 2605 2605 2608 2650 2650 2650 2607 2607 2607 2906 2987 2987 2987 2757 0 0 0 0 0 0 0 0 0 0 0 0 0 1871 1840 1826 1801 1777 1761 1750 1739 1734 1728 1723 1715 1710 1705 1699 1693 1688 1683 1678 1673 1669 1664 1660 1656 1653 1650 1646 1641 1637 1633 1629 1625 1619 1613 1608 1602 1597 1594 1591 1588 1585 1582 1580 1578 1575 1572 1570 1567 1565 1562 1560 1557 1555 1552 1550 1548 1546 1544 1542 1541 1538 1536 1535 1533 1531 1529 1528 1527 1524 1522 1520 1518 1516 1514 1512 1511 1510 1509 1508 1507 1506 1505 1504 1504 1503 1501 1500 1499 1498 1496 1496 1495 1494 1493 1493 1492 1492 1490 1490 1489 1488 1488 1487 1487 1486 1485 1485 1484 1484 1484 1483 1482 1481 1481 1480 1480 1480 1480 1479 1478 1478 1477 1476 1475 1474 1473 1472 1472 1472 1471 1471 1471 1471 1470 1470 1470 1469 1469 1469 1469 1469 1468 1467 1467 1467 1466 1466 1465 1465 1465 1465 1465 1465 1465 1465 1465 1465 1465 1465 1464 1463 1463 1462 1462 1461 1461 1461 1461 1461 1461 1461 1461 1461 1461 1461 1461 1460 1460 1459 1458 1457 1456 1454 1452 1450 1448 1446 1444 1444 1441 1438 1436 1434 1432 1432 1431 1431 1431 1431 1430 1429 1428 1426 1426 1425 1423 1419 1418 1417 1416 1414 1408 1402 1399 1397 1394 1394 1394 1394 1394
524 512 512 501 501 493 491 0 0 0 0 0 0 556 556 552 542 541 541 541 541 544 545 567 573 0 0 0 0 0 0 0 0 0 0 0 0 0 0 786 787 789 800 800 812 821 0 0 0 0 0 0 0 0 0 0 0 0 0 0 0 1771 1790 1801 1805 1816 1836 1836 1836 1832 1832 1832 1842 1851 1858 1863 1864 1865 1869 1879 1898 1909 1914 1919 1928 1939 1948 1957 1960 1980 1993 2006 2014 2017 2024 2033 2057 0 0 0 2513 2598 2641 2653 2653 2653 2623 2598 2568 2547 2511 2502 0 0 0 0 0 0 0 0 0 0 0 0 0 0 0 0 0 0 0 0 0 0 0 0 0 0 0 0 0 0 0 0 0 0 0 0 0 0 0 0 0 0 0 0 0 0 0 0 0 0 0 0 0 0 0 0 0 0 0 0 0 0 0 0 0 0 0 0 0 0 0 2942 3163 3247 3289 3315 3328 3337 3337 3337 3340 3339 3326 3318 3282 3208 3046 3016 2946 2814 2717 2717 2717 2778 2831 2875 2973 3074 3132 3192 3269 3270 3315 3315 3315 3295 3274 3274 3259 3251 3210 3100 2587 2473 2473 2473 2498 2518 2532 2534 2535 2536 2536 2534 2513 0 0 0 0 0 0 0 0 0 0 0 0 0 0 0 0 0 0 0 0 0 0 1739 1739 1743 1755 0 0 1893 1905 1906 1924 1924 1924 1932 1919 1919 1919 1855 1855 1855 1853 1853 0 0 0 0 0 0 0 0 0 0 0 0 0 0 0 0 0 0 0 0 0 0 0 0 0 2203 2190 2190 2158 2158 0 0 0 1772 1739 1724 1722 1722 1722 1734 1754 1754 1754 1751 1738 1725 1719 1719 1719 1734 1734 1734 1734 1734 1734 1744 1755 1755 1755 1755 1758 1775 1775 1775 1764 1764 1764 1793 0 0 0 0 0 0 0 0 0 0 0 0 0 0 0 0 0 0 0 0 0 0 0 0 0 2638 2950 2952 2952 2950 2907 2834 2724 2617 2617 2617 2643 2643 2643 2616 2514 0 0 0 0 2518 2534 2583 2583 2583 2573 0 0 0 2661 2661 2661 0 0 0 0 0 0 0 0 0 0 0 0 0 1884 1863 1836 1820 1784 1760 1747 1742 1738 1734 1729 1724 1717 1710 1705 1699 1693 1688 1684 1680 1674 1669 1665 1661 1658 1654 1651 1647 1643 1638 1634 1629 1625 1620 1613 1608 1603 1598 1594 1592 1588 1585 1582 1580 1577 1574 1572 1570 1567 1565 1562 1559 1557 1555 1552 1550 1548 1546 1544 1542 1541 1539 1536 1534 1533 1531 1529 1528 1527 1524 1522 1519 1518 1516 1514 1512 1511 1511 1509 1508 1507 1506 1505 1504 1504 1503 1501 1500 1499 1498 1496 1495 1495 1494 1493 1492 1491 1490 1490 1489 1489 1488 1488 1487 1486 1486 1485 1485 1484 1484 1483 1482 1482 1481 1481 1480 1480 1480 1480 1479 1478 1477 1477 1475 1475 1474 1473 1473 1472 1472 1471 1471 1471 1471 1470 1470 1470 1469 1469 1469 1469 1468 1468 1467 1467 1467 1466 1466 1465 1465 1465 1464 1464 1464 1465 1465 1465 1465 1465 1465 1464 1463 1463 1462 1462 1461 1461 1461 1461 1460 1460 1460 1460 1460 1460 1460 1460 1460 1459 1458 1458 1457 1456 1453 1452 1450 1448 1446 1444 1443 1441 1438 1436 1434 1432 1432 1432 1431 1431 1431 1430 1430 1428 1426 1424 1422 1420 1417 1417 1416 1416 1414 1407 1399 1397 1393 1391 1388 1388 1388 1388
534 515 515 501 493 491 477 0 0 0 0 0 0 0 556 552 542 542 542 541 538 538 538 538 566 0 0 0 0 0 0 0 0 0 0 0 0 0 0 786 793 794 797 797 802 810 0 0 0 0 0 0 0 0 0 0 0 0 0 0 0 1747 1778 1784 1784 1790 1804 1814 1817 1819 1822 1831 1839 1850 1858 1863 1864 1865 1869 1879 1898 1913 1917 1924 1935 1948 1956 1964 1981 1984 1999 2009 2016 2020 2024 2033 2057 0 0 0 0 2598 2647 2653 2653 2653 2623 2545 2533 2511 2495 2495 2492 0 0 0 0 0 0 0 0 0 0 0 0 0 0 0 0 0 0 0 0 0 0 0 0 0 0 0 0 0 0 0 0 0 0 0 0 0 0 0 0 0 0 0 0 0 0 0 0 0 0 0 0 0 0 0 0 0 0 0 0 0 0 0 0 0 0 0 0 0 0 2941 3151 3212 3222 3247 3284 3304 3305 3305 3305 3241 3219 3073 2921 0 0 0 0 0 0 2551 2717 2814 2831 2871 2973 3074 3132 3192 3265 3265 3269 3270 3265 3264 3264 3219 3183 3136 3009 2562 0 0 0 0 0 0 0 2509 2509 2509 2509 2501 0 0 0 0 0 0 0 0 0 0 0 0 0 0 0 0 0 0 0 0 0 0 1753 1753 1755 1777 1793 1802 0 1893 1905 1906 1912 1912 1912 1896 1878 1856 1840 1840 1840 1853 1886 1888 1888 1895 1895 1895 1905 1905 1905 1913 1913 0 0 0 0 0 0 0 0 0 0 0 0 0 0 0 0 2185 2185 2185 2158 2158 0 0 0 0 1739 1724 1722 1722 1722 1738 1754 1760 1760 1760 1743 1736 1736 1736 1739 1740 1740 1745 1740 1740 1740 1740 1740 1740 1739 1742 1743 1749 1749 1749 1732 1729 1729 1729 0 0 0 0 0 0 0 0 0 0 0 0 0 0 0 0 0 0 0 0 0 0 0 0 0 0 0 2533 2698 2698 2698 0 0 0 0 2544 2578 2578 2578 2522 0 0 0 0 0 0 0 2531 2531 2531 0 0 0 0 0 0 0 0 0 0 0 0 0 0 0 0 0 0 0 0 1866 1845 1830 1815 1773 1751 1746 1741 1738 1734 1731 1727 1720 1710 1705 1699 1693 1688 1685 1681 1675 1670 1666 1661 1659 1655 1652 1649 1644 1638 1634 1629 1625 1620 1613 1608 1604 1599 1595 1592 1588 1585 1582 1579 1577 1574 1572 1569 1567 1565 1562 1559 1557 1555 1552 1550 1548 1546 1544 1542 1540 1539 1536 1534 1533 1531 1529 1527 1526 1523 1522 1519 1518 1516 1514 1513 1511 1511 1509 1508 1508 1506 1505 1504 1503 1502 1501 1500 1499 1498 1496 1495 1495 1493 1492 1491 1490 1489 1489 1489 1489 1488 1488 1486 1486 1486 1484 1484 1484 1483 1482 1482 1482 1481 1481 1480 1480 1480 1480 1479 1478 1477 1476 1475 1475 1474 1473 1473 1472 1472 1471 1471 1471 1471 1470 1470 1469 1469 1469 1468 1468 1468 1468 1467 1467 1467 1466 1466 1465 1465 1465 1465 1465 1465 1465 1465 1465 1465 1465 1465 1464 1463 1462 1462 1461 1460 1460 1460 1460 1460 1460 1460 1460 1460 1460 1460 1460 1458 1458 1458 1457 1456 1455 1453 1452 1450 1448 1446 1444 1443 1441 1438 1437 1434 1432 1432 1432 1431 1431 1431 1430 1430 1428 1426 1423 1418 1416 1416 1416 1416 1416 1414 1405 1399 1396 1392 1390 1386 1386 1384 1384
528 515 515 501 491 477 0 0 0 0 0 0 0 0 0 552 542 542 541 541 536 514 514 514 515 0 0 0 0 0 0 0 0 0 0 0 0 0 0 786 794 797 797 795 795 797 0 0 0 0 0 0 0 0 0 0 0 0 0 0 0 1729 1754 1764 1766 1767 1776 1800 1802 1811 1814 1831 1839 1850 1861 1865 1871 1877 1881 1896 1918 1929 1932 1935 1946 1956 1965 1971 1985 1989 2000 2012 2020 2025 2027 2039 2057 0 0 0 0 2598 2666 2666 2666 2653 2623 2521 2430 2430 2430 2479 2490 2490 0 0 0 0 0 0 0 0 0 0 0 0 0 0 0 0 0 0 0 0 0 0 0 0 0 0 0 0 0 0 0 0 0 0 0 0 0 0 0 0 0 0 0 0 0 0 0 0 0 0 0 0 0 0 0 0 0 0 0 0 0 0 0 0 0 0 0 0 0 0 2806 2841 2849 2866 2884 2884 2884 2881 2799 0 0 0 0 0 0 0 0 0 0 2536 2708 2814 2831 2871 2973 3074 3074 3074 3010 3005 3000 2999 2999 2998 2823 2775 2600 2548 0 0 0 0 0 0 0 0 0 0 0 0 0 0 0 0 0 0 0 0 0 0 0 0 0 0 0 0 0 0 0 0 0 1791 1762 1753 1753 1753 1758 1777 1793 1802 0 0 1893 1893 1885 1884 1878 1869 1856 1840 1835 1835 1835 1853 1886 1890 1904 1904 1908 1922 1922 1922 1917 1917 1917 1954 0 0 0 0 0 0 0 0 0 0 0 0 0 0 0 2168 2168 2168 2158 2158 0 0 0 0 1739 1735 1735 1735 1752 1769 1786 1786 1786 1776 1760 1749 1749 1749 1745 1745 1745 1745 1745 1745 1745 1740 1737 1728 1728 1723 1723 1723 1723 1723 1720 1715 1710 1711 1711 1701 1687 1667 1664 1664 1667 1664 1669 1671 1694 1694 1698 1706 1709 0 0 0 0 0 0 0 0 0 0 0 0 0 0 0 0 0 0 0 0 0 0 0 0 0 0 0 0 0 0 0 0 0 0 0 0 0 0 0 0 0 0 0 0 0 0 0 0 0 0 0 0 0 0 0 1858 1841 1828 1803 1771 1750 1746 1741 1738 1734 1731 1727 1723 1713 1706 1700 1695 1691 1685 1681 1676 1671 1667 1663 1660 1657 1653 1650 1646 1641 1634 1630 1626 1621 1614 1610 1605 1602 1597 1592 1588 1585 1582 1580 1577 1574 1572 1569 1567 1564 1562 1559 1557 1554 1552 1550 1548 1546 1544 1542 1540 1538 1536 1534 1532 1530 1529 1527 1526 1523 1522 1519 1518 1516 1514 1513 1511 1511 1510 1508 1508 1506 1505 1504 1503 1502 1501 1500 1499 1497 1496 1495 1494 1493 1492 1491 1490 1489 1489 1489 1488 1487 1486 1486 1485 1484 1484 1484 1483 1482 1482 1481 1481 1481 1481 1480 1480 1480 1480 1479 1478 1477 1476 1475 1475 1474 1473 1472 1472 1472 1471 1471 1471 1471 1470 1470 1469 1469 1469 1468 1468 1468 1467 1467 1467 1467 1467 1466 1466 1465 1465 1464 1464 1464 1464 1465 1465 1465 1464 1464 1464 1462 1462 1461 1460 1459 1459 1459 1459 1459 1459 1459 1459 1459 1459 1459 1458 1458 1458 1458 1457 1456 1454 1453 1451 1450 1447 1446 1444 1443 1441 1439 1437 1435 1434 1433 1432 1431 1431 1431 1430 1430 1428 1426 1423 1418 1416 1415 1415 1415 1415 1413 1405 1398 1396 1392 1390 1386 1386 1384 1384
526 515 515 481 469 0 0 0 0 0 0 0 0 0 0 0 0 0 0 528 528 508 507 507 508 523 538 0 0 0 0 0 0 0 0 0 0 0 0 794 794 794 794 791 791 791 0 0 0 0 0 0 0 0 0 0 0 0 0 0 0 1719 1741 1754 1756 1756 1763 1788 1802 1811 1814 1831 1839 1850 1861 1883 1884 1885 1897 1915 1930 1941 1946 1950 1959 1965 1973 1983 1993 2002 2005 2012 2020 2026 2027 2039 2043 0 0 0 0 2682 2791 2791 2791 2681 2659 2521 0 2430 2430 2479 2507 2539 2564 0 0 0 0 0 0 0 0 0 0 0 0 0 0 0 0 2689 2689 2630 0 0 0 0 0 0 0 0 0 0 0 0 0 0 0 0 0 0 0 0 0 0 0 0 0 0 0 0 0 0 0 0 0 0 0 0 0 0 0 0 0 0 0 0 0 0 0 0 0 0 0 0 0 0 0 0 0 0 0 0 0 0 0 0 0 0 0 0 0 0 2708 2814 2814 2814 2786 2722 2669 0 0 0 0 0 0 0 0 0 0 0 0 0 0 0 0 0 0 0 0 0 0 0 0 0 0 0 0 0 0 0 0 0 0 0 0 0 0 0 0 0 0 0 0 1783 1761 1753 1753 1753 1758 1777 1793 1802 0 0 0 0 0 0 0 0 0 0 1798 1798 1817 1846 1884 1890 1904 1904 1908 1922 1922 1922 1917 1917 1917 1938 0 0 0 0 0 0 0 0 0 0 0 0 0 0 0 0 2147 2145 2132 0 0 0 0 0 1784 1784 1784 1784 1788 1790 1795 1803 1803 1803 1781 1768 1767 1764 1760 1745 1745 1745 1747 1747 1747 1740 1735 1728 1715 1705 1705 1704 1704 1705 1711 1704 1704 1693 1671 1664 1664 1662 1664 1664 1667 1664 1668 1669 1679 1680 1684 1697 1709 1725 0 0 0 0 0 0 0 0 0 0 0 0 0 0 0 0 0 0 0 0 0 0 0 0 0 0 0 0 0 0 0 0 0 0 0 0 0 0 0 0 0 0 0 0 0 0 0 0 0 0 0 0 0 0 1858 1839 1823 1795 1764 1750 1746 1741 1738 1734 1731 1728 1723 1713 1706 1701 1696 1691 1686 1681 1676 1672 1668 1665 1662 1659 1655 1651 1647 1642 1637 1632 1627 1621 1615 1610 1606 1603 1598 1593 1588 1585 1582 1580 1577 1574 1572 1569 1567 1564 1562 1559 1557 1554 1552 1550 1548 1545 1543 1542 1539 1538 1536 1534 1532 1530 1528 1526 1525 1523 1521 1519 1518 1516 1514 1513 1511 1511 1510 1508 1508 1506 1505 1504 1503 1502 1501 1500 1498 1497 1495 1495 1494 1493 1491 1490 1490 1489 1489 1488 1488 1487 1486 1486 1485 1484 1484 1483 1483 1482 1482 1481 1481 1481 1481 1480 1479 1479 1479 1478 1478 1477 1476 1475 1475 1474 1473 1472 1472 1472 1471 1471 1471 1471 1470 1469 1469 1469 1468 1468 1468 1468 1467 1467 1467 1467 1467 1466 1466 1465 1465 1464 1464 1464 1464 1464 1464 1464 1463 1463 1463 1461 1461 1461 1459 1459 1458 1458 1458 1458 1459 1459 1459 1459 1458 1458 1458 1458 1457 1457 1456 1455 1453 1452 1450 1450 1447 1446 1443 1442 1441 1439 1437 1436 1434 1433 1433 1432 1431 1431 1430 1430 1429 1427 1423 1418 1416 1415 1415 1413 1412 1409 1403 1399 1396 1392 1390 1386 1386 1383 1383
0 0 0 0 0 0 0 0 0 0 0 0 0 0 0 0 0 0 0 507 507 507 504 489 489 489 493 507 0 0 0 0 0 0 0 0 0 0 0 803 803 803 794 791 791 791 0 0 0 0 0 0 0 0 0 0 0 0 0 0 0 1716 1736 1740 1750 1751 1753 1781 1802 1811 1814 1836 1850 1859 1873 1884 1908 1916 1929 1930 1934 1952 1961 1965 1971 1975 1981 1990 1996 2002 2005 2013 2020 2027 2035 2039 2043 0 0 0 0 2761 2893 2893 2893 2810 2687 2533 0 0 2430 2479 2484 2539 2564 0 0 0 0 0 0 0 0 0 0 0 0 0 0 0 2690 2844 2898 2898 2898 0 0 0 0 0 0 0 0 0 0 0 0 0 0 0 0 0 0 0 0 0 0 0 0 0 0 0 0 0 0 0 0 0 0 0 0 0 0 0 0 0 0 0 0 0 0 0 0 0 0 0 0 0 0 0 0 0 0 0 0 0 0 0 0 0 0 0 0 0 0 0 0 0 0 0 0 0 0 0 0 0 0 0 0 0 0 0 0 0 0 0 0 0 0 0 0 0 0 0 0 0 0 0 0 0 0 0 0 0 0 0 0 0 0 0 0 0 0 0 0 1770 1753 1753 1753 1753 1755 1759 1760 0 0 0 0 0 0 0 0 0 0 0 1771 1772 1783 1809 1836 1857 1864 1890 1908 1922 1922 1922 1917 1917 1917 1918 0 0 0 0 0 0 0 0 0 0 0 0 0 0 0 0 0 0 0 0 0 0 0 1866 1830 1814 1808 1796 1795 1795 1795 1812 1815 1815 1815 1798 1794 1791 1779 1745 1745 1745 1747 1747 1747 1746 1732 1723 1714 1702 1701 1695 1695 1695 1702 1702 1702 1691 1662 1653 1653 1653 1663 1664 1664 1664 1664 1656 1656 1656 1675 1677 1703 1713 0 0 0 0 0 0 0 0 0 0 0 0 0 0 0 0 0 0 0 0 0 0 0 0 0 0 0 0 0 0 0 0 0 0 0 0 0 0 0 0 0 0 0 0 0 0 0 0 0 0 0 0 0 0 1853 1834 1814 1783 1762 1751 1746 1744 1739 1735 1733 1729 1724 1716 1707 1703 1698 1693 1687 1681 1678 1674 1670 1667 1663 1660 1656 1653 1649 1644 1638 1635 1630 1624 1618 1613 1606 1603 1599 1594 1589 1585 1582 1579 1577 1574 1572 1569 1567 1564 1562 1559 1557 1554 1552 1550 1548 1545 1543 1541 1538 1537 1536 1534 1532 1529 1527 1526 1525 1523 1520 1518 1517 1515 1514 1513 1511 1510 1509 1508 1508 1506 1505 1504 1503 1502 1501 1499 1498 1497 1495 1494 1493 1492 1491 1490 1490 1489 1489 1488 1487 1487 1485 1485 1484 1484 1483 1483 1482 1482 1481 1481 1481 1481 1481 1480 1479 1479 1478 1478 1477 1477 1476 1475 1475 1474 1473 1472 1472 1472 1471 1471 1471 1470 1469 1469 1469 1468 1468 1468 1468 1468 1467 1467 1467 1467 1467 1466 1466 1465 1465 1464 1464 1464 1464 1464 1463 1463 1463 1463 1462 1461 1461 1460 1458 1458 1458 1458 1457 1457 1457 1457 1457 1458 1458 1458 1458 1458 1456 1456 1455 1455 1453 1451 1450 1448 1446 1444 1441 1441 1440 1438 1437 1436 1435 1434 1433 1433 1433 1432 1431 1431 1429 1427 1423 1418 1416 1416 1415 1412 1409 1406 1403 1399 1397 1395 1392 1386 1386 1383 1383
0 0 0 0 0 0 0 0 0 0 0 0 0 0 0 0 0 0 0 507 507 507 489 488 487 484 484 484 0 0 0 0 0 0 0 0 0 0 0 814 814 814 794 794 794 798 0 0 0 0 0 0 0 0 0 0 0 0 0 0 0 1710 1726 1726 1732 1732 1732 1761 1799 1822 1824 1851 1866 1877 1890 1901 1909 1917 1942 1943 1948 1960 1968 1975 1981 1986 1992 1999 2002 2005 2006 2013 2020 2027 2035 2039 2041 0 0 0 0 2832 2964 2964 2964 2962 2920 2854 2694 2490 2484 2484 2490 2493 2539 0 0 0 0 0 0 0 0 0 0 0 0 0 0 0 2690 2844 2898 2898 2898 0 0 0 0 0 0 0 0 0 0 0 0 0 0 0 0 0 0 0 0 0 0 0 0 0 0 0 0 0 0 0 0 0 0 0 0 0 0 0 0 0 0 0 0 0 0 0 0 0 0 0 0 0 0 0 0 0 0 0 0 0 0 0 0 0 0 0 0 0 0 0 0 0 0 0 0 0 0 0 0 0 0 0 0 0 0 0 0 0 0 0 0 0 0 0 0 0 0 0 0 0 0 0 0 0 0 0 0 0 0 0 0 0 0 0 0 0 0 0 0 1753 1753 1749 1745 1745 1740 0 0 0 0 0 0 0 0 0 0 0 0 0 0 1730 1745 1777 1801 0 0 1842 1881 1894 1894 1894 1886 1884 1884 1884 0 0 0 0 0 0 0 0 0 0 0 0 0 0 0 0 0 0 0 0 0 0 1900 1867 1845 1822 1809 1796 1795 1795 1795 1812 1818 1818 1818 1798 1794 1791 1779 1770 1746 1746 1746 1746 1746 1746 1731 1720 1708 1699 1698 1694 1694 1694 1699 1699 1699 1692 1662 1651 1651 1651 1663 1664 1664 1664 1663 1654 1653 1653 1653 1675 1703 1703 0 0 0 0 0 0 0 0 0 0 0 0 0 0 0 0 0 0 0 0 0 0 0 0 0 0 0 0 0 0 0 0 0 0 0 0 0 0 0 0 0 0 0 0 0 0 0 0 0 0 0 0 0 0 1852 1827 1805 1783 1759 1751 1748 1745 1740 1736 1733 1729 1725 1716 1709 1704 1699 1695 1689 1683 1679 1675 1671 1668 1664 1660 1656 1653 1649 1644 1639 1635 1631 1625 1618 1613 1606 1603 1599 1594 1590 1585 1582 1580 1577 1574 1572 1569 1567 1564 1562 1559 1557 1554 1552 1550 1548 1545 1543 1540 1538 1537 1535 1533 1531 1529 1527 1526 1523 1522 1520 1518 1516 1515 1514 1512 1511 1510 1509 1509 1507 1507 1505 1504 1503 1502 1500 1499 1498 1496 1495 1494 1493 1492 1491 1490 1490 1489 1489 1488 1487 1486 1485 1485 1484 1483 1483 1483 1482 1482 1481 1481 1481 1481 1480 1479 1479 1479 1478 1478 1477 1476 1476 1475 1474 1474 1473 1472 1472 1472 1472 1471 1471 1470 1469 1469 1469 1468 1468 1468 1468 1468 1468 1467 1467 1467 1467 1466 1466 1466 1465 1464 1464 1464 1464 1463 1463 1463 1462 1462 1462 1461 1460 1459 1458 1458 1457 1457 1457 1457 1457 1457 1457 1457 1457 1457 1457 1457 1456 1456 1454 1453 1452 1451 1449 1447 1445 1443 1441 1440 1439 1438 1437 1436 1435 1435 1434 1434 1434 1433 1433 1431 1429 1427 1424 1421 1421 1419 1415 1412 1409 1406 1403 1401 1400 1399 1395 1388 1385 1384 1384
0 0 0 0 0 0 0 0 0 0 0 0 0 0 0 0 0 0 0 507 507 507 489 488 487 484 484 0 0 0 0 0 0 0 0 0 0 0 0 835 835 835 807 798 798 798 0 0 0 0 0 0 0 0 0 0 0 0 0 0 0 1709 1709 1709 1709 1709 1709 1760 1795 1822 1824 1851 1866 1878 1891 1906 1918 1931 1942 1949 1955 1960 1968 1975 1981 1987 1992 1999 2002 2005 2006 2012 2017 2027 2035 2039 2041 0 0 0 0 2855 2967 3004 3012 3012 3012 2974 2914 2810 2554 2507 2507 2539 2507 2493 0 0 0 0 0 0 0 0 0 0 0 0 0 0 2689 2844 2898 2898 2898 0 0 0 0 0 0 0 0 0 0 0 0 0 0 0 0 0 0 0 0 0 0 0 0 0 0 0 0 0 0 0 0 0 0 0 0 0 0 0 0 0 0 0 0 0 0 0 0 0 0 0 0 0 0 0 0 0 0 0 0 0 0 0 0 0 0 0 0 0 0 0 0 0 0 0 0 0 0 0 0 0 0 0 0 0 0 0 0 0 0 0 0 0 0 0 0 0 0 0 0 0 0 0 0 0 0 0 0 0 0 0 0 0 0 0 0 0 0 0 0 1746 1735 1730 1720 0 0 0 0 0 0 0 0 0 0 0 0 0 0 1653 1653 1700 0 0 0 0 0 1798 1849 1879 1879 1879 1867 1851 1851 1851 0 0 0 0 0 0 0 0 0 0 0 0 0 0 0 0 0 0 0 0 1921 1888 1871 1867 1851 1826 1809 1796 1794 1794 1794 1812 1818 1818 1818 1798 1794 1791 1779 1770 1760 1747 1747 1746 1746 1746 1731 1714 1706 1698 1697 1692 1692 1692 1698 1698 1698 1692 1662 1651 1651 1651 1663 1664 1664 1664 1653 1638 1637 1637 1637 1671 1671 1671 1654 0 0 0 0 0 1602 1601 1601 1595 1584 1560 1560 1560 1571 1576 1603 1638 1642 1647 1672 1684 1689 1691 0 0 0 0 0 0 0 0 0 0 0 0 0 0 0 0 0 0 0 0 0 0 0 0 0 0 0 0 0 0 1850 1826 1803 1772 1758 1751 1748 1745 1741 1736 1734 1729 1725 1716 1709 1705 1699 1695 1689 1684 1679 1675 1672 1668 1666 1661 1656 1653 1649 1644 1639 1635 1631 1626 1618 1613 1606 1603 1599 1593 1590 1586 1583 1580 1577 1574 1572 1569 1567 1564 1562 1559 1557 1554 1552 1550 1548 1545 1543 1540 1538 1536 1534 1533 1531 1529 1527 1525 1523 1521 1519 1518 1516 1515 1513 1512 1511 1510 1509 1508 1507 1506 1505 1504 1503 1501 1500 1499 1498 1496 1495 1494 1493 1492 1491 1491 1490 1489 1488 1488 1487 1485 1485 1484 1484 1483 1483 1482 1482 1481 1481 1481 1481 1481 1480 1479 1479 1479 1478 1477 1477 1476 1475 1475 1474 1474 1473 1473 1473 1472 1472 1471 1471 1470 1470 1469 1469 1468 1468 1468 1468 1468 1468 1467 1467 1467 1467 1467 1467 1466 1465 1464 1464 1464 1463 1463 1463 1463 1462 1462 1461 1461 1459 1458 1458 1457 1457 1457 1457 1457 1456 1456 1456 1457 1457 1457 1457 1456 1455 1455 1453 1452 1452 1451 1448 1447 1445 1443 1441 1440 1438 1438 1437 1436 1435 1435 1435 1435 1434 1434 1433 1431 1429 1427 1424 1424 1422 1421 1417 1412 1409 1407 1406 1405 1403 1399 1395 1388 1385 1384 1384
0 0 0 0 0 0 0 0 0 0 0 0 0 0 0 0 0 0 0 515 515 515 497 497 490 490 0 0 0 0 0 0 0 0 0 0 0 0 818 835 835 835 832 798 798 798 0 0 0 0 0 0 0 0 0 0 0 0 0 0 0 1707 1707 1707 1700 1700 1700 1757 1795 1822 1824 1851 1866 1878 1892 1906 1919 1935 1942 1949 1955 1960 1968 1975 1981 1987 1992 1999 2002 2005 2006 2008 2009 2012 2018 2022 2034 0 0 0 0 2855 2967 3004 3020 3021 3021 3020 2996 2953 2905 2831 2759 2578 2539 2493 0 0 0 0 0 0 0 0 0 0 0 0 0 0 0 2671 2804 2804 0 0 0 0 0 0 0 0 0 0 0 0 0 0 0 0 0 0 0 0 0 0 0 0 0 0 0 0 0 0 0 0 0 0 0 0 0 0 0 0 0 0 0 0 0 0 0 0 0 0 0 0 0 0 0 0 0 0 0 0 0 0 0 0 0 0 0 0 0 0 0 0 0 0 0 0 0 0 0 0 0 0 0 0 0 0 0 0 0 0 0 0 0 0 0 0 0 0 0 0 0 0 0 0 0 0 0 0 0 0 0 0 0 0 0 0 0 0 0 0 0 1709 1690 1678 0 0 0 1595 1595 1595 1602 1605 1606 1616 1622 1639 1641 1641 1644 1644 1644 1663 1679 1681 1681 0 0 1793 1827 1855 1855 1855 1855 1836 1836 1836 0 0 0 0 0 0 0 0 0 0 0 0 0 0 0 0 0 0 1916 1896 1874 1871 1868 1866 1851 1826 1808 1793 1781 1779 1779 1779 1816 1816 1816 1782 1756 1756 1756 1756 1756 1744 1742 1742 1740 1740 1723 1702 1698 1697 1697 1684 1684 1683 1683 1685 1685 1683 1662 1642 1642 1642 1649 1657 1657 1657 1649 1637 1613 1613 1613 1632 1632 1632 1614 1567 1567 1567 1573 1574 1586 1586 1586 1571 1557 1557 1557 1559 1571 1576 1603 1638 1642 1647 1672 1684 1689 1691 1695 0 0 0 0 0 0 0 0 0 0 0 0 0 0 0 0 0 0 0 0 0 0 0 0 0 0 0 0 1890 1846 1825 1802 1768 1754 1751 1748 1745 1741 1738 1734 1729 1725 1716 1709 1705 1699 1695 1689 1684 1679 1675 1672 1668 1666 1661 1656 1652 1649 1644 1639 1635 1631 1626 1618 1612 1606 1602 1597 1593 1590 1587 1583 1580 1577 1574 1572 1570 1567 1565 1562 1559 1557 1554 1552 1550 1547 1544 1542 1540 1538 1536 1534 1533 1531 1529 1527 1525 1523 1521 1519 1518 1516 1515 1513 1512 1511 1510 1509 1508 1507 1506 1505 1504 1502 1501 1500 1499 1497 1496 1495 1494 1493 1492 1491 1491 1490 1489 1488 1487 1486 1485 1485 1484 1483 1483 1482 1482 1482 1481 1481 1480 1480 1480 1480 1479 1479 1478 1478 1477 1476 1476 1475 1474 1474 1474 1473 1473 1473 1472 1472 1471 1471 1470 1470 1469 1469 1468 1468 1468 1468 1468 1468 1468 1467 1467 1467 1467 1467 1466 1465 1464 1464 1464 1464 1463 1463 1463 1462 1462 1461 1460 1459 1458 1458 1457 1457 1457 1457 1456 1456 1456 1456 1456 1456 1456 1456 1455 1455 1454 1453 1452 1450 1449 1448 1447 1445 1443 1441 1440 1438 1437 1437 1436 1436 1435 1435 1435 1435 1434 1434 1431 1429 1428 1425 1424 1422 1421 1421 1416 1413 1411 1409 1405 1403 1399 1395 1388 1386 1384 1384
0 0 0 0 0 0 0 0 0 0 0 0 0 0 0 0 0 0 0 0 537 537 533 0 0 0 0 0 0 0 0 0 0 0 0 0 0 810 818 834 834 834 832 800 800 800 0 0 0 0 0 0 0 0 0 0 0 0 0 0 0 0 1680 1680 1680 1680 1699 1757 1771 1791 1814 1818 1851 1877 1892 1908 1919 1936 1942 1949 1955 1956 1964 1970 1978 1987 1992 1996 2001 2003 2004 2004 2004 2006 2006 2012 2026 0 0 0 0 2851 2967 3004 3020 3021 3021 3020 2996 2961 2944 2933 2894 2893 2837 2716 0 0 0 0 0 0 0 0 0 0 0 0 0 0 0 0 0 0 0 0 0 0 0 0 0 0 0 0 0 0 0 0 0 0 0 0 0 0 0 0 0 0 0 0 0 0 0 0 0 0 0 0 0 0 0 0 0 0 0 0 0 0 0 0 0 0 0 0 0 0 0 0 0 0 0 0 0 0 0 0 0 0 0 0 0 0 0 0 0 0 0 0 0 0 0 0 0 0 0 0 0 0 0 0 0 0 0 0 0 0 0 0 0 0 0 0 0 0 0 0 0 0 0 0 0 0 0 0 0 0 0 0 0 0 0 0 0 0 0 1670 1667 1642 1616 1593 1590 1590 1590 1595 1602 1605 1606 1606 1612 1624 1630 1630 1637 1637 1637 1652 1665 1669 1671 1690 1741 1789 1810 1835 1835 1835 1832 1804 1804 1804 0 0 0 0 0 0 0 0 0 0 0 0 0 0 0 0 0 1912 1889 1876 1867 1866 1866 1865 1851 1826 1793 1766 1745 1742 1742 1742 1792 1792 1792 1761 1741 1741 1741 1742 1742 1742 1732 1725 1723 1712 1700 1686 1681 1681 1672 1664 1656 1652 1652 1652 1659 1659 1659 1642 1642 1642 1647 1650 1650 1650 1649 1622 1600 1600 1600 1606 1606 1606 1567 1565 1565 1567 1573 1574 1585 1585 1585 1567 1545 1545 1545 1572 1597 1612 1615 1638 1672 1703 1703 1703 1703 1694 1691 0 0 0 0 0 0 0 0 0 0 0 0 0 0 0 0 0 0 0 0 0 0 1973 1973 1948 1926 1921 1903 1872 1841 1817 1792 1763 1754 1751 1749 1746 1742 1738 1734 1728 1724 1716 1709 1705 1698 1694 1689 1684 1679 1675 1672 1668 1666 1661 1656 1652 1648 1644 1638 1633 1629 1625 1618 1611 1606 1602 1597 1593 1590 1587 1583 1580 1577 1574 1572 1570 1567 1565 1562 1559 1557 1554 1552 1549 1547 1544 1542 1540 1538 1536 1534 1533 1531 1529 1527 1525 1523 1521 1519 1518 1516 1515 1513 1512 1511 1510 1509 1508 1507 1506 1505 1503 1502 1501 1500 1499 1497 1497 1495 1495 1493 1493 1491 1491 1490 1489 1488 1487 1486 1485 1484 1484 1483 1483 1482 1482 1481 1481 1480 1480 1480 1480 1480 1479 1478 1478 1477 1477 1476 1476 1475 1474 1474 1474 1473 1473 1473 1472 1472 1471 1471 1470 1470 1469 1469 1468 1468 1468 1468 1468 1468 1468 1467 1467 1467 1467 1467 1466 1465 1465 1465 1464 1464 1464 1463 1462 1462 1462 1462 1460 1459 1458 1457 1457 1457 1456 1456 1456 1456 1455 1455 1455 1455 1455 1455 1455 1454 1453 1452 1451 1450 1448 1447 1446 1445 1443 1441 1440 1438 1437 1436 1436 1436 1435 1435 1435 1435 1435 1434 1431 1429 1428 1425 1424 1423 1423 1421 1420 1416 1412 1409 1405 1403 1393 1389 1387 1387 1387 1386
0 0 429 429 407 0 0 0 0 0 0 0 0 0 0 0 0 0 0 0 0 0 0 0 0 0 0 0 0 0 0 0 0 0 0 0 0 810 812 822 826 826 822 816 816 816 0 0 0 0 0 0 0 0 0 0 0 0 0 0 0 0 0 0 0 0 0 0 0 0 0 0 1836 1876 1890 1908 1924 1936 1942 1948 1952 1956 1962 1968 1976 1980 1985 1991 1992 1996 1997 1998 2001 2001 2006 2007 2012 2017 0 0 0 2851 2962 3015 3019 3021 3025 3025 3025 3025 2999 2950 2931 2910 2898 2871 2852 0 0 0 0 0 0 0 0 0 0 0 0 0 0 0 0 0 0 0 0 0 0 0 0 0 0 0 0 0 0 0 0 0 0 0 0 0 0 0 0 0 0 0 0 0 0 0 0 0 0 0 0 0 0 0 0 0 0 0 0 0 0 0 0 0 0 0 0 0 0 0 0 0 0 0 0 0 0 0 0 0 0 0 0 0 0 0 0 0 0 0 0 0 0 0 0 0 0 0 0 0 0 0 0 0 0 0 0 0 0 0 0 0 0 0 0 0 0 0 1706 1686 1680 0 0 0 0 0 0 0 0 0 0 0 0 0 0 0 0 1617 1617 1617 1596 1590 1590 1590 1590 1595 1602 1604 1604 1605 1605 1618 1627 1627 1628 1630 1637 1652 1665 1669 1671 1681 1737 1771 1798 1804 1804 1804 1800 1783 1783 1783 0 0 0 0 0 0 0 0 0 0 0 0 0 0 0 0 0 1896 1879 1865 1860 1849 1842 1830 1817 1801 1759 1729 1708 1708 1708 1724 1755 0 0 1711 1695 1686 1686 1688 1688 1695 1696 1696 1695 1685 1669 1660 1654 1647 1644 1644 1644 1644 1646 1646 1644 1637 1636 1631 1631 1631 1645 1650 1650 1650 1644 1622 1600 1599 1597 1591 1569 1567 1565 1563 1565 1567 1573 1574 1585 1585 1585 1567 1557 1557 1557 1587 1597 1612 1635 1675 1705 1707 1707 1707 1703 1694 1691 0 0 0 0 0 0 0 0 0 0 0 0 0 0 0 0 0 0 0 0 0 1936 1936 1936 1916 1899 1894 1888 1854 1820 1808 1784 1763 1754 1751 1749 1746 1742 1738 1733 1726 1720 1714 1709 1703 1698 1694 1689 1684 1679 1674 1670 1667 1664 1660 1656 1652 1648 1643 1637 1631 1628 1623 1617 1610 1606 1602 1597 1593 1590 1587 1583 1580 1577 1575 1572 1570 1567 1565 1562 1559 1557 1554 1552 1549 1547 1544 1542 1539 1538 1536 1534 1533 1531 1529 1527 1525 1523 1521 1520 1518 1516 1515 1513 1512 1511 1510 1509 1508 1507 1506 1505 1503 1502 1501 1500 1498 1497 1497 1495 1495 1494 1493 1491 1491 1490 1489 1488 1487 1486 1486 1484 1484 1483 1482 1482 1481 1481 1480 1480 1480 1479 1479 1479 1479 1478 1478 1477 1477 1476 1475 1475 1474 1474 1474 1474 1473 1473 1472 1472 1471 1471 1470 1470 1469 1469 1468 1468 1468 1468 1468 1468 1468 1467 1467 1467 1467 1467 1466 1466 1465 1465 1465 1464 1464 1463 1462 1462 1462 1462 1461 1459 1458 1457 1457 1457 1457 1457 1456 1456 1455 1455 1455 1455 1455 1455 1455 1454 1453 1451 1450 1449 1448 1447 1446 1445 1443 1441 1440 1438 1437 1437 1436 1436 1436 1436 1435 1435 1434 1434 1431 1429 1428 1425 1423 1423 1421 1421 1421 1417 1413 1409 1405 1401 1393 1388 1387 1387 1387 1386
391 421 421 421 411 411 0 0 0 0 0 0 0 0 0 0 0 0 0 0 0 0 0 0 0 0 0 0 0 0 0 0 0 0 0 0 0 801 801 801 801 803 797 797 817 817 0 0 0 0 0 0 0 0 0 0 0 0 0 0 0 0 0 0 0 0 0 0 0 0 0 0 0 0 1890 1908 1924 1936 1942 1944 1947 1950 1959 1967 1970 1973 1975 1978 1979 1981 1983 1989 2001 2001 2006 2007 2008 2009 0 0 0 2811 2946 2988 2998 3007 3011 3016 3007 3007 2999 2950 2931 2910 2898 2871 2852 0 0 0 0 0 0 0 0 0 0 0 0 0 0 0 0 0 0 0 0 0 0 0 0 0 0 0 0 0 0 0 0 0 0 1612 1600 1600 0 0 0 0 0 0 0 0 0 0 0 0 0 0 0 0 0 0 0 0 0 0 0 0 0 0 0 0 0 0 0 0 0 0 0 0 0 0 0 0 0 0 0 0 0 0 0 0 0 0 0 0 0 0 0 0 0 0 0 0 0 0 0 0 0 0 0 0 0 0 0 0 0 0 0 0 0 0 0 0 0 1725 1724 1697 1691 1642 0 0 0 0 0 0 0 0 0 0 0 0 0 0 0 1568 1574 1582 1583 1583 1583 1589 1589 1595 1607 1607 1607 1607 1607 1602 1602 1607 1619 1624 1637 1652 1662 1665 1669 1676 1732 1744 1752 1764 1776 1776 1776 1776 1776 1776 0 0 0 0 0 0 0 0 0 0 0 0 0 0 0 0 0 0 1863 1844 1820 0 0 0 0 1772 1727 1706 1698 1691 1685 1685 1685 1684 1684 1673 1673 1673 1681 1686 1687 1687 1687 1687 1675 1665 1651 1639 1636 1636 1636 1638 1638 1638 1604 1604 1604 1604 1604 1607 1607 1614 1642 1649 1649 1649 1644 1622 1600 1599 1597 1591 1569 1569 1569 1574 1590 1610 1616 1616 1616 1600 1587 1567 1554 1554 1554 1587 1597 1612 1635 1675 1705 1707 1707 1707 1703 1694 0 0 0 0 0 0 0 0 0 0 0 0 0 0 0 0 0 0 0 0 0 0 0 1918 1918 1851 1851 1846 1836 1836 1811 1794 1779 1763 1754 1751 1749 1747 1744 1738 1732 1724 1718 1712 1707 1703 1697 1693 1688 1684 1679 1674 1670 1666 1663 1659 1656 1652 1647 1643 1637 1630 1627 1622 1616 1610 1606 1601 1597 1593 1590 1587 1583 1580 1577 1575 1572 1569 1567 1565 1562 1559 1557 1554 1552 1549 1546 1544 1542 1539 1538 1536 1534 1533 1531 1529 1527 1525 1523 1521 1520 1518 1516 1515 1513 1512 1511 1510 1509 1507 1507 1506 1505 1503 1502 1501 1500 1499 1498 1497 1496 1495 1494 1493 1492 1491 1490 1488 1488 1487 1486 1485 1484 1483 1483 1482 1481 1481 1480 1480 1480 1479 1479 1479 1479 1478 1478 1478 1477 1477 1476 1475 1474 1474 1474 1474 1473 1473 1473 1472 1472 1471 1471 1471 1470 1470 1469 1469 1468 1468 1468 1468 1468 1468 1468 1467 1467 1467 1467 1467 1466 1465 1465 1465 1464 1464 1463 1462 1462 1462 1462 1461 1459 1458 1457 1457 1457 1457 1457 1456 1456 1455 1455 1455 1455 1455 1455 1454 1453 1452 1451 1450 1449 1448 1447 1446 1445 1443 1441 1440 1438 1437 1437 1437 1437 1436 1436 1435 1435 1434 1434 1431 1429 1428 1425 1423 1423 1422 1422 1422 1417 1413 1409 1404 1400 1392 1386 1386 1386 1386 1386
426 426 426 407 407 407 0 0 0 0 0 0 0 0 0 0 0 0 0 0 0 0 0 0 0 0 0 0 0 0 0 0 0 0 0 0 0 767 767 781 781 781 790 811 816 825 0 0 0 0 0 0 0 0 0 0 0 0 0 0 0 0 0 0 0 0 0 0 0 0 0 0 0 0 1887 1908 1924 1931 1935 1935 1943 1947 1956 1961 1968 1969 1973 1977 1978 1981 1983 1987 1994 1999 2001 2003 2003 2006 0 0 0 2795 2901 2926 2938 2941 2950 2958 2958 2958 2944 2933 2894 2894 2893 2871 2852 0 0 0 0 0 0 0 0 0 0 0 0 0 0 0 0 0 0 0 0 0 0 0 0 0 0 0 0 0 0 0 0 0 1644 1623 1608 1608 1608 0 0 0 0 0 2662 2662 2662 0 0 0 0 0 0 0 0 0 0 0 0 0 0 0 0 0 0 0 0 0 0 0 0 0 0 0 0 0 0 0 0 0 0 0 0 0 0 0 0 0 0 0 0 0 0 0 0 0 0 0 0 0 0 0 0 0 0 0 0 0 0 0 0 0 0 0 0 0 0 0 0 1725 1726 1724 1722 1643 0 0 0 0 0 0 0 0 0 0 0 0 0 0 0 1568 1574 1582 1584 1584 1584 1585 1589 1600 1607 1607 1607 1590 1590 1590 1591 1595 1607 1624 1650 1660 1662 1670 1676 1676 1705 1709 1718 1737 1748 1748 1751 1757 1767 1771 0 0 0 0 0 0 0 0 0 0 0 0 0 0 0 0 0 0 0 0 0 0 0 0 0 1688 1686 1686 1677 1677 1677 1651 1651 1651 1654 1657 1657 1668 1681 1686 1687 1687 1687 1687 1675 1658 1646 1639 1636 1636 1636 1636 1636 1620 1601 1596 1593 1585 1585 1585 1585 1592 1638 1645 1645 1645 1644 1627 1622 1616 1601 1591 1569 1569 1569 1579 1590 1617 1617 1617 1616 1600 1585 1567 1554 1554 1554 1587 1588 1598 1635 1675 1705 1705 1705 1703 0 0 0 0 0 0 0 0 0 0 0 0 0 0 0 0 0 0 0 0 0 0 0 0 0 1893 1893 1837 1833 1830 1830 1825 1803 1789 1775 1764 1757 1755 1752 1748 1745 1738 1730 1720 1715 1711 1707 1702 1697 1692 1688 1684 1679 1674 1670 1666 1662 1658 1654 1651 1647 1642 1636 1630 1624 1619 1615 1610 1605 1601 1597 1593 1590 1587 1583 1580 1577 1575 1572 1569 1566 1563 1561 1558 1556 1553 1551 1549 1546 1544 1542 1539 1538 1537 1535 1533 1531 1529 1527 1525 1523 1521 1520 1518 1516 1515 1513 1512 1511 1509 1509 1507 1506 1505 1504 1503 1502 1501 1500 1499 1498 1497 1496 1495 1494 1493 1492 1491 1490 1488 1488 1487 1486 1485 1484 1483 1482 1481 1481 1480 1480 1480 1479 1479 1479 1479 1478 1478 1478 1477 1477 1476 1476 1475 1474 1474 1474 1473 1473 1473 1473 1472 1472 1471 1471 1471 1470 1470 1469 1469 1469 1469 1469 1468 1468 1468 1468 1468 1468 1468 1468 1467 1466 1466 1465 1465 1465 1464 1463 1463 1463 1462 1462 1461 1459 1458 1457 1457 1457 1457 1457 1456 1456 1456 1455 1455 1455 1455 1454 1454 1452 1452 1451 1450 1449 1448 1447 1446 1445 1443 1441 1440 1439 1437 1437 1437 1436 1436 1436 1435 1435 1435 1434 1432 1430 1428 1425 1423 1423 1422 1422 1422 1416 1413 1408 1402 1396 1389 1383 1382 1382 1382 1382
427 397 397 397 397 402 0 0 0 0 0 0 0 0 0 0 0 0 0 0 0 0 0 0 0 0 0 0 0 0 0 0 0 0 0 0 0 754 754 754 765 766 790 792 816 0 0 0 0 0 0 0 0 0 0 0 0 0 0 0 0 0 0 0 0 0 0 0 0 0 0 0 0 0 0 1900 1917 1923 1923 1923 1930 1944 1953 1958 1962 1966 1971 1977 1977 1981 1981 1986 1993 1996 2000 2000 2000 2000 2015 0 0 0 2794 2825 2856 2863 2868 2872 2889 2889 2889 2792 2786 2785 2770 2717 0 0 0 0 0 0 0 0 0 0 0 0 0 0 0 0 0 0 0 0 0 0 0 0 0 0 0 0 0 0 0 0 0 0 1644 1623 1623 1623 1646 0 0 0 0 2599 2727 2727 2727 2525 0 0 0 0 0 0 0 0 0 0 0 0 0 0 0 0 0 0 0 0 0 0 0 0 0 0 0 0 0 0 0 0 0 0 0 0 0 0 0 0 0 0 0 0 0 0 0 0 0 0 0 0 0 0 0 0 0 0 0 0 0 0 0 0 0 0 0 0 0 0 0 0 1716 1720 1720 0 0 0 0 0 0 0 0 0 0 0 0 0 0 0 1566 1568 1574 1582 1590 1590 1589 1590 1590 1601 1607 1607 1607 1583 1583 1583 1585 1590 1595 1625 1650 1661 1671 1672 1676 1676 1676 1691 1715 1737 1743 1745 1749 1749 1758 1771 0 0 0 0 0 0 0 0 0 0 0 0 0 0 0 0 0 0 0 0 0 0 0 1665 1659 1651 1651 1651 1656 1656 1656 1640 1640 1640 1648 1654 1657 1657 1666 1677 1679 1679 1679 1677 1675 1658 1646 1639 1636 1636 1636 1636 1636 1620 1601 1596 1593 1585 1585 1585 1585 1592 1633 1638 1638 1638 1627 1626 1626 1622 1621 1599 1578 1578 1578 1585 1611 1620 1620 1620 1616 1600 1585 1567 1554 1539 1530 1526 1526 0 0 0 0 0 0 0 0 0 0 0 0 0 0 0 0 1417 1401 1401 1401 1403 1410 1415 1416 1424 1427 1428 0 0 0 0 0 1857 1857 1837 1816 1816 1816 1805 1796 1782 1773 1764 1761 1760 1756 1752 1745 1738 1728 1718 1712 1711 1706 1701 1694 1692 1688 1684 1679 1674 1670 1666 1662 1658 1652 1649 1645 1640 1636 1629 1623 1619 1614 1609 1605 1601 1597 1592 1590 1586 1583 1580 1577 1574 1572 1569 1566 1562 1560 1558 1555 1553 1550 1548 1546 1544 1542 1540 1539 1537 1535 1533 1531 1529 1527 1525 1523 1521 1520 1518 1516 1515 1513 1512 1511 1509 1509 1507 1506 1505 1504 1503 1502 1501 1500 1499 1498 1497 1496 1496 1494 1493 1492 1491 1490 1489 1488 1487 1485 1485 1484 1483 1482 1481 1481 1480 1479 1479 1479 1479 1479 1479 1478 1478 1477 1477 1476 1476 1476 1475 1474 1474 1473 1473 1473 1473 1473 1472 1472 1471 1471 1471 1470 1470 1469 1469 1469 1469 1469 1468 1468 1468 1468 1468 1468 1468 1467 1467 1467 1466 1465 1465 1465 1464 1463 1463 1463 1462 1462 1461 1459 1459 1458 1458 1458 1457 1457 1457 1456 1456 1455 1455 1455 1454 1454 1454 1452 1452 1451 1450 1449 1448 1448 1446 1444 1443 1441 1440 1439 1437 1437 1437 1436 1436 1436 1435 1435 1435 1434 1432 1430 1428 1425 1423 1423 1422 1422 1422 1416 1413 1404 1398 1392 1387 1383 1382 1382 1382 1382
426 389 389 389 389 0 0 0 0 0 0 0 0 0 0 0 0 0 0 0 0 0 0 0 0 0 0 0 0 0 0 0 0 0 0 0 0 0 736 741 741 0 0 0 0 0 0 0 0 0 0 0 0 0 0 0 0 0 0 0 0 0 0 0 0 0 0 0 0 0 0 0 0 0 0 1867 1897 1907 1909 1910 1914 1938 1949 1951 1956 1963 1970 1975 1975 1975 1979 1986 1993 1996 1999 1999 2000 2000 2002 2011 0 0 0 0 0 0 0 0 0 0 0 0 0 0 0 0 0 0 0 0 0 0 0 0 0 0 0 0 0 0 0 0 0 0 0 0 0 0 0 0 0 0 0 0 0 0 0 0 0 0 1644 1623 1623 1623 1670 0 0 0 0 2599 2761 2761 2761 2508 0 0 0 0 0 0 0 0 1270 1270 1275 1276 1276 1276 0 0 0 0 0 0 0 0 0 0 0 0 0 0 0 0 0 0 0 0 0 0 0 0 0 0 0 0 0 1274 1274 0 0 0 0 0 0 0 0 0 0 0 0 0 0 0 0 0 0 0 0 0 0 0 0 0 0 0 0 0 0 0 0 0 0 0 0 0 0 0 0 0 0 0 0 1608 1609 1609 1613 1613 1613 1597 1597 1597 1597 1608 1608 1608 1607 1583 1583 1583 1585 1590 1605 1625 1654 1679 1679 1679 1679 1679 1679 1691 1715 1733 1743 1745 1745 1747 1753 1754 1759 0 0 0 0 0 0 0 0 0 0 0 0 0 0 0 0 0 0 0 0 0 1670 1658 1646 1641 1630 1630 1630 1630 1630 1634 1634 1634 1642 1647 1653 1657 1666 1677 1679 1679 1679 1677 1675 1658 1646 1646 1646 1645 1645 1640 1638 1620 1601 1596 1593 1592 1585 1585 1585 1592 1605 1635 1635 1635 1627 1621 1621 1621 1621 1599 1578 1578 1578 1588 1609 1620 1620 0 0 0 0 0 1530 1523 1512 1501 0 0 0 0 0 0 0 0 0 0 0 0 0 0 1373 1373 1373 1379 1379 1382 1379 1379 1382 1387 1407 1415 1415 1418 1418 0 0 0 0 1836 1836 1836 1812 1810 1808 1799 1790 1776 1773 1765 1761 1760 1757 1755 1745 1737 1727 1715 1710 1708 1704 1697 1692 1691 1687 1684 1678 1674 1670 1666 1662 1658 1652 1647 1642 1638 1633 1628 1622 1617 1613 1609 1604 1601 1596 1592 1589 1586 1583 1580 1576 1573 1570 1567 1564 1562 1559 1558 1555 1553 1550 1548 1546 1544 1542 1540 1539 1537 1535 1533 1531 1529 1527 1525 1523 1521 1520 1518 1516 1514 1513 1512 1511 1509 1509 1507 1506 1505 1504 1503 1502 1501 1500 1499 1498 1497 1496 1496 1494 1493 1492 1491 1490 1489 1487 1486 1485 1485 1484 1482 1482 1481 1480 1480 1479 1479 1479 1479 1479 1479 1478 1478 1477 1477 1476 1476 1475 1475 1474 1474 1473 1473 1473 1473 1472 1472 1472 1471 1471 1471 1470 1470 1469 1469 1469 1469 1469 1468 1468 1468 1468 1468 1468 1467 1467 1467 1467 1467 1466 1466 1466 1464 1463 1463 1463 1462 1462 1461 1461 1460 1459 1459 1458 1458 1458 1457 1457 1456 1455 1455 1454 1454 1454 1454 1452 1452 1451 1450 1449 1448 1448 1447 1444 1443 1442 1441 1440 1438 1438 1437 1437 1437 1436 1435 1435 1435 1435 1433 1430 1428 1425 1423 1421 1421 1420 1419 1415 1407 1399 1394 1392 1387 1383 1382 1382 1382 1382
423 389 389 374 374 0 0 0 0 0 0 0 0 0 0 0 0 0 0 0 0 0 0 0 0 0 0 0 0 0 0 0 0 0 0 0 0 0 0 0 0 0 0 0 0 0 0 0 0 0 0 0 0 0 0 0 0 0 0 0 0 0 0 0 0 0 0 0 0 0 0 0 0 0 1781 1822 1864 1888 1895 1897 1907 1930 1942 1947 1953 1961 1969 1970 1972 1972 1972 1978 1986 1993 1995 1995 1995 1991 1990 1990 0 0 0 0 0 0 0 0 0 0 0 0 0 0 0 0 0 0 0 0 0 0 0 0 0 0 0 0 0 0 0 0 0 0 0 0 0 0 0 0 0 0 0 0 0 0 0 0 0 0 1620 1620 1620 1620 1670 0 0 0 0 0 2761 2761 2761 0 0 0 0 0 0 0 0 1263 1263 1263 1263 1263 1249 1242 1242 0 0 0 0 0 0 0 0 0 0 0 0 0 0 0 0 0 0 0 0 0 0 0 0 0 1274 1257 1249 1249 1249 1286 0 0 0 0 0 0 0 0 0 0 0 0 0 0 0 0 0 0 0 0 0 0 0 0 0 0 0 0 0 0 0 0 0 0 0 0 0 0 0 0 0 0 0 1676 1645 1641 1636 1633 1633 1633 1643 0 0 1636 1631 1608 1607 1583 1583 1583 1585 1591 1610 1630 1656 1679 1681 1681 1681 1681 1681 1691 1712 1730 1736 1739 1743 1746 1752 1752 1753 1756 0 0 0 0 0 0 0 0 0 0 0 0 0 0 0 0 0 0 0 0 1638 1629 1622 1613 1613 1613 1614 1614 1614 1602 1602 1602 1602 1642 1645 1657 1665 1666 1669 1671 1674 1674 1673 1673 1673 1673 1669 1669 1664 1661 1652 1647 1632 1630 1630 1630 1601 1592 1592 1592 1594 1603 1603 1603 1617 1617 1617 1617 1617 1599 1578 1578 1578 1588 1609 1609 0 0 0 0 0 0 0 0 0 1471 1460 1460 1460 1461 1479 0 0 0 0 0 0 0 1354 1354 1354 1355 1358 1367 1372 1378 1378 1379 1382 1387 1407 1407 1407 1389 1389 0 0 0 0 0 1829 1829 1806 1795 1794 1794 1786 1776 1773 1768 1764 1762 1758 1755 1745 1735 1724 1714 1708 1705 1700 1694 1690 1688 1684 1682 1678 1673 1670 1666 1662 1658 1652 1647 1640 1636 1631 1626 1621 1617 1612 1608 1604 1599 1596 1592 1588 1585 1582 1579 1576 1572 1569 1567 1564 1561 1559 1558 1555 1553 1550 1548 1546 1544 1542 1540 1539 1536 1535 1533 1531 1529 1527 1525 1523 1521 1520 1518 1516 1514 1513 1512 1511 1509 1509 1507 1506 1505 1504 1503 1502 1501 1500 1499 1498 1497 1496 1496 1494 1493 1492 1491 1490 1488 1487 1486 1485 1484 1483 1482 1482 1481 1480 1480 1479 1479 1478 1478 1478 1478 1478 1478 1477 1477 1476 1476 1475 1475 1474 1474 1473 1472 1472 1472 1472 1472 1471 1471 1471 1471 1470 1470 1469 1469 1469 1469 1469 1468 1468 1468 1468 1468 1468 1468 1468 1467 1467 1467 1467 1466 1466 1464 1464 1463 1463 1463 1462 1462 1461 1461 1460 1460 1459 1458 1458 1457 1457 1456 1456 1455 1454 1454 1454 1453 1452 1452 1451 1450 1449 1448 1448 1447 1444 1443 1443 1442 1441 1439 1438 1438 1438 1437 1437 1436 1436 1436 1436 1434 1432 1428 1426 1424 1421 1419 1416 1413 1408 1402 1396 1394 1391 1387 1384 1383 1382 1382 1382
391 389 389 363 0 0 0 0 0 0 0 0 0 0 0 0 0 0 0 0 0 0 0 0 0 0 0 0 0 0 0 0 0 0 0 0 0 0 0 0 0 0 0 0 0 0 0 0 0 0 0 0 0 0 0 0 0 0 0 0 0 0 0 0 0 0 0 0 0 0 0 0 1724 1736 1762 1815 1862 1881 1887 1891 1897 1921 1937 1944 1952 1961 1967 1967 1969 1969 1969 1974 1980 1985 1995 1995 1995 1988 1984 1962 0 0 0 0 0 0 0 0 0 0 0 0 0 0 0 1906 1856 1848 0 0 0 0 0 0 0 0 0 0 0 0 0 0 0 0 0 0 0 0 0 0 0 0 0 0 0 0 0 0 0 0 0 1580 1612 1619 0 0 0 0 0 0 0 0 0 0 0 0 0 0 0 0 0 1272 1268 1265 1262 1251 1245 1238 1238 1238 1247 1279 1301 0 0 0 0 0 0 0 0 0 0 0 0 0 0 0 0 0 0 0 0 1256 1256 1233 1233 1233 1249 1286 0 0 0 0 0 0 0 0 0 0 0 0 0 0 0 0 0 0 0 0 0 0 0 0 0 0 0 0 0 0 0 0 0 0 0 0 0 0 0 0 0 0 1710 1710 1681 1666 1653 1653 1653 1670 1705 0 0 0 1648 1633 1626 1619 1619 1612 1612 1612 1616 1631 1656 1679 1683 1683 1683 1683 1683 1693 1703 1719 1730 1733 1734 1741 1741 1741 1734 1734 1734 1735 0 0 0 0 0 0 0 0 0 0 0 0 0 0 0 0 0 1623 1599 1591 1591 1591 1598 1598 1609 1609 1609 1583 1559 1559 1559 1595 1623 1626 1643 1665 1665 1665 1668 1668 1668 1671 1672 1673 1680 1680 1680 1676 1676 1676 1676 1676 1663 1644 1602 1592 1592 1592 1594 1594 1594 1593 1593 1593 1600 1600 1600 1597 1570 0 0 0 0 0 0 0 0 0 0 0 0 0 1420 1422 1437 1454 1454 1454 1451 0 0 0 0 0 1331 1331 1331 1347 1350 1355 1358 1367 1372 1378 1378 1379 1382 1387 1387 1387 1378 1378 1378 1384 0 0 0 0 1802 1802 1802 1795 1794 1794 1785 1776 1773 1771 1769 1765 1762 1755 1742 1731 1717 1712 1707 1703 1698 1693 1689 1686 1683 1680 1677 1673 1669 1665 1660 1657 1652 1647 1640 1634 1629 1625 1621 1617 1612 1608 1603 1599 1595 1591 1587 1584 1581 1579 1576 1572 1569 1567 1564 1561 1559 1557 1555 1553 1550 1548 1546 1544 1543 1540 1539 1537 1535 1533 1531 1529 1527 1525 1524 1521 1519 1518 1516 1514 1514 1512 1511 1509 1508 1508 1506 1505 1504 1503 1502 1501 1500 1499 1498 1497 1496 1496 1494 1494 1492 1491 1490 1488 1487 1486 1485 1484 1483 1482 1481 1481 1480 1479 1479 1479 1478 1478 1478 1478 1478 1478 1477 1477 1476 1475 1475 1475 1474 1473 1473 1472 1472 1472 1472 1471 1471 1470 1470 1470 1470 1470 1469 1469 1469 1469 1469 1468 1468 1468 1468 1468 1468 1468 1468 1468 1467 1467 1467 1466 1466 1465 1465 1464 1464 1463 1462 1462 1462 1461 1461 1460 1459 1459 1458 1458 1457 1456 1456 1456 1454 1454 1454 1453 1452 1452 1451 1449 1449 1448 1448 1447 1446 1444 1443 1443 1442 1440 1439 1438 1438 1438 1438 1437 1437 1437 1436 1435 1432 1430 1428 1425 1421 1419 1415 1411 1407 1402 1396 1394 1390 1387 1385 1384 1382 1382 1382
391 391 391 386 0 0 0 0 0 0 0 0 0 0 0 0 0 0 0 0 0 0 0 0 0 0 0 0 0 0 0 0 0 0 0 0 0 0 0 0 0 0 0 0 0 0 0 0 0 0 0 0 0 0 0 0 0 0 892 892 894 895 920 0 0 0 0 0 0 0 0 1671 1715 1730 1762 1786 1854 1875 1883 1884 1889 1915 1934 1942 1952 1961 1964 1964 1964 1964 1964 1970 1972 1983 1990 1990 1990 1979 1976 1937 0 0 0 0 0 0 0 0 0 0 1985 1969 1961 1947 1923 1906 1888 1888 1888 0 0 0 0 0 0 0 0 0 0 0 0 0 0 0 0 0 0 0 0 0 0 0 0 0 0 0 0 0 0 0 0 0 0 0 0 0 0 0 0 0 0 0 0 0 0 0 0 0 0 0 0 1280 1271 1270 1262 1251 1245 1238 1238 1238 1247 1279 1282 1291 1301 0 0 0 0 0 0 1271 0 0 0 0 0 0 0 0 0 0 0 1224 1213 1213 1213 1247 1274 0 0 0 0 0 0 0 0 0 0 0 0 0 0 0 0 0 0 0 0 0 0 0 0 0 0 0 0 0 0 0 0 0 0 0 0 0 0 0 0 0 0 1716 1716 1716 1713 1706 1671 1671 1671 1704 1728 1728 0 0 0 0 0 0 1661 1639 1623 1623 1623 1640 1661 1684 1695 1696 1696 1698 1701 1702 1703 1705 1709 1710 1710 1716 1727 1727 1727 1727 1727 1732 1762 0 0 0 0 0 0 0 0 0 0 0 0 0 0 0 1599 1599 1599 1552 1552 1552 1555 1596 1596 1596 1592 1583 1559 1559 1559 1595 1623 1626 1643 1661 1661 1661 1661 1661 1661 1671 1673 1682 1727 1727 1733 1735 1727 1718 1705 1679 1663 1644 1602 1589 1571 1565 1545 1544 0 0 0 0 0 0 0 0 0 0 0 0 0 0 0 0 0 1341 1341 1348 1370 1385 1388 1390 1390 1407 1444 1444 1444 1418 0 0 0 1315 1315 1315 1319 1347 1350 1355 1358 1367 1378 1387 1387 1387 1383 1380 1376 1364 1343 1343 1343 1383 0 0 0 0 1799 1799 1799 1794 1794 1793 1783 1776 1773 1771 1769 1765 1762 1754 1737 1722 1713 1710 1705 1700 1696 1690 1688 1685 1682 1680 1676 1672 1668 1664 1660 1657 1652 1646 1639 1633 1628 1625 1621 1616 1611 1607 1603 1599 1595 1591 1587 1584 1580 1578 1575 1572 1569 1567 1564 1561 1560 1558 1555 1553 1550 1548 1546 1544 1543 1541 1539 1537 1535 1533 1531 1529 1527 1525 1523 1522 1520 1518 1516 1515 1514 1512 1511 1510 1508 1508 1506 1505 1504 1503 1502 1501 1500 1499 1498 1497 1496 1496 1495 1494 1492 1491 1489 1488 1487 1486 1485 1483 1483 1482 1481 1481 1480 1479 1479 1478 1478 1478 1478 1478 1477 1477 1477 1476 1476 1475 1475 1475 1474 1473 1473 1472 1472 1472 1472 1471 1471 1470 1470 1470 1470 1470 1469 1469 1469 1469 1469 1468 1468 1468 1468 1468 1468 1468 1468 1468 1467 1467 1466 1466 1466 1465 1465 1465 1464 1463 1463 1463 1462 1462 1461 1461 1459 1459 1458 1458 1457 1457 1456 1456 1455 1455 1454 1453 1452 1452 1450 1449 1449 1448 1448 1447 1446 1445 1444 1443 1442 1442 1441 1441 1440 1439 1439 1439 1439 1438 1438 1435 1432 1430 1428 1425 1423 1419 1415 1411 1407 1402 1396 1394 1391 1387 1385 1385 1385 1386 1386
