2030 2030 2058 2076 2082 2105 2134 2162 2199 2218 2230 2233 2246 2260 2282 2303 2321 2329 2343 2358 2375 2389 2404 2417 2425 2434 2446 2463 2481 2493 2512 2517 2530 2545 2552 2567 2590 2614 2625 2631 2637 2640 2651 2658 2669 2679 2686 2697 2704 2711 2718 2731 2744 2758 2775 2791 2807 2815 2825 2842 2859 2866 2871 2876 2882 2890 2899 2901 2911 2921 2941 2965 2982 2994 2999 3000 3000 3005 3010 3019 3033 3034 3034 3035 3035 3038 3053 3066 3078 3092 3105 3105 3105 3099 3082 3081 3080 3079 3079 3079 3089 3097 3102 3119 3121 3126 3138 3156 3205 3212 3230 3251 3265 3277 3279 3282 3284 3287 3292 3295 3301 3303 3303 3304 3305 3305 3309 3314 3318 3321 3324 3324 3324 3323 3323 3323 3323 3329 3336 3340 3342 3344 3349 3353 3358 3360 3360 3361 3361 3361 3361 3359 3356 3353 3350 3350 3350 3350 3349 3348 3343 3339 3339 3338 3337 3334 3331 3330 3330 3329 3325 3320 3319 3310 3300 3291 3285 3277 3268 3257 3248 3247 3244 3238 3236 3236 3234 3230 3224 3218 3208 3195 3183 3170 3161 3156 3148 3132 3101 3070 3045 3025 2995 2968 2933 2896 2844 2782 2714 2645 0 0 0 0 0 1147 1143 1142 1142 1142 1141 1141 1141 1140 1140 1140 1139 1139 1139 1139 1139 1139 1139 1139 1139 1139 1139 1139 1138 1138 1137 1136 1136 1136 1135 1135 1134 1133 1133 1132 1132 1132 1132 1132 1132 1132 1132 1132 1132 1131 1131 1131 1131 1130 1130 1130 1129 1129 1129 1128 1128 1128 1127 1127 1127 1126 1126 1126 1125 1125 1125 1125 1125 1125 1125 1125 1124 1123 1122 1121 1120 1119 1119 1119 1117 1117 1117 1117 1117 1117 1118 1118 1118 1119 1119 1119 1119 1120 1120 1120 1120 1120 1120 1120 1120 1120 1120 1120 1120 1120 1119 1119 1119 1119 1119 1119 1119 1119 1119 1119 1118 1118 1118 1118 1118 1117 1117 1117 1117 1116 1116 1115 1115 1113 1113 1113 1112 1112 1111 1110 1110 1109 1108 1108 1107 1107 1107 1105 1105 1105 1105 1105 1105 1105 1105 1105 1106 1106 1107 1108 1108 1109 1109 1109 1110 1110 1111 1111 1111 1111 1111 1111 1111 1111 1111 1111 1110 1110 1110 1109 1109 1109 1109 1108 1108 1108 1108 1108 1107 1107 1107 1107 1106 1106 1106 1106 1105 1105 1105 1104 1102 1102 1102 1101 1100 1100 1100 1099 1099 1097 1097 1097 1097 1096 1096 1096 1096 1096 1096 1097 1097 1097 1097 1097 1097 1097 1097 1097 1098 1098 1098 1098 1099 1100 1100 1101 1101 1101 1101 1101 1101 1100 1100 1100 1100 1100 1100 1100 1100 1100 1100 1100 1100 1100 1100 1100 1100 1100 1100 1100 1100 1099 1099 1099 1098 1097 1096 1096 1095 1093 1090 1088 1086 1086 1085 1085 1086 1087 1087 1087 1087 1088 1088 1087 1087 1088 1088 1087 1087 1087 1086 1086 1086 1086 1086 1086 1087 1089 1091 1093 1094 1095 1096 1097 1097 1097 1098 1098 1098 1098 1098 1098 1099 1099 1099 1099 1099 1100 1100 1100 1100 1100 1100 1100 1100 1100 1100 1100 1100 1100 1100 1100 1099 1098 1098 1097 1095 1091 1082 1079 1078 1077 1075 1073 1073 1073 1073 1073 1072 1069 1064 1062 1062 1062 1065 1066 1068 1068 1068 1068 1065 1062 1062 1062 1062 1063 1063 1066 1067 1071 1083 1089 1091 1096 1099 1100 1100 1101 1101 1101 1102 1102 1103 1103 1103 1103 1103 1103 1103 1102 1101 1100 1099 1098 1095 1091 1091 1091 1091 1091 1082 0 0 0 0 0 0 0 0 0 0 705 705 705 710 710 712 719 721 721 721 710 710 710 712 714 717 0 0 0
2030 2030 2058 2076 2082 2105 2132 2162 2199 2218 2230 2233 2250 2272 2294 2312 2321 2329 2344 2358 2379 2398 2413 2424 2434 2447 2459 2472 2481 2492 2508 2513 2530 2545 2566 2586 2612 2625 2631 2633 2637 2638 2644 2657 2669 2679 2687 2700 2710 2720 2732 2744 2753 2761 2777 2793 2807 2819 2830 2847 2859 2866 2871 2876 2883 2891 2900 2903 2911 2922 2942 2968 2984 2994 3001 3005 3007 3007 3010 3019 3033 3040 3046 3049 3049 3051 3061 3078 3092 3103 3112 3115 3115 3115 3115 3113 3112 3096 3096 3096 3097 3097 3105 3120 3121 3126 3138 3156 3180 3186 3209 3248 3265 3277 3283 3284 3285 3288 3293 3300 3303 3305 3306 3306 3307 3307 3311 3315 3320 3324 3325 3325 3325 3325 3325 3325 3328 3330 3338 3341 3344 3344 3349 3355 3359 3360 3360 3361 3362 3362 3362 3360 3357 3355 3353 3353 3353 3352 3352 3351 3346 3339 3339 3338 3338 3335 3331 3330 3330 3330 3325 3320 3313 3305 3298 3290 3284 3277 3268 3257 3248 3247 3242 3228 3224 3224 3223 3223 3222 3216 3210 3199 3184 3175 3171 3163 3150 3132 3104 3072 3045 3025 2997 2970 2937 2896 2851 2785 2719 2650 0 0 0 0 0 1147 1143 1143 1142 1142 1141 1142 1141 1141 1141 1141 1140 1140 1140 1140 1140 1141 1140 1141 1141 1140 1140 1139 1139 1139 1138 1138 1138 1137 1136 1135 1134 1133 1133 1133 1132 1132 1132 1132 1132 1132 1132 1132 1132 1131 1131 1131 1131 1130 1130 1130 1129 1129 1129 1129 1129 1129 1128 1128 1127 1127 1127 1127 1127 1127 1126 1126 1126 1126 1126 1125 1124 1124 1123 1123 1123 1122 1121 1121 1119 1119 1119 1119 1119 1119 1119 1119 1119 1120 1120 1121 1121 1121 1121 1121 1121 1121 1121 1121 1121 1120 1120 1120 1120 1120 1120 1119 1119 1119 1119 1119 1119 1119 1119 1119 1119 1119 1119 1118 1118 1118 1118 1118 1118 1118 1117 1116 1115 1115 1114 1114 1114 1114 1113 1112 1112 1111 1110 1110 1109 1109 1109 1108 1108 1107 1106 1106 1106 1106 1106 1106 1107 1107 1109 1109 1109 1110 1111 1111 1111 1111 1111 1111 1112 1112 1112 1112 1111 1111 1111 1111 1110 1110 1110 1109 1109 1109 1109 1109 1108 1108 1108 1108 1108 1107 1107 1107 1106 1106 1106 1106 1106 1106 1105 1104 1104 1104 1104 1104 1103 1102 1102 1102 1101 1099 1099 1099 1099 1099 1099 1099 1099 1098 1098 1098 1099 1099 1099 1099 1099 1099 1099 1099 1100 1100 1100 1100 1100 1100 1101 1101 1101 1101 1101 1101 1101 1100 1100 1100 1100 1100 1100 1100 1100 1100 1100 1100 1100 1100 1100 1100 1100 1100 1100 1100 1100 1099 1099 1099 1099 1098 1098 1097 1095 1094 1094 1090 1089 1089 1089 1089 1089 1089 1090 1090 1090 1090 1090 1089 1089 1089 1089 1089 1089 1089 1088 1088 1087 1087 1087 1089 1089 1091 1094 1094 1094 1096 1097 1097 1097 1097 1098 1098 1098 1098 1098 1098 1098 1098 1098 1099 1099 1099 1099 1100 1100 1100 1100 1100 1100 1100 1100 1100 1100 1100 1100 1100 1099 1099 1098 1097 1094 1090 1083 1083 1082 1080 1076 1076 1076 1076 1078 1078 1078 1074 1070 1066 1066 1066 1067 1069 1069 1070 1070 1070 1069 1069 1069 1069 1069 1069 1069 1070 1071 1072 1084 1092 1095 1099 1099 1100 1102 1102 1102 1103 1103 1104 1104 1104 1104 1104 1104 1104 1104 1103 1102 1101 1100 1098 1095 1094 1094 1092 1091 1085 1065 0 0 0 0 807 807 803 0 0 0 696 696 696 704 708 708 708 712 715 715 715 712 712 709 709 707 0 0 0
2042 2042 2058 2076 2082 2105 2132 2154 2184 2208 2223 2232 2250 2273 2298 2313 2321 2331 2344 2360 2379 2398 2413 2424 2434 2448 2461 2473 2481 2492 2507 2513 2528 2546 2572 2597 2618 2628 2628 2632 2633 2637 2644 2657 2669 2681 2688 2704 2719 2733 2744 2755 2766 2770 2779 2793 2807 2824 2836 2849 2860 2866 2871 2876 2884 2895 2905 2909 2911 2928 2949 2969 2984 2993 3001 3005 3007 3007 3010 3019 3035 3045 3049 3056 3056 3058 3071 3085 3101 3113 3118 3119 3119 3121 3122 3123 3128 3131 3131 3131 3131 3130 3121 3121 3121 3126 3138 3156 3163 3184 3206 3234 3265 3281 3285 3285 3286 3288 3295 3301 3306 3307 3308 3308 3309 3309 3313 3317 3323 3328 3328 3328 3327 3327 3327 3327 3329 3332 3338 3344 3345 3348 3354 3359 3361 3361 3361 3361 3362 3362 3362 3361 3358 3356 3356 3356 3356 3356 3355 3355 3349 3342 3341 3341 3339 3339 3336 3330 3328 3325 3319 3312 3306 3297 3293 3289 3283 3277 3270 3257 3248 3247 3242 3228 3224 3223 3216 3216 3216 3214 3210 3199 3186 3175 3171 3163 3150 3132 3104 3072 3045 3025 2998 2970 2944 2905 2851 2788 2719 2658 0 0 0 0 0 1149 1144 1143 1143 1142 1142 1142 1142 1142 1141 1141 1141 1141 1141 1141 1141 1141 1141 1141 1141 1141 1141 1141 1140 1139 1139 1139 1138 1137 1136 1136 1135 1134 1133 1133 1132 1132 1132 1132 1132 1132 1132 1132 1132 1131 1131 1131 1131 1130 1130 1130 1130 1129 1129 1129 1129 1129 1128 1128 1128 1128 1128 1128 1128 1128 1128 1128 1128 1128 1127 1127 1126 1126 1125 1125 1124 1124 1122 1121 1121 1121 1121 1121 1121 1120 1120 1120 1121 1121 1122 1122 1122 1122 1122 1122 1122 1121 1121 1121 1121 1121 1120 1120 1120 1120 1120 1119 1119 1119 1119 1119 1119 1119 1119 1119 1119 1119 1119 1119 1119 1118 1118 1118 1118 1118 1118 1117 1117 1116 1116 1116 1116 1116 1115 1114 1114 1113 1113 1112 1111 1110 1110 1110 1109 1109 1108 1108 1107 1107 1107 1108 1109 1110 1111 1111 1112 1112 1113 1113 1113 1113 1113 1113 1112 1112 1112 1112 1111 1111 1111 1111 1110 1110 1110 1109 1109 1109 1109 1109 1108 1108 1108 1108 1108 1107 1107 1107 1106 1106 1106 1106 1106 1106 1106 1105 1105 1105 1105 1105 1105 1104 1104 1104 1104 1103 1103 1103 1102 1102 1102 1101 1100 1100 1100 1101 1101 1101 1101 1101 1101 1101 1101 1101 1102 1102 1102 1102 1102 1102 1102 1101 1101 1101 1100 1100 1100 1100 1100 1100 1100 1100 1100 1100 1100 1100 1100 1100 1100 1100 1100 1100 1100 1100 1100 1100 1100 1099 1099 1099 1099 1099 1099 1097 1096 1095 1095 1094 1093 1091 1090 1090 1090 1091 1093 1093 1093 1093 1092 1092 1091 1091 1091 1091 1091 1091 1091 1091 1091 1090 1090 1090 1091 1093 1094 1094 1095 1097 1097 1097 1097 1097 1097 1098 1098 1097 1097 1097 1097 1097 1097 1098 1098 1098 1098 1100 1100 1100 1100 1100 1099 1099 1099 1100 1100 1100 1100 1100 1099 1099 1098 1097 1095 1091 1087 1085 1084 1083 1080 1080 1080 1082 1085 1086 1086 1086 1086 1082 1078 1075 1075 1075 1074 1074 1074 1074 1073 1073 1074 1075 1076 1076 1076 1077 1078 1085 1088 1093 1097 1099 1101 1101 1102 1103 1103 1104 1104 1105 1105 1105 1105 1105 1105 1105 1105 1104 1103 1102 1100 1098 1097 1096 1096 1095 1095 1085 1065 0 0 0 807 799 796 795 793 775 733 705 704 703 703 703 703 697 691 691 691 709 709 712 709 709 695 0 0 0
2053 2053 2073 2087 2104 2118 2132 2154 2172 2192 2202 2224 2252 2276 2298 2315 2325 2334 2345 2361 2379 2398 2413 2424 2434 2448 2461 2474 2485 2492 2507 2513 2528 2550 2573 2598 2618 2628 2628 2633 2635 2637 2644 2657 2670 2682 2698 2715 2729 2744 2752 2763 2773 2782 2789 2802 2818 2836 2849 2856 2861 2866 2871 2876 2885 2896 2905 2915 2929 2948 2960 2976 2985 2993 3001 3001 3007 3007 3010 3019 3035 3045 3050 3061 3068 3068 3076 3091 3109 3118 3122 3122 3123 3126 3127 3130 3130 3144 3151 3153 3158 3158 3158 3153 3143 3143 3143 3156 3163 3182 3199 3231 3264 3277 3285 3285 3287 3289 3295 3302 3309 3310 3312 3312 3313 3314 3317 3321 3326 3330 3330 3330 3329 3328 3328 3328 3333 3337 3342 3346 3351 3355 3359 3361 3361 3361 3361 3361 3362 3362 3362 3362 3360 3359 3358 3358 3357 3356 3356 3356 3353 3348 3346 3345 3345 3345 3339 3332 3327 3323 3315 3309 3301 3295 3292 3289 3283 3277 3270 3263 3262 3252 3242 3228 3224 3223 3216 3214 3211 3210 3210 3199 3186 3175 3171 3163 3150 3129 3101 3070 3044 3019 2998 2980 2954 2914 2855 2792 2724 2658 0 0 0 0 0 1149 1144 1144 1143 1143 1143 1143 1143 1143 1143 1143 1142 1142 1142 1142 1142 1142 1142 1142 1142 1142 1142 1141 1141 1141 1140 1139 1138 1138 1137 1136 1135 1134 1134 1133 1132 1132 1132 1132 1131 1131 1131 1131 1131 1131 1131 1131 1131 1130 1130 1130 1129 1129 1129 1129 1129 1129 1128 1128 1128 1128 1128 1129 1129 1130 1130 1130 1129 1128 1128 1128 1127 1127 1127 1127 1125 1124 1124 1124 1124 1124 1123 1123 1123 1122 1122 1122 1123 1123 1123 1123 1123 1123 1123 1122 1122 1122 1122 1121 1121 1120 1120 1120 1120 1120 1120 1119 1119 1119 1119 1119 1119 1119 1119 1119 1119 1119 1119 1119 1119 1119 1119 1119 1119 1119 1118 1118 1118 1118 1117 1117 1117 1117 1117 1117 1117 1117 1116 1115 1115 1113 1113 1112 1112 1112 1112 1112 1112 1111 1111 1112 1112 1112 1114 1114 1114 1114 1114 1114 1114 1114 1114 1113 1113 1113 1112 1112 1111 1111 1110 1110 1110 1110 1110 1109 1109 1109 1109 1108 1108 1108 1108 1108 1108 1107 1107 1106 1106 1106 1106 1107 1107 1106 1106 1106 1106 1107 1107 1107 1107 1106 1106 1106 1106 1105 1105 1105 1104 1104 1104 1104 1103 1104 1104 1104 1104 1104 1104 1104 1104 1104 1104 1104 1104 1104 1103 1103 1103 1102 1102 1102 1101 1101 1100 1099 1099 1099 1099 1099 1099 1100 1100 1100 1100 1100 1100 1100 1099 1099 1099 1099 1100 1100 1100 1100 1100 1099 1099 1099 1099 1099 1099 1098 1096 1096 1096 1096 1096 1096 1096 1095 1096 1096 1095 1095 1095 1095 1094 1094 1094 1094 1095 1095 1096 1096 1096 1096 1095 1095 1095 1095 1095 1095 1095 1095 1096 1098 1098 1098 1097 1097 1097 1097 1097 1096 1096 1096 1096 1096 1097 1097 1097 1098 1098 1098 1098 1098 1098 1099 1099 1099 1099 1100 1100 1100 1100 1100 1099 1099 1098 1097 1095 1091 1088 1088 1087 1087 1087 1089 1089 1092 1092 1092 1092 1092 1092 1087 1084 1080 1079 1079 1079 1081 1081 1081 1081 1083 1083 1083 1083 1086 1089 1089 1091 1093 1094 1097 1100 1101 1102 1102 1103 1103 1105 1105 1106 1106 1106 1106 1106 1106 1106 1106 1105 1104 1104 1102 1100 1100 1100 1098 1098 1096 1095 1071 1064 0 0 0 807 792 790 788 783 758 733 709 705 703 703 703 703 697 691 691 691 717 730 730 730 712 691 0 0 0
2064 2064 2083 2094 2110 2133 2148 2154 2172 2188 2198 2222 2252 2280 2300 2315 2324 2335 2353 2363 2375 2392 2407 2419 2432 2448 2461 2474 2487 2502 2507 2519 2528 2550 2574 2598 2618 2628 2628 2631 2636 2637 2650 2664 2684 2692 2712 2728 2741 2748 2758 2764 2774 2785 2797 2812 2830 2848 2854 2859 2863 2866 2871 2876 2891 2905 2918 2930 2944 2957 2967 2980 2986 2991 2994 3001 3001 3005 3010 3019 3034 3045 3050 3068 3078 3083 3089 3101 3109 3118 3122 3123 3125 3126 3130 3133 3135 3144 3155 3166 3173 3173 3173 3156 3153 3153 3153 3159 3163 3182 3187 3230 3259 3275 3285 3288 3289 3293 3295 3302 3311 3313 3314 3314 3315 3315 3317 3322 3328 3332 3332 3332 3330 3330 3330 3332 3337 3343 3347 3351 3358 3361 3363 3363 3363 3362 3362 3362 3362 3362 3362 3362 3361 3361 3360 3359 3359 3358 3357 3356 3354 3352 3351 3350 3346 3345 3339 3332 3327 3322 3315 3309 3301 3295 3292 3289 3283 3273 3270 3264 3263 3262 3262 3250 3238 3224 3216 3214 3205 3204 3204 3199 3186 3175 3160 3151 3134 3118 3094 3070 3044 3019 2998 2985 2969 2926 2872 2801 2729 2675 0 0 0 0 0 1150 1145 1144 1144 1144 1144 1144 1144 1144 1144 1143 1143 1143 1143 1143 1143 1143 1143 1143 1143 1143 1143 1142 1142 1142 1141 1140 1139 1139 1138 1137 1136 1136 1134 1133 1132 1132 1132 1131 1131 1131 1131 1131 1131 1131 1131 1131 1130 1130 1130 1130 1129 1129 1129 1129 1129 1129 1128 1128 1128 1128 1130 1130 1130 1130 1131 1131 1131 1131 1130 1130 1130 1129 1128 1128 1127 1127 1127 1127 1127 1126 1125 1125 1125 1125 1125 1125 1125 1125 1125 1125 1125 1124 1124 1123 1123 1123 1122 1121 1121 1120 1120 1120 1120 1120 1120 1119 1119 1119 1119 1119 1119 1119 1119 1119 1119 1119 1119 1119 1119 1119 1119 1119 1119 1119 1119 1119 1119 1119 1119 1118 1118 1118 1118 1118 1118 1118 1117 1117 1116 1115 1115 1115 1115 1114 1114 1114 1113 1113 1113 1115 1115 1115 1115 1115 1115 1115 1115 1115 1115 1115 1114 1113 1113 1113 1112 1112 1111 1110 1110 1109 1109 1109 1109 1109 1109 1108 1108 1108 1107 1107 1107 1107 1107 1107 1107 1106 1106 1106 1106 1107 1107 1107 1107 1107 1107 1107 1108 1108 1108 1108 1108 1108 1107 1107 1107 1107 1107 1107 1107 1107 1106 1106 1106 1106 1106 1106 1106 1106 1106 1106 1106 1106 1106 1106 1105 1105 1104 1103 1102 1102 1101 1100 1099 1099 1099 1099 1099 1099 1099 1099 1099 1099 1099 1099 1099 1099 1099 1099 1099 1099 1099 1100 1100 1100 1099 1099 1099 1099 1100 1100 1100 1100 1100 1100 1100 1100 1100 1099 1099 1099 1099 1099 1099 1099 1099 1099 1099 1099 1099 1099 1099 1099 1099 1099 1099 1099 1099 1098 1098 1097 1097 1097 1097 1097 1097 1098 1098 1098 1097 1097 1097 1096 1096 1095 1095 1095 1095 1096 1096 1096 1096 1096 1096 1096 1096 1096 1097 1098 1099 1099 1099 1099 1099 1099 1099 1099 1099 1099 1098 1098 1097 1097 1097 1096 1093 1093 1093 1094 1096 1096 1096 1096 1094 1093 1093 1093 1093 1093 1094 1093 1093 1094 1093 1093 1093 1093 1093 1093 1093 1093 1093 1094 1095 1096 1099 1101 1102 1102 1103 1103 1104 1105 1106 1106 1106 1106 1107 1107 1107 1107 1107 1106 1106 1105 1104 1102 1100 1100 1100 1099 1099 1099 1094 1071 1064 0 0 0 807 792 790 782 766 756 733 712 705 703 703 703 703 697 691 691 691 715 730 732 732 732 691 0 0 0
2066 2066 2086 2094 2110 2133 2150 2164 2172 2188 2198 2222 2252 2287 2303 2315 2319 2335 2353 2363 2373 2382 2396 2412 2426 2440 2457 2473 2496 2502 2519 2529 2536 2552 2580 2599 2610 2621 2629 2636 2646 2653 2664 2679 2687 2710 2725 2742 2752 2758 2761 2765 2774 2786 2798 2819 2834 2848 2854 2859 2863 2866 2874 2883 2897 2910 2922 2934 2948 2957 2969 2981 2985 2986 2986 2986 2996 3001 3010 3021 3032 3040 3052 3069 3088 3098 3102 3105 3109 3118 3122 3123 3125 3127 3131 3133 3136 3144 3156 3171 3177 3177 3177 3175 3172 3170 3169 3169 3170 3184 3187 3205 3220 3269 3285 3288 3289 3295 3301 3312 3316 3317 3317 3317 3317 3317 3317 3323 3328 3333 3333 3333 3333 3333 3333 3335 3341 3347 3352 3356 3359 3361 3363 3363 3363 3363 3363 3363 3363 3363 3363 3362 3361 3361 3361 3360 3359 3358 3357 3357 3355 3354 3354 3351 3346 3345 3339 3332 3327 3322 3314 3309 3301 3295 3292 3289 3283 3273 3270 3266 3266 3265 3264 3264 3256 3239 3224 3214 3205 3199 3195 3188 3175 3161 3144 3134 3122 3108 3085 3063 3040 3019 3002 2991 2970 2937 2885 2810 2736 2675 0 0 0 0 0 1155 1147 1146 1146 1146 1145 1145 1145 1145 1144 1144 1144 1144 1144 1144 1144 1144 1144 1144 1144 1144 1144 1144 1143 1143 1142 1141 1140 1139 1138 1138 1137 1136 1135 1133 1132 1132 1132 1132 1131 1131 1131 1131 1131 1131 1131 1130 1130 1129 1128 1128 1128 1128 1128 1128 1128 1128 1128 1128 1128 1129 1130 1131 1131 1132 1132 1132 1132 1132 1132 1132 1131 1131 1130 1130 1130 1129 1129 1129 1128 1128 1128 1127 1127 1127 1127 1127 1126 1126 1126 1126 1125 1125 1125 1124 1124 1124 1122 1121 1121 1120 1120 1120 1120 1120 1119 1119 1119 1119 1118 1118 1118 1119 1119 1119 1119 1119 1119 1119 1119 1119 1119 1119 1119 1119 1119 1119 1119 1119 1119 1119 1119 1119 1119 1119 1119 1119 1118 1118 1117 1117 1116 1116 1116 1116 1115 1115 1115 1115 1116 1116 1116 1116 1116 1116 1116 1116 1117 1117 1117 1116 1115 1114 1114 1113 1112 1111 1111 1110 1109 1108 1108 1108 1108 1108 1108 1108 1108 1107 1107 1107 1107 1107 1107 1107 1107 1106 1106 1106 1107 1107 1107 1107 1107 1108 1108 1109 1109 1109 1109 1109 1109 1109 1109 1109 1109 1109 1109 1109 1109 1108 1108 1108 1108 1108 1108 1108 1108 1108 1108 1108 1107 1107 1107 1106 1106 1106 1105 1104 1103 1102 1101 1100 1099 1099 1098 1097 1097 1097 1097 1096 1096 1096 1097 1098 1098 1098 1097 1097 1097 1097 1098 1098 1097 1097 1097 1097 1098 1099 1100 1100 1100 1101 1103 1103 1103 1103 1102 1102 1102 1102 1102 1102 1102 1102 1102 1102 1101 1101 1101 1100 1100 1100 1100 1101 1101 1101 1101 1101 1100 1100 1100 1099 1099 1098 1098 1098 1098 1098 1097 1097 1096 1096 1095 1094 1094 1094 1094 1094 1094 1094 1094 1094 1094 1095 1095 1096 1097 1097 1097 1097 1096 1096 1096 1096 1096 1096 1097 1098 1099 1100 1100 1100 1099 1099 1099 1098 1098 1098 1099 1099 1099 1099 1099 1099 1099 1101 1101 1102 1102 1102 1102 1101 1101 1100 1099 1097 1097 1097 1097 1097 1097 1098 1100 1100 1101 1101 1103 1104 1104 1104 1106 1106 1107 1107 1107 1108 1108 1108 1107 1107 1107 1107 1106 1106 1104 1102 1100 1100 1100 1099 1099 1099 1095 1071 0 0 0 0 807 767 745 745 742 742 745 750 742 745 0 0 0 0 698 698 698 715 730 742 742 742 717 0 0 0
2066 2066 2086 2089 2110 2133 2150 2164 2177 2188 2198 2222 2254 2288 2303 2315 2319 2335 2353 2365 2373 2382 2396 2409 2419 2435 2453 2473 2496 2503 2523 2534 2550 2567 2584 2600 2610 2620 2627 2637 2649 2661 2675 2692 2697 2716 2735 2752 2764 2769 2771 2771 2775 2787 2803 2820 2837 2848 2854 2859 2863 2868 2878 2888 2898 2912 2925 2939 2951 2962 2974 2981 2983 2983 2985 2986 2996 3003 3013 3022 3034 3040 3052 3071 3088 3098 3102 3105 3106 3113 3121 3123 3126 3130 3131 3135 3138 3144 3156 3174 3178 3181 3185 3185 3186 3186 3186 3187 3187 3187 3187 3205 3220 3229 3260 3288 3289 3297 3307 3313 3318 3318 3318 3318 3318 3318 3318 3323 3328 3334 3334 3334 3334 3334 3334 3338 3344 3350 3353 3356 3359 3361 3363 3364 3364 3364 3363 3364 3363 3363 3363 3362 3361 3361 3361 3361 3360 3359 3359 3359 3358 3355 3354 3351 3346 3340 3333 3327 3323 3319 3314 3309 3301 3295 3293 3290 3284 3273 3270 3269 3269 3268 3268 3267 3257 3242 3230 3214 3205 3196 3189 3184 3175 3161 3131 3119 3113 3099 3081 3060 3036 3019 3002 2991 2979 2944 2891 2825 2753 2675 2518 0 0 0 0 1156 1147 1147 1147 1147 1147 1146 1146 1146 1146 1145 1144 1144 1144 1144 1145 1145 1145 1145 1145 1145 1145 1144 1144 1143 1143 1142 1141 1140 1139 1138 1137 1137 1135 1133 1133 1133 1132 1132 1131 1131 1131 1130 1130 1130 1130 1130 1129 1128 1128 1128 1127 1127 1127 1127 1128 1128 1128 1128 1129 1130 1131 1131 1132 1132 1133 1133 1133 1133 1133 1133 1132 1132 1132 1131 1131 1130 1130 1130 1130 1130 1129 1129 1129 1129 1129 1129 1128 1128 1127 1127 1127 1126 1125 1124 1124 1124 1122 1122 1121 1120 1120 1120 1119 1119 1119 1118 1117 1117 1117 1117 1118 1118 1118 1118 1119 1119 1119 1119 1119 1119 1119 1119 1119 1119 1119 1120 1120 1120 1120 1120 1120 1120 1120 1120 1120 1120 1120 1120 1119 1119 1119 1119 1118 1118 1118 1117 1117 1117 1117 1117 1117 1118 1118 1118 1118 1118 1118 1118 1118 1116 1115 1114 1114 1113 1112 1109 1109 1108 1108 1108 1108 1108 1108 1108 1108 1108 1107 1106 1106 1106 1106 1106 1107 1107 1107 1107 1107 1107 1107 1107 1107 1109 1109 1110 1110 1110 1111 1111 1111 1111 1111 1111 1110 1110 1110 1110 1110 1110 1110 1110 1110 1110 1110 1110 1109 1109 1109 1109 1109 1109 1108 1108 1108 1108 1107 1106 1106 1105 1104 1103 1101 1100 1099 1098 1097 1097 1096 1096 1095 1095 1095 1094 1094 1094 1095 1095 1095 1095 1096 1095 1095 1095 1095 1095 1095 1096 1096 1098 1100 1100 1101 1103 1104 1104 1104 1104 1103 1103 1103 1103 1103 1103 1103 1103 1103 1103 1103 1103 1103 1102 1103 1103 1103 1104 1104 1104 1103 1103 1102 1102 1102 1100 1100 1100 1098 1098 1098 1096 1095 1094 1094 1093 1093 1092 1092 1092 1091 1089 1089 1089 1091 1093 1093 1093 1093 1093 1092 1092 1093 1093 1093 1094 1094 1094 1095 1095 1097 1098 1100 1102 1102 1102 1101 1101 1100 1101 1101 1101 1101 1102 1102 1102 1103 1103 1103 1103 1105 1105 1106 1106 1106 1106 1106 1105 1103 1103 1103 1103 1103 1103 1103 1102 1102 1102 1102 1102 1104 1105 1106 1106 1106 1107 1107 1108 1108 1109 1109 1109 1108 1108 1107 1107 1107 1106 1105 1103 1101 1101 1101 1099 1099 1099 1095 0 0 0 0 0 799 765 738 738 738 742 746 748 767 770 772 777 777 777 756 717 714 714 714 728 746 746 746 0 0 0
2067 2067 2086 2090 2104 2124 2150 2164 2177 2190 2204 2222 2256 2288 2305 2320 2324 2335 2351 2365 2373 2382 2396 2409 2418 2435 2453 2474 2497 2505 2524 2543 2559 2579 2593 2604 2610 2620 2627 2637 2649 2662 2676 2692 2701 2723 2741 2756 2765 2773 2776 2777 2784 2795 2812 2824 2839 2848 2854 2859 2864 2869 2878 2888 2900 2912 2931 2945 2955 2967 2975 2981 2983 2983 2983 2986 2996 3010 3017 3024 3034 3040 3052 3071 3089 3098 3098 3102 3104 3104 3115 3123 3126 3130 3132 3135 3138 3144 3157 3174 3180 3183 3187 3189 3195 3199 3203 3211 3215 3215 3218 3218 3220 3229 3260 3284 3291 3299 3307 3313 3318 3319 3319 3319 3319 3320 3321 3323 3328 3334 3336 3336 3337 3337 3339 3342 3346 3350 3354 3356 3359 3361 3363 3363 3363 3364 3363 3364 3363 3363 3362 3360 3360 3360 3360 3361 3362 3362 3362 3362 3359 3355 3354 3351 3345 3339 3328 3320 3319 3317 3314 3309 3302 3297 3293 3291 3285 3277 3271 3271 3270 3268 3268 3268 3257 3242 3230 3214 3204 3193 3187 3183 3175 3158 3128 3113 3101 3086 3070 3052 3028 3014 3002 2991 2979 2953 2909 2837 2770 2697 2598 0 0 0 0 1170 1151 1149 1149 1149 1149 1149 1148 1147 1146 1146 1146 1146 1146 1146 1146 1146 1146 1146 1146 1146 1146 1145 1145 1144 1143 1143 1142 1141 1139 1139 1138 1137 1136 1134 1133 1133 1132 1132 1132 1131 1131 1130 1130 1130 1129 1129 1128 1128 1128 1127 1127 1127 1127 1127 1127 1128 1128 1128 1129 1130 1131 1132 1133 1133 1134 1134 1134 1134 1134 1134 1134 1134 1133 1133 1132 1132 1131 1131 1131 1131 1131 1131 1131 1131 1131 1130 1130 1129 1128 1128 1127 1127 1127 1126 1124 1124 1122 1122 1121 1120 1120 1120 1119 1119 1118 1117 1117 1117 1117 1117 1117 1117 1118 1118 1118 1118 1119 1119 1119 1119 1119 1119 1120 1120 1121 1121 1121 1121 1121 1121 1121 1121 1121 1121 1121 1121 1121 1121 1121 1121 1121 1121 1120 1120 1120 1120 1120 1120 1120 1120 1120 1120 1120 1120 1119 1119 1119 1119 1118 1117 1115 1114 1113 1112 1111 1109 1108 1107 1106 1106 1106 1106 1106 1106 1106 1106 1106 1106 1106 1105 1105 1105 1106 1106 1107 1107 1107 1107 1107 1107 1108 1110 1110 1111 1111 1111 1112 1112 1112 1112 1112 1112 1112 1112 1112 1112 1112 1112 1112 1112 1112 1112 1112 1112 1112 1112 1112 1111 1111 1111 1110 1110 1109 1109 1108 1107 1106 1106 1104 1103 1102 1100 1098 1098 1097 1096 1095 1094 1094 1094 1094 1093 1093 1093 1093 1094 1094 1094 1094 1094 1094 1095 1095 1095 1095 1096 1096 1098 1100 1101 1103 1104 1104 1105 1106 1106 1106 1106 1106 1106 1105 1105 1105 1105 1105 1105 1105 1105 1106 1106 1106 1106 1106 1106 1106 1106 1106 1106 1105 1104 1103 1103 1101 1101 1099 1098 1096 1093 1093 1093 1092 1092 1091 1090 1089 1088 1088 1087 1086 1086 1086 1086 1087 1087 1087 1087 1086 1086 1086 1086 1087 1089 1090 1092 1093 1094 1097 1098 1100 1103 1103 1103 1103 1103 1103 1103 1104 1104 1104 1105 1105 1105 1106 1106 1107 1107 1107 1108 1108 1108 1108 1108 1108 1108 1108 1108 1108 1108 1107 1106 1106 1106 1105 1105 1105 1105 1105 1106 1107 1107 1107 1108 1108 1109 1109 1109 1109 1109 1109 1109 1108 1108 1107 1107 1106 1103 1102 1101 1101 1100 1100 1099 1094 0 0 0 0 0 0 765 738 738 738 742 745 746 767 770 772 777 777 777 760 732 711 706 706 711 737 737 742 742 0 0
2067 2067 2080 2090 2104 2119 2144 2162 2177 2196 2211 2236 2262 2294 2306 2320 2324 2335 2350 2363 2377 2387 2399 2409 2418 2435 2453 2475 2500 2505 2527 2546 2560 2580 2595 2606 2614 2621 2629 2638 2652 2664 2677 2692 2703 2726 2741 2756 2765 2774 2783 2789 2798 2806 2820 2829 2840 2848 2854 2859 2864 2869 2880 2888 2900 2913 2937 2950 2956 2967 2975 2981 2983 2983 2983 2988 2999 3015 3026 3036 3042 3050 3062 3074 3089 3095 3095 3097 3098 3104 3115 3123 3129 3134 3136 3139 3143 3150 3159 3174 3181 3185 3187 3196 3207 3217 3221 3231 3240 3240 3240 3238 3238 3238 3260 3284 3291 3299 3307 3313 3318 3319 3320 3320 3321 3321 3321 3323 3328 3334 3338 3338 3340 3340 3342 3344 3347 3351 3354 3356 3359 3360 3362 3362 3363 3363 3363 3363 3363 3363 3361 3360 3358 3358 3358 3359 3362 3363 3363 3363 3360 3357 3353 3351 3345 3339 3328 3320 3314 3312 3312 3309 3303 3297 3295 3291 3288 3286 3281 3276 3276 3275 3274 3268 3257 3242 3230 3213 3204 3193 3187 3177 3167 3146 3128 3113 3101 3086 3070 3035 3017 2999 2996 2990 2979 2953 2909 2856 2784 2723 2601 0 0 0 0 1179 1156 1153 1152 1152 1152 1151 1148 1148 1148 1147 1147 1147 1147 1147 1147 1147 1147 1147 1147 1147 1147 1146 1146 1146 1145 1145 1144 1142 1141 1140 1140 1138 1136 1135 1134 1133 1132 1132 1132 1132 1131 1130 1130 1129 1129 1129 1128 1128 1128 1127 1127 1127 1127 1127 1127 1128 1128 1128 1129 1130 1131 1132 1134 1134 1135 1135 1136 1136 1135 1135 1135 1135 1134 1134 1134 1133 1133 1133 1133 1132 1132 1132 1132 1132 1132 1131 1131 1131 1130 1129 1128 1128 1128 1126 1125 1124 1122 1122 1121 1121 1120 1120 1119 1118 1118 1117 1117 1117 1117 1117 1117 1117 1117 1117 1118 1118 1118 1119 1119 1119 1119 1119 1119 1120 1121 1121 1122 1122 1122 1122 1122 1122 1122 1122 1122 1122 1122 1122 1122 1122 1121 1122 1121 1121 1121 1122 1122 1122 1122 1122 1122 1121 1121 1122 1121 1121 1120 1120 1118 1117 1115 1114 1113 1112 1110 1108 1107 1106 1106 1105 1105 1104 1104 1104 1105 1105 1105 1105 1105 1105 1105 1105 1106 1106 1107 1107 1107 1107 1107 1108 1109 1110 1112 1112 1112 1113 1114 1114 1114 1114 1114 1114 1114 1114 1114 1114 1114 1114 1114 1114 1114 1114 1113 1113 1113 1113 1113 1113 1112 1112 1111 1111 1110 1110 1109 1108 1107 1106 1105 1103 1102 1100 1098 1098 1097 1095 1094 1093 1093 1093 1093 1092 1092 1092 1092 1093 1093 1093 1093 1093 1093 1093 1094 1095 1095 1096 1096 1098 1100 1102 1103 1104 1106 1107 1107 1107 1107 1107 1107 1107 1107 1107 1107 1107 1107 1107 1107 1107 1107 1108 1108 1109 1109 1109 1109 1109 1109 1108 1107 1106 1105 1104 1103 1101 1099 1098 1095 1091 1091 1091 1091 1091 1091 1090 1089 1087 1087 1086 1086 1085 1085 1085 1085 1085 1084 1083 1083 1083 1083 1085 1086 1088 1089 1091 1093 1094 1097 1098 1100 1103 1104 1104 1105 1105 1105 1105 1106 1106 1107 1107 1107 1107 1109 1110 1110 1110 1109 1109 1109 1110 1110 1110 1110 1110 1110 1109 1109 1109 1109 1107 1107 1107 1108 1108 1108 1108 1108 1108 1108 1109 1109 1109 1109 1109 1110 1110 1110 1110 1109 1109 1109 1109 1108 1107 1107 1104 1103 1102 1101 1100 1100 1096 1091 0 0 0 0 0 0 767 738 732 724 724 738 747 767 770 772 777 777 777 760 732 711 705 705 705 735 753 757 757 0 0
2067 2067 2080 2090 2104 2116 2132 2159 2177 2201 2221 2246 2275 2300 2314 2323 2329 2335 2344 2360 2378 2394 2404 2410 2418 2437 2463 2494 2501 2516 2530 2546 2560 2580 2595 2608 2621 2627 2632 2642 2652 2664 2678 2686 2704 2726 2741 2756 2765 2776 2786 2799 2805 2810 2820 2829 2840 2849 2855 2861 2865 2869 2882 2893 2902 2916 2939 2951 2956 2967 2975 2979 2982 2983 2985 2994 3007 3023 3034 3042 3048 3059 3070 3080 3088 3092 3093 3093 3097 3104 3115 3123 3129 3134 3141 3142 3147 3151 3162 3174 3182 3188 3195 3203 3212 3222 3229 3244 3255 3264 3265 3265 3265 3265 3269 3284 3295 3303 3306 3311 3318 3320 3321 3321 3323 3323 3323 3323 3328 3334 3339 3343 3343 3346 3346 3349 3351 3352 3354 3356 3358 3360 3361 3361 3362 3363 3363 3363 3363 3363 3361 3360 3358 3358 3358 3359 3362 3364 3364 3364 3362 3357 3353 3351 3345 3339 3328 3320 3314 3312 3312 3309 3303 3298 3296 3293 3290 3290 3287 3284 3282 3280 3274 3268 3257 3242 3226 3213 3204 3193 3187 3176 3161 3151 3131 3113 3101 3086 3070 3035 3012 2986 2974 2973 2970 2953 2909 2856 2797 2738 2601 0 0 0 0 1181 1156 1154 1154 1154 1154 1152 1150 1149 1149 1148 1148 1148 1148 1148 1148 1148 1148 1148 1148 1148 1147 1147 1147 1147 1146 1145 1145 1144 1142 1141 1141 1139 1138 1136 1135 1133 1132 1132 1132 1132 1132 1131 1130 1129 1129 1128 1128 1128 1127 1127 1127 1127 1127 1127 1127 1128 1129 1129 1130 1130 1132 1135 1136 1136 1136 1136 1137 1137 1137 1137 1137 1136 1136 1136 1136 1135 1135 1135 1134 1134 1134 1133 1133 1133 1132 1132 1132 1131 1131 1130 1130 1129 1128 1127 1125 1124 1122 1122 1121 1121 1120 1120 1119 1118 1118 1117 1117 1117 1117 1117 1117 1117 1117 1117 1118 1118 1118 1119 1119 1119 1119 1119 1120 1120 1121 1121 1122 1123 1123 1124 1124 1124 1124 1124 1124 1124 1124 1124 1124 1123 1124 1124 1123 1123 1123 1123 1123 1123 1123 1123 1123 1123 1123 1123 1123 1122 1122 1120 1118 1117 1115 1114 1113 1112 1110 1108 1107 1106 1105 1105 1104 1104 1104 1104 1104 1104 1104 1104 1104 1105 1105 1105 1106 1106 1107 1107 1107 1108 1108 1108 1110 1112 1112 1113 1114 1115 1115 1115 1115 1115 1116 1116 1116 1116 1116 1115 1115 1115 1115 1115 1115 1115 1115 1115 1115 1115 1115 1114 1113 1113 1113 1112 1112 1111 1110 1109 1108 1107 1105 1103 1102 1100 1098 1097 1096 1095 1094 1093 1093 1092 1092 1091 1091 1091 1091 1091 1091 1092 1092 1092 1092 1092 1093 1095 1096 1097 1097 1098 1100 1103 1106 1107 1108 1109 1109 1109 1109 1109 1109 1109 1109 1109 1109 1109 1109 1109 1109 1110 1110 1110 1110 1110 1110 1110 1110 1110 1110 1109 1108 1108 1107 1105 1103 1101 1099 1097 1093 1089 1089 1089 1089 1089 1089 1089 1088 1086 1086 1084 1084 1082 1081 1081 1081 1082 1082 1082 1082 1082 1083 1084 1085 1087 1089 1091 1093 1094 1098 1101 1101 1105 1105 1105 1106 1106 1107 1107 1108 1108 1108 1109 1109 1109 1111 1111 1111 1111 1111 1111 1111 1112 1113 1113 1113 1112 1112 1112 1112 1111 1111 1110 1110 1110 1110 1110 1110 1110 1110 1110 1110 1110 1110 1110 1110 1111 1111 1111 1110 1110 1110 1110 1109 1109 1108 1108 1107 1106 1104 1102 1102 1102 1099 1094 1089 0 0 0 0 0 0 806 764 748 730 730 730 745 745 746 754 754 760 760 760 732 715 705 705 705 728 759 759 759 0 0
2077 2077 2080 2103 2109 2115 2132 2159 2177 2202 2232 2255 2282 2305 2314 2323 2329 2335 2340 2358 2381 2403 2415 2420 2422 2438 2466 2497 2503 2528 2534 2546 2559 2580 2595 2608 2621 2627 2636 2648 2658 2666 2678 2686 2705 2726 2739 2750 2765 2777 2788 2799 2805 2810 2820 2831 2841 2849 2855 2861 2865 2869 2886 2901 2914 2929 2940 2951 2960 2968 2975 2979 2982 2983 2988 2999 3012 3030 3040 3052 3057 3065 3075 3083 3087 3090 3090 3093 3097 3105 3118 3123 3129 3134 3141 3142 3148 3155 3164 3174 3182 3195 3204 3211 3215 3222 3229 3244 3255 3271 3280 3286 3289 3290 3295 3298 3301 3303 3306 3311 3318 3321 3324 3324 3324 3325 3325 3326 3331 3338 3339 3343 3345 3346 3347 3349 3351 3352 3354 3355 3358 3360 3360 3361 3361 3361 3362 3362 3362 3362 3361 3361 3358 3358 3358 3359 3362 3365 3365 3365 3362 3357 3353 3351 3345 3342 3332 3320 3314 3312 3312 3310 3307 3301 3297 3294 3291 3291 3287 3287 3284 3280 3274 3264 3254 3237 3226 3213 3204 3199 3189 3176 3161 3151 3131 3121 3111 3092 3072 3035 3012 2978 2960 2951 2950 2923 2891 2856 2797 2740 2623 0 0 0 0 0 1160 1154 1154 1154 1154 1153 1152 1150 1150 1149 1149 1149 1149 1149 1149 1149 1149 1149 1149 1149 1148 1148 1148 1148 1147 1147 1146 1144 1144 1143 1141 1140 1139 1137 1135 1134 1133 1132 1132 1132 1132 1131 1130 1129 1129 1128 1128 1128 1127 1127 1127 1127 1127 1127 1127 1128 1129 1129 1130 1132 1134 1135 1137 1137 1137 1137 1137 1137 1138 1138 1138 1137 1137 1137 1137 1137 1137 1136 1136 1136 1135 1135 1134 1134 1134 1134 1133 1133 1132 1132 1131 1129 1128 1128 1127 1126 1123 1123 1122 1122 1122 1120 1120 1118 1118 1117 1117 1117 1117 1117 1117 1117 1117 1117 1118 1118 1118 1119 1119 1119 1119 1120 1120 1120 1121 1122 1123 1124 1124 1125 1125 1126 1126 1126 1126 1126 1126 1125 1125 1125 1125 1125 1125 1125 1125 1125 1125 1125 1125 1125 1124 1124 1124 1124 1124 1123 1123 1121 1119 1117 1116 1114 1113 1112 1110 1108 1107 1106 1105 1104 1104 1103 1103 1103 1103 1104 1104 1104 1104 1105 1105 1105 1106 1106 1107 1107 1108 1109 1109 1110 1112 1113 1114 1114 1115 1117 1117 1117 1117 1117 1118 1117 1117 1117 1117 1117 1117 1117 1117 1117 1117 1117 1117 1116 1116 1116 1116 1116 1115 1114 1114 1113 1112 1111 1111 1110 1109 1108 1105 1103 1102 1099 1098 1097 1096 1095 1093 1093 1092 1091 1091 1091 1090 1090 1090 1090 1091 1092 1092 1092 1092 1092 1093 1095 1096 1097 1097 1098 1100 1104 1108 1109 1109 1110 1110 1110 1110 1110 1110 1110 1110 1111 1111 1111 1111 1111 1111 1111 1111 1112 1112 1113 1113 1112 1112 1112 1112 1111 1110 1108 1108 1106 1104 1102 1099 1098 1093 1089 1089 1089 1088 1088 1088 1087 1085 1083 1082 1081 1081 1081 1081 1081 1081 1082 1082 1082 1082 1082 1082 1083 1084 1087 1089 1091 1093 1095 1099 1105 1105 1105 1105 1107 1107 1107 1109 1110 1110 1110 1110 1111 1111 1111 1112 1114 1114 1114 1114 1114 1114 1114 1115 1115 1115 1115 1114 1114 1114 1114 1114 1112 1112 1112 1112 1112 1112 1112 1112 1111 1111 1111 1111 1111 1111 1111 1112 1111 1111 1111 1111 1110 1110 1109 1109 1109 1108 1107 1105 1103 1102 1102 1098 1090 1078 0 0 0 0 0 0 807 778 757 730 730 730 745 745 745 731 730 730 730 730 729 720 714 714 714 723 726 726 0 0 0
2077 2077 2080 2103 2109 2115 2132 2159 2189 2219 2245 2268 2287 2306 2314 2323 2329 2335 2340 2358 2381 2403 2415 2425 2429 2440 2467 2497 2504 2528 2534 2542 2552 2569 2590 2608 2621 2627 2636 2648 2659 2667 2678 2686 2705 2723 2735 2746 2762 2774 2788 2799 2805 2810 2819 2831 2841 2849 2855 2861 2865 2868 2886 2902 2919 2936 2943 2951 2961 2968 2975 2979 2982 2985 2993 3004 3019 3033 3049 3056 3065 3074 3082 3085 3087 3090 3090 3093 3101 3109 3118 3123 3128 3132 3141 3142 3148 3155 3164 3174 3182 3195 3204 3211 3215 3222 3230 3244 3255 3272 3281 3289 3297 3304 3304 3304 3303 3303 3303 3310 3319 3326 3327 3327 3327 3327 3327 3329 3334 3339 3342 3343 3345 3346 3347 3349 3351 3352 3353 3353 3356 3359 3360 3360 3361 3361 3361 3362 3362 3362 3361 3361 3361 3358 3358 3358 3361 3365 3365 3365 3364 3359 3356 3351 3347 3343 3337 3327 3318 3313 3313 3311 3309 3305 3300 3294 3294 3291 3289 3287 3284 3280 3272 3261 3254 3237 3226 3217 3212 3207 3194 3176 3161 3151 3143 3136 3121 3107 3076 3048 3012 2978 2959 2935 2923 2896 2873 2850 2797 2740 2650 0 0 0 0 0 1161 1154 1154 1154 1154 1153 1152 1152 1151 1150 1150 1150 1150 1150 1150 1150 1150 1150 1150 1150 1150 1150 1149 1149 1149 1148 1147 1146 1145 1143 1142 1141 1139 1137 1136 1135 1134 1134 1134 1133 1132 1132 1130 1129 1129 1128 1128 1128 1127 1127 1127 1127 1127 1127 1127 1128 1129 1129 1131 1132 1134 1136 1137 1138 1138 1138 1139 1139 1139 1139 1139 1139 1138 1138 1138 1138 1138 1138 1137 1137 1137 1137 1137 1136 1135 1135 1135 1134 1133 1133 1132 1130 1130 1129 1129 1127 1125 1125 1124 1123 1122 1121 1120 1120 1118 1118 1118 1118 1118 1117 1117 1117 1117 1118 1118 1118 1118 1119 1120 1120 1120 1120 1121 1121 1121 1123 1123 1125 1125 1126 1126 1126 1126 1126 1126 1126 1126 1126 1126 1126 1126 1126 1126 1126 1126 1126 1126 1126 1126 1126 1126 1126 1126 1125 1125 1124 1123 1122 1119 1117 1117 1114 1113 1111 1109 1108 1107 1106 1105 1104 1104 1103 1103 1103 1103 1103 1103 1104 1104 1105 1105 1105 1106 1107 1108 1109 1109 1110 1112 1113 1114 1114 1115 1116 1116 1117 1118 1118 1119 1119 1119 1119 1119 1119 1119 1119 1118 1118 1118 1118 1118 1118 1118 1118 1118 1118 1117 1117 1116 1116 1115 1115 1114 1113 1112 1112 1109 1108 1106 1104 1102 1099 1098 1097 1096 1095 1093 1093 1092 1091 1091 1090 1090 1090 1090 1090 1091 1092 1092 1092 1092 1092 1093 1095 1096 1097 1099 1100 1101 1105 1108 1110 1110 1111 1112 1112 1112 1112 1112 1112 1112 1112 1112 1112 1113 1113 1113 1113 1114 1114 1114 1114 1114 1114 1114 1114 1113 1112 1111 1109 1109 1107 1104 1103 1100 1098 1093 1088 1088 1087 1087 1086 1086 1084 1083 1081 1080 1080 1080 1080 1080 1081 1081 1081 1082 1082 1082 1082 1082 1083 1084 1086 1089 1090 1093 1096 1101 1105 1105 1106 1106 1107 1108 1110 1110 1111 1112 1112 1112 1113 1113 1114 1115 1115 1116 1116 1116 1116 1116 1116 1117 1117 1117 1117 1116 1116 1116 1116 1115 1115 1114 1114 1114 1113 1113 1113 1113 1113 1113 1113 1113 1113 1113 1113 1113 1112 1112 1112 1111 1111 1111 1110 1110 1109 1108 1107 1105 1104 1104 1102 1098 1090 1078 0 0 0 0 0 0 0 782 759 739 739 739 745 745 745 731 727 723 723 723 723 723 720 720 720 720 722 0 0 0 0
2077 2077 2080 2103 2109 2115 2141 2172 2210 2233 2255 2272 2291 2306 2311 2322 2329 2334 2340 2358 2381 2403 2415 2425 2431 2443 2468 2497 2504 2528 2534 2539 2546 2561 2579 2595 2611 2623 2636 2648 2660 2669 2679 2686 2705 2720 2734 2745 2761 2774 2788 2795 2798 2807 2819 2831 2841 2842 2844 2849 2854 2867 2886 2902 2919 2936 2949 2958 2966 2973 2977 2980 2986 2992 2999 3010 3019 3033 3050 3056 3069 3074 3082 3085 3087 3090 3090 3095 3103 3109 3118 3120 3121 3131 3137 3142 3148 3155 3164 3174 3182 3195 3204 3211 3215 3221 3230 3240 3254 3272 3281 3289 3297 3304 3304 3304 3301 3301 3301 3309 3319 3326 3327 3327 3328 3328 3328 3331 3334 3340 3342 3344 3345 3346 3347 3348 3349 3352 3353 3353 3356 3359 3360 3360 3361 3361 3360 3361 3361 3361 3361 3361 3361 3359 3359 3359 3361 3365 3365 3365 3364 3359 3356 3351 3347 3343 3337 3330 3324 3319 3316 3313 3310 3306 3303 3298 3295 3292 3290 3288 3284 3278 3272 3261 3254 3237 3226 3217 3212 3207 3203 3186 3164 3158 3153 3153 3149 3137 3114 3054 3018 2978 2959 2935 2923 2894 2856 2819 2784 2740 2652 0 0 0 0 0 1161 1154 1154 1154 1154 1153 1153 1152 1152 1152 1151 1151 1151 1151 1151 1151 1151 1151 1151 1151 1151 1151 1151 1151 1150 1150 1148 1148 1146 1144 1143 1142 1141 1139 1137 1136 1135 1134 1134 1134 1133 1132 1131 1130 1129 1129 1129 1128 1127 1127 1127 1127 1127 1127 1127 1128 1129 1130 1131 1133 1134 1136 1137 1139 1139 1139 1140 1140 1140 1140 1140 1140 1140 1140 1140 1139 1139 1139 1139 1139 1138 1138 1138 1138 1137 1137 1136 1136 1134 1134 1133 1132 1131 1130 1129 1128 1126 1125 1125 1125 1123 1122 1121 1121 1120 1119 1119 1119 1119 1119 1118 1118 1118 1118 1118 1119 1119 1119 1120 1120 1121 1121 1121 1121 1122 1123 1125 1125 1126 1127 1127 1127 1128 1127 1127 1128 1127 1127 1128 1128 1128 1128 1128 1128 1128 1128 1128 1128 1128 1128 1127 1127 1127 1126 1126 1125 1123 1122 1120 1118 1117 1114 1112 1111 1109 1107 1106 1106 1105 1104 1104 1104 1103 1103 1103 1103 1103 1104 1104 1105 1105 1106 1107 1108 1108 1109 1110 1111 1113 1115 1115 1116 1117 1118 1118 1118 1120 1120 1120 1120 1120 1120 1120 1120 1120 1120 1120 1120 1120 1120 1120 1119 1119 1119 1119 1118 1118 1118 1117 1117 1117 1116 1115 1113 1113 1112 1109 1108 1106 1104 1102 1099 1098 1097 1096 1095 1094 1093 1092 1091 1091 1090 1090 1090 1090 1091 1093 1093 1093 1093 1093 1093 1094 1096 1097 1098 1100 1102 1103 1108 1109 1110 1111 1113 1113 1114 1114 1114 1114 1114 1114 1114 1114 1113 1113 1114 1114 1115 1115 1115 1115 1115 1115 1115 1115 1115 1114 1113 1113 1112 1109 1107 1105 1103 1101 1098 1091 1088 1087 1087 1087 1086 1084 1083 1082 1080 1079 1079 1079 1079 1080 1081 1081 1082 1082 1082 1082 1082 1083 1083 1084 1086 1088 1089 1093 1097 1101 1105 1106 1107 1108 1109 1110 1112 1113 1113 1114 1114 1114 1115 1115 1116 1117 1117 1117 1117 1117 1117 1117 1117 1118 1118 1118 1118 1118 1118 1117 1117 1117 1116 1116 1116 1115 1114 1114 1114 1114 1114 1114 1114 1114 1114 1114 1114 1113 1113 1113 1113 1112 1112 1112 1111 1111 1109 1109 1107 1106 1106 1104 1102 1099 1090 1078 0 0 0 0 0 0 0 0 764 739 739 739 747 747 747 731 727 723 723 723 723 729 730 729 729 729 0 0 0 0 0
2055 2055 2080 2096 2107 2122 2148 2178 2210 2233 2255 2272 2291 2306 2311 2318 2324 2329 2341 2358 2378 2398 2413 2425 2431 2444 2467 2473 2503 2523 2531 2539 2546 2561 2579 2595 2611 2620 2631 2648 2661 2671 2679 2687 2705 2720 2734 2744 2761 2772 2780 2785 2793 2803 2818 2831 2840 2841 2844 2848 2853 2865 2886 2902 2919 2936 2949 2958 2976 2978 2979 2985 2989 2994 3001 3010 3020 3034 3050 3057 3069 3076 3082 3085 3087 3090 3093 3096 3104 3109 3115 3120 3121 3122 3126 3136 3147 3155 3163 3171 3178 3189 3200 3208 3213 3221 3230 3240 3254 3272 3281 3289 3297 3304 3304 3304 3300 3300 3300 3309 3319 3326 3327 3327 3328 3328 3328 3331 3334 3340 3344 3346 3346 3346 3346 3346 3349 3351 3353 3353 3356 3359 3360 3360 3361 3361 3360 3358 3358 3358 3361 3361 3361 3359 3359 3359 3361 3368 3368 3368 3364 3359 3356 3350 3347 3343 3337 3331 3328 3323 3319 3315 3313 3309 3306 3302 3300 3297 3294 3290 3285 3278 3272 3261 3254 3241 3227 3217 3212 3207 3203 3202 3189 3175 3160 3160 3157 3141 3119 3082 3027 2989 2959 2935 2923 2894 2856 2819 2784 2730 2655 2522 0 0 0 0 1161 1154 1154 1154 1154 1153 1153 1153 1153 1153 1153 1153 1153 1152 1152 1153 1152 1152 1152 1152 1152 1152 1152 1152 1151 1151 1150 1148 1146 1145 1144 1142 1142 1139 1137 1136 1135 1135 1134 1134 1134 1133 1132 1131 1130 1129 1129 1128 1128 1127 1127 1127 1127 1127 1128 1129 1129 1131 1131 1133 1134 1136 1138 1139 1139 1140 1140 1141 1141 1141 1141 1141 1141 1141 1141 1141 1141 1140 1140 1140 1140 1139 1139 1139 1139 1139 1137 1136 1136 1135 1135 1133 1133 1131 1130 1129 1127 1127 1126 1126 1125 1124 1122 1121 1121 1120 1120 1120 1120 1119 1119 1119 1119 1119 1119 1119 1120 1120 1121 1121 1121 1121 1122 1122 1122 1124 1126 1126 1127 1128 1129 1129 1129 1129 1129 1129 1129 1129 1129 1129 1129 1129 1129 1129 1129 1129 1129 1129 1129 1128 1128 1128 1128 1127 1126 1126 1124 1123 1121 1119 1118 1115 1112 1111 1109 1107 1106 1106 1105 1104 1104 1104 1103 1103 1103 1103 1104 1104 1104 1105 1106 1106 1107 1108 1109 1110 1111 1113 1114 1116 1116 1116 1118 1118 1119 1119 1121 1121 1121 1121 1121 1121 1121 1121 1121 1121 1121 1121 1121 1120 1120 1120 1120 1120 1120 1119 1119 1119 1119 1118 1118 1116 1116 1115 1113 1112 1111 1108 1107 1104 1102 1100 1099 1097 1096 1095 1094 1093 1092 1091 1091 1091 1091 1091 1091 1093 1093 1093 1093 1094 1094 1094 1095 1096 1097 1099 1101 1103 1106 1109 1110 1111 1113 1114 1115 1115 1115 1116 1116 1115 1115 1115 1115 1115 1115 1115 1115 1116 1116 1116 1117 1117 1117 1117 1117 1116 1116 1115 1113 1112 1110 1109 1106 1103 1101 1098 1090 1088 1087 1087 1087 1085 1084 1082 1081 1080 1079 1079 1079 1079 1080 1081 1081 1082 1082 1082 1082 1083 1083 1083 1084 1086 1088 1089 1093 1098 1102 1105 1107 1108 1110 1111 1113 1114 1114 1115 1115 1115 1116 1117 1117 1117 1118 1118 1118 1118 1118 1118 1118 1119 1119 1119 1119 1119 1119 1119 1119 1119 1118 1118 1118 1117 1116 1116 1116 1116 1115 1115 1115 1115 1114 1115 1115 1114 1114 1114 1114 1113 1113 1113 1112 1112 1111 1111 1110 1109 1108 1107 1106 1103 1099 1098 1078 0 0 0 0 0 0 0 0 0 0 0 0 0 0 0 0 727 723 723 723 727 730 736 732 732 732 0 0 0 0 0
2055 2055 2080 2096 2107 2126 2154 2178 2210 2233 2255 2272 2291 2305 2311 2315 2321 2329 2341 2358 2378 2393 2413 2420 2433 2444 2466 2473 2499 2519 2530 2539 2546 2561 2579 2595 2611 2620 2631 2648 2661 2671 2678 2687 2704 2720 2732 2744 2756 2759 2767 2776 2793 2803 2816 2831 2839 2840 2844 2848 2852 2859 2877 2898 2913 2931 2949 2958 2979 2984 2988 2989 2990 2994 3001 3010 3024 3036 3050 3057 3070 3079 3084 3085 3087 3091 3094 3102 3105 3109 3115 3120 3121 3122 3126 3134 3146 3155 3161 3168 3177 3188 3199 3208 3211 3221 3229 3239 3251 3265 3277 3284 3291 3298 3298 3298 3299 3299 3299 3306 3312 3321 3324 3326 3327 3327 3328 3331 3334 3340 3344 3347 3347 3347 3348 3348 3349 3350 3353 3355 3358 3359 3361 3361 3361 3361 3361 3358 3358 3358 3361 3361 3361 3360 3360 3360 3364 3368 3368 3368 3364 3354 3350 3347 3344 3340 3336 3332 3329 3328 3324 3319 3316 3312 3309 3306 3302 3298 3295 3290 3285 3278 3272 3269 3262 3248 3229 3217 3208 3207 3203 3202 3201 3192 3179 3166 3158 3141 3120 3095 3058 3017 2981 2956 2931 2894 2856 2819 2784 2730 2670 2538 0 0 0 0 1162 1154 1154 1154 1154 1154 1154 1154 1153 1154 1154 1154 1154 1154 1154 1154 1154 1154 1154 1154 1154 1154 1153 1153 1152 1152 1151 1150 1148 1147 1145 1144 1144 1140 1138 1137 1137 1135 1135 1135 1134 1134 1132 1131 1130 1130 1129 1129 1128 1127 1127 1127 1127 1128 1128 1130 1130 1131 1131 1134 1136 1137 1139 1140 1141 1141 1141 1142 1142 1142 1142 1142 1142 1142 1142 1142 1142 1142 1142 1142 1141 1141 1141 1140 1140 1139 1139 1138 1137 1136 1136 1135 1133 1131 1130 1129 1128 1127 1127 1126 1125 1124 1122 1122 1121 1121 1120 1120 1120 1120 1120 1120 1120 1120 1120 1120 1120 1121 1121 1121 1121 1122 1122 1123 1123 1125 1127 1128 1128 1128 1129 1129 1130 1130 1130 1130 1130 1130 1130 1130 1130 1130 1130 1130 1130 1130 1130 1130 1130 1130 1130 1129 1129 1127 1127 1126 1125 1123 1121 1120 1118 1116 1113 1110 1109 1107 1106 1105 1105 1104 1104 1104 1104 1104 1104 1104 1105 1105 1106 1106 1107 1107 1108 1108 1110 1110 1111 1113 1114 1116 1117 1117 1118 1119 1120 1121 1121 1122 1122 1122 1122 1122 1122 1122 1122 1122 1122 1122 1122 1122 1121 1121 1121 1121 1121 1121 1121 1119 1119 1119 1118 1117 1116 1115 1115 1114 1112 1109 1106 1105 1103 1101 1100 1099 1097 1095 1094 1093 1092 1092 1091 1091 1091 1092 1092 1093 1093 1094 1094 1095 1095 1095 1096 1097 1098 1101 1101 1103 1106 1110 1112 1113 1114 1115 1116 1116 1116 1117 1117 1117 1117 1116 1116 1117 1117 1117 1117 1117 1117 1117 1117 1118 1118 1118 1118 1117 1117 1116 1114 1113 1111 1111 1108 1104 1102 1098 1089 1087 1087 1087 1086 1084 1083 1081 1080 1080 1079 1079 1079 1079 1080 1081 1082 1082 1082 1082 1083 1084 1084 1085 1085 1086 1088 1089 1093 1098 1106 1107 1107 1108 1111 1113 1114 1115 1115 1116 1117 1117 1117 1118 1118 1119 1119 1119 1119 1119 1119 1119 1120 1120 1120 1120 1120 1120 1120 1120 1120 1120 1120 1119 1119 1118 1118 1117 1117 1117 1116 1116 1116 1116 1115 1115 1115 1115 1115 1115 1115 1114 1114 1114 1113 1112 1112 1112 1111 1110 1108 1107 1106 1103 1102 1098 1074 0 0 0 0 0 0 0 0 0 0 0 0 0 0 0 0 0 725 725 725 728 733 741 741 741 741 0 0 0 0 0
2055 2055 2080 2096 2107 2126 2155 2178 2204 2225 2247 2270 2288 2299 2305 2309 2318 2329 2341 2359 2378 2393 2413 2420 2433 2444 2467 2472 2492 2513 2530 2540 2553 2570 2588 2604 2614 2620 2631 2648 2661 2671 2677 2687 2704 2720 2732 2742 2748 2752 2756 2776 2793 2803 2815 2825 2835 2839 2842 2848 2852 2860 2875 2895 2908 2923 2942 2958 2979 2984 2988 2989 2990 2995 3001 3010 3024 3037 3049 3059 3070 3079 3084 3085 3088 3092 3098 3103 3105 3109 3115 3120 3121 3122 3126 3133 3145 3154 3161 3168 3177 3188 3196 3207 3211 3221 3229 3238 3245 3258 3271 3281 3287 3289 3290 3293 3294 3295 3299 3306 3312 3316 3321 3323 3324 3327 3328 3330 3334 3338 3344 3347 3347 3347 3348 3348 3349 3350 3353 3355 3358 3359 3361 3361 3361 3361 3361 3358 3358 3358 3361 3361 3361 3360 3360 3360 3364 3368 3368 3368 3364 3354 3347 3344 3341 3337 3335 3332 3330 3329 3325 3321 3317 3313 3312 3309 3305 3301 3297 3293 3285 3279 3275 3273 3268 3248 3230 3217 3208 3203 3202 3202 3201 3198 3185 3173 3158 3143 3121 3097 3069 3039 2998 2975 2955 2937 2900 2854 2791 2730 2677 2551 0 0 0 0 1162 1158 1157 1157 1157 1156 1156 1156 1156 1156 1155 1155 1155 1155 1155 1155 1155 1155 1155 1155 1155 1155 1155 1154 1154 1153 1152 1151 1149 1148 1147 1146 1144 1140 1140 1138 1137 1136 1136 1135 1135 1135 1133 1131 1131 1131 1130 1129 1129 1128 1127 1127 1127 1128 1129 1130 1130 1132 1132 1134 1136 1137 1140 1140 1141 1142 1142 1143 1144 1144 1144 1144 1144 1144 1143 1143 1143 1143 1143 1143 1143 1142 1142 1142 1141 1141 1140 1139 1138 1137 1137 1136 1134 1132 1130 1130 1128 1128 1127 1127 1126 1125 1123 1122 1122 1122 1122 1121 1121 1121 1121 1121 1121 1121 1121 1121 1121 1121 1122 1122 1122 1122 1123 1123 1124 1126 1128 1129 1129 1129 1130 1131 1131 1131 1131 1131 1131 1131 1131 1131 1131 1131 1131 1131 1131 1131 1131 1131 1131 1131 1130 1130 1129 1129 1128 1127 1126 1124 1122 1120 1119 1117 1113 1110 1109 1107 1106 1105 1105 1105 1104 1104 1104 1104 1104 1105 1105 1106 1107 1108 1108 1108 1109 1109 1110 1111 1112 1113 1115 1116 1118 1118 1119 1120 1122 1122 1123 1123 1124 1124 1124 1124 1124 1124 1124 1123 1123 1123 1123 1122 1122 1122 1122 1122 1122 1122 1121 1121 1121 1120 1119 1119 1118 1117 1115 1114 1113 1109 1106 1105 1103 1102 1100 1099 1097 1096 1095 1093 1093 1093 1093 1092 1093 1093 1093 1093 1094 1094 1094 1095 1095 1095 1096 1097 1099 1101 1103 1106 1108 1110 1114 1114 1115 1116 1117 1117 1118 1118 1118 1118 1118 1118 1118 1118 1118 1118 1118 1118 1118 1119 1119 1119 1119 1119 1118 1118 1118 1116 1115 1114 1112 1112 1108 1105 1103 1098 1089 1087 1086 1086 1086 1084 1082 1081 1080 1079 1079 1079 1079 1079 1080 1081 1082 1083 1083 1083 1084 1085 1085 1085 1086 1086 1088 1089 1094 1100 1107 1107 1109 1111 1112 1115 1116 1116 1117 1118 1118 1118 1119 1119 1120 1120 1120 1120 1120 1121 1121 1121 1121 1121 1121 1121 1121 1121 1121 1121 1121 1121 1121 1121 1121 1120 1120 1119 1119 1119 1118 1117 1117 1117 1117 1117 1117 1117 1116 1116 1116 1116 1115 1115 1114 1114 1113 1113 1111 1110 1108 1107 1106 1103 1102 1098 0 0 0 0 0 0 0 0 0 0 0 0 0 0 0 0 0 0 739 739 733 730 733 741 741 741 0 0 0 0 0 0
2076 2076 2088 2097 2114 2148 2160 2178 2198 2218 2238 2257 2278 2284 2296 2309 2318 2329 2342 2361 2381 2393 2413 2420 2434 2446 2467 2472 2492 2513 2530 2544 2561 2575 2588 2606 2622 2629 2639 2649 2661 2671 2674 2685 2704 2720 2732 2739 2742 2747 2756 2776 2794 2808 2813 2821 2832 2838 2842 2849 2853 2860 2875 2895 2908 2923 2938 2957 2979 2984 2988 2989 2990 2995 3001 3009 3024 3037 3046 3060 3070 3079 3084 3087 3089 3093 3098 3104 3105 3110 3115 3120 3124 3124 3125 3133 3145 3154 3161 3168 3177 3188 3194 3197 3208 3221 3225 3230 3235 3248 3262 3276 3285 3286 3286 3286 3290 3295 3299 3306 3311 3315 3318 3318 3321 3324 3326 3329 3332 3338 3342 3347 3347 3347 3348 3348 3349 3351 3353 3355 3358 3358 3361 3361 3361 3361 3361 3360 3360 3360 3361 3361 3361 3360 3360 3360 3364 3367 3367 3367 3361 3353 3347 3342 3337 3335 3333 3332 3330 3329 3325 3321 3317 3313 3312 3309 3307 3303 3299 3294 3289 3282 3278 3276 3268 3250 3232 3217 3208 3199 3199 3198 3198 3198 3185 3173 3158 3143 3121 3099 3079 3053 3021 2999 2979 2959 2930 2886 2824 2753 2682 2609 0 0 0 0 0 1160 1160 1160 1160 1160 1160 1158 1158 1157 1156 1156 1156 1156 1157 1157 1157 1157 1157 1157 1157 1157 1156 1155 1154 1154 1153 1152 1150 1149 1148 1146 1145 1142 1140 1139 1139 1138 1136 1136 1136 1135 1134 1132 1132 1131 1131 1131 1130 1129 1128 1128 1128 1129 1130 1130 1131 1132 1135 1135 1137 1139 1141 1142 1142 1142 1143 1144 1144 1145 1145 1144 1144 1145 1145 1145 1145 1145 1145 1144 1144 1144 1144 1143 1142 1142 1141 1141 1139 1139 1138 1137 1135 1134 1132 1132 1129 1129 1128 1127 1127 1126 1124 1123 1123 1123 1123 1123 1123 1123 1123 1122 1122 1122 1122 1122 1122 1122 1122 1123 1123 1124 1124 1124 1125 1127 1129 1130 1130 1131 1132 1132 1133 1133 1133 1133 1133 1132 1132 1132 1132 1132 1132 1132 1132 1132 1132 1132 1132 1132 1131 1131 1130 1130 1129 1128 1126 1125 1122 1120 1119 1117 1113 1110 1109 1107 1106 1106 1106 1105 1105 1105 1105 1105 1105 1106 1106 1107 1107 1109 1109 1110 1110 1110 1111 1111 1112 1114 1115 1118 1118 1120 1121 1122 1123 1124 1124 1125 1125 1125 1125 1125 1125 1125 1125 1125 1124 1124 1124 1124 1124 1124 1123 1123 1123 1123 1123 1122 1121 1121 1121 1120 1119 1118 1117 1116 1114 1110 1107 1105 1103 1102 1101 1100 1099 1097 1095 1095 1094 1094 1093 1093 1093 1093 1093 1093 1094 1094 1094 1095 1096 1096 1096 1098 1099 1101 1103 1108 1111 1114 1116 1116 1117 1118 1119 1119 1119 1119 1119 1119 1119 1119 1119 1119 1119 1119 1119 1119 1120 1120 1120 1120 1120 1120 1119 1119 1119 1117 1116 1115 1113 1113 1109 1106 1103 1098 1089 1087 1086 1086 1085 1084 1082 1081 1080 1079 1079 1079 1079 1081 1081 1082 1083 1083 1083 1084 1084 1085 1086 1087 1088 1089 1090 1094 1097 1102 1108 1108 1110 1112 1115 1116 1117 1118 1119 1119 1120 1120 1120 1121 1121 1121 1121 1121 1121 1121 1121 1121 1121 1122 1122 1122 1122 1122 1123 1123 1123 1123 1123 1122 1122 1121 1121 1121 1120 1120 1119 1118 1117 1117 1117 1117 1117 1117 1117 1117 1116 1116 1116 1116 1116 1114 1114 1113 1111 1110 1108 1107 1106 1103 1102 1097 0 0 0 0 0 0 0 0 0 0 0 0 0 0 0 0 0 0 0 725 725 725 730 733 741 0 0 0 0 0 0 0
2078 2078 2095 2108 2130 2149 2167 2178 2198 2218 2238 2257 2272 2277 2296 2309 2318 2332 2349 2370 2388 2394 2414 2430 2445 2453 2467 2472 2492 2513 2532 2548 2566 2575 2588 2606 2624 2639 2648 2655 2661 2671 2674 2685 2706 2721 2732 2739 2742 2747 2756 2784 2802 2811 2812 2815 2825 2836 2844 2850 2854 2860 2875 2895 2908 2923 2938 2956 2974 2982 2985 2988 2990 2995 3001 3009 3023 3037 3046 3060 3070 3079 3087 3091 3093 3094 3098 3104 3107 3113 3115 3120 3125 3125 3126 3134 3142 3156 3166 3180 3186 3188 3194 3197 3208 3213 3217 3221 3226 3238 3256 3274 3281 3284 3285 3285 3290 3295 3299 3306 3310 3315 3315 3316 3316 3319 3324 3327 3331 3335 3338 3344 3348 3348 3349 3349 3350 3351 3353 3354 3354 3355 3355 3358 3361 3361 3361 3361 3361 3361 3361 3361 3361 3360 3360 3360 3362 3367 3367 3367 3360 3353 3347 3340 3334 3329 3329 3329 3328 3328 3325 3322 3317 3314 3312 3309 3307 3303 3299 3294 3289 3284 3280 3276 3268 3251 3234 3220 3208 3199 3199 3198 3195 3195 3185 3174 3159 3144 3122 3103 3086 3063 3042 3021 3002 2982 2951 2904 2856 2790 2713 2638 0 0 0 0 0 1161 1160 1160 1160 1160 1160 1160 1159 1158 1158 1158 1158 1158 1158 1158 1158 1158 1158 1158 1158 1157 1157 1157 1156 1155 1153 1153 1151 1150 1148 1148 1146 1142 1141 1140 1139 1139 1138 1137 1137 1136 1134 1133 1133 1132 1132 1131 1130 1129 1129 1129 1130 1130 1130 1131 1132 1133 1135 1136 1137 1140 1141 1143 1143 1143 1144 1146 1146 1146 1146 1146 1146 1146 1146 1146 1146 1146 1146 1146 1145 1145 1145 1144 1144 1143 1142 1142 1141 1140 1139 1139 1136 1135 1134 1132 1131 1130 1130 1129 1127 1126 1126 1125 1125 1125 1124 1124 1123 1123 1123 1123 1123 1123 1123 1123 1123 1123 1123 1123 1125 1125 1125 1125 1126 1128 1130 1130 1131 1132 1133 1133 1133 1134 1134 1134 1134 1134 1134 1134 1134 1134 1133 1133 1133 1133 1133 1133 1133 1133 1132 1132 1131 1130 1129 1129 1127 1125 1123 1121 1120 1117 1113 1111 1109 1108 1107 1106 1106 1106 1106 1106 1106 1106 1106 1107 1107 1108 1109 1110 1110 1110 1111 1111 1112 1112 1113 1114 1116 1118 1118 1120 1122 1123 1124 1125 1126 1127 1127 1127 1126 1126 1126 1126 1126 1126 1125 1125 1125 1125 1124 1124 1124 1124 1124 1124 1124 1124 1123 1122 1121 1120 1120 1119 1118 1117 1114 1110 1107 1105 1103 1102 1102 1100 1099 1097 1095 1095 1095 1094 1094 1094 1094 1094 1094 1094 1094 1094 1095 1096 1096 1096 1096 1098 1099 1101 1104 1108 1112 1114 1116 1117 1118 1119 1120 1120 1120 1120 1120 1120 1120 1120 1120 1120 1120 1120 1120 1120 1120 1120 1121 1121 1121 1121 1121 1120 1119 1118 1117 1116 1115 1113 1111 1108 1104 1098 1092 1087 1086 1086 1085 1084 1082 1081 1080 1080 1080 1080 1080 1081 1082 1082 1084 1084 1084 1085 1086 1086 1087 1087 1088 1090 1093 1096 1099 1105 1109 1109 1112 1116 1116 1117 1118 1120 1121 1121 1121 1122 1122 1122 1123 1123 1123 1123 1123 1123 1123 1123 1123 1123 1123 1123 1123 1123 1124 1124 1124 1124 1124 1123 1122 1122 1122 1121 1121 1121 1119 1119 1119 1118 1118 1118 1118 1118 1118 1118 1118 1117 1117 1117 1116 1115 1114 1113 1112 1110 1108 1107 1106 1103 1100 1093 0 0 0 0 0 0 0 0 0 0 0 0 0 0 0 0 0 0 0 0 703 703 703 0 0 0 0 0 0 0 0 0
2080 2080 2104 2124 2132 2150 2170 2182 2198 2218 2234 2254 2270 2276 2296 2309 2329 2349 2370 2386 2390 2405 2426 2443 2454 2461 2469 2477 2494 2525 2545 2559 2566 2577 2591 2607 2626 2643 2655 2662 2666 2671 2674 2685 2707 2721 2732 2739 2742 2747 2760 2784 2802 2809 2809 2811 2822 2835 2844 2852 2860 2869 2887 2905 2917 2927 2938 2955 2967 2974 2983 2985 2990 2995 3001 3009 3023 3034 3046 3060 3070 3079 3087 3092 3095 3098 3099 3104 3110 3114 3116 3120 3125 3125 3128 3134 3142 3158 3183 3192 3192 3192 3194 3197 3208 3213 3217 3221 3226 3238 3254 3272 3281 3281 3283 3284 3290 3295 3299 3306 3310 3313 3314 3314 3315 3317 3321 3325 3329 3333 3337 3342 3347 3348 3349 3349 3350 3350 3353 3354 3354 3354 3354 3354 3355 3357 3359 3361 3362 3362 3362 3362 3361 3360 3360 3360 3360 3361 3361 3361 3360 3353 3343 3337 3333 3329 3327 3327 3326 3325 3325 3322 3317 3314 3312 3309 3307 3303 3299 3296 3289 3284 3280 3276 3266 3251 3237 3227 3215 3199 3196 3195 3193 3193 3185 3175 3159 3144 3126 3109 3097 3080 3063 3041 3015 2997 2963 2922 2875 2819 2739 2677 0 0 0 0 0 1161 1161 1161 1161 1161 1161 1160 1160 1159 1159 1159 1159 1159 1159 1159 1159 1159 1159 1159 1159 1159 1159 1158 1157 1156 1155 1154 1153 1152 1150 1149 1146 1143 1142 1140 1139 1139 1138 1138 1138 1137 1135 1135 1134 1134 1134 1132 1131 1131 1131 1131 1131 1131 1131 1132 1132 1134 1135 1138 1140 1141 1143 1144 1144 1145 1146 1146 1147 1147 1147 1147 1147 1147 1147 1147 1147 1147 1147 1147 1147 1147 1146 1146 1145 1144 1144 1143 1142 1141 1140 1139 1137 1135 1134 1133 1132 1131 1130 1130 1129 1128 1127 1127 1127 1126 1126 1126 1125 1124 1124 1124 1124 1124 1124 1124 1123 1124 1124 1125 1125 1126 1126 1126 1126 1128 1131 1131 1131 1133 1134 1135 1135 1135 1135 1136 1136 1136 1135 1135 1135 1135 1135 1135 1134 1135 1134 1135 1134 1134 1134 1133 1133 1131 1131 1129 1128 1126 1124 1122 1120 1117 1114 1113 1111 1109 1108 1108 1108 1108 1108 1108 1108 1108 1108 1108 1108 1109 1110 1111 1111 1112 1112 1113 1113 1114 1114 1115 1117 1119 1121 1123 1124 1125 1126 1127 1127 1128 1128 1128 1128 1128 1128 1127 1127 1127 1127 1126 1126 1126 1126 1126 1126 1126 1126 1125 1125 1125 1124 1124 1123 1122 1121 1120 1119 1118 1114 1111 1107 1105 1104 1102 1102 1101 1099 1097 1097 1096 1096 1095 1095 1095 1094 1094 1094 1094 1094 1094 1095 1096 1096 1096 1096 1098 1100 1102 1105 1109 1112 1114 1116 1118 1120 1120 1121 1121 1122 1122 1122 1122 1122 1122 1122 1122 1122 1122 1122 1122 1122 1122 1122 1122 1122 1122 1121 1121 1120 1120 1118 1118 1116 1114 1112 1108 1105 1098 1092 1088 1087 1086 1085 1084 1083 1082 1081 1081 1081 1081 1081 1083 1084 1084 1084 1085 1085 1086 1087 1087 1088 1088 1089 1091 1093 1097 1101 1109 1113 1114 1115 1116 1117 1119 1120 1121 1121 1122 1122 1123 1123 1124 1124 1124 1124 1124 1124 1124 1124 1124 1124 1124 1124 1124 1124 1124 1125 1125 1125 1125 1125 1125 1124 1124 1124 1123 1122 1121 1121 1120 1120 1119 1119 1119 1119 1119 1119 1119 1118 1118 1117 1117 1117 1116 1115 1113 1112 1110 1108 1107 1106 1103 1100 1086 0 0 0 0 0 0 0 0 0 0 0 0 0 0 0 0 0 0 0 0 0 0 0 0 0 0 0 0 0 0 0 0
2080 2080 2111 2136 2148 2158 2170 2182 2198 2218 2233 2248 2268 2273 2290 2327 2346 2360 2370 2386 2394 2408 2427 2447 2461 2466 2472 2483 2501 2525 2545 2559 2566 2577 2591 2607 2627 2646 2658 2663 2668 2674 2675 2689 2711 2728 2739 2745 2747 2753 2762 2784 2802 2804 2808 2811 2821 2828 2840 2852 2862 2873 2892 2906 2922 2933 2944 2955 2965 2967 2976 2981 2987 2995 3001 3010 3023 3034 3046 3059 3067 3079 3087 3092 3095 3098 3099 3104 3110 3114 3117 3121 3126 3129 3131 3135 3142 3164 3185 3193 3195 3198 3200 3202 3208 3213 3217 3221 3226 3238 3253 3268 3278 3280 3281 3284 3290 3295 3299 3303 3308 3311 3312 3313 3315 3317 3321 3325 3329 3333 3336 3342 3347 3348 3349 3349 3350 3350 3353 3354 3354 3354 3352 3352 3352 3355 3358 3361 3363 3363 3363 3362 3361 3360 3360 3359 3359 3359 3358 3358 3356 3348 3341 3336 3333 3329 3327 3327 3326 3325 3325 3322 3320 3316 3312 3308 3305 3303 3299 3296 3289 3284 3280 3275 3264 3253 3242 3233 3222 3202 3189 3189 3188 3185 3185 3176 3168 3150 3132 3115 3103 3090 3077 3051 3023 3002 2973 2935 2885 2831 2766 2708 0 0 0 0 0 1161 1161 1161 1161 1161 1161 1161 1161 1161 1160 1160 1160 1160 1160 1160 1160 1160 1160 1160 1160 1160 1159 1159 1159 1157 1157 1156 1154 1153 1151 1150 1147 1144 1143 1141 1140 1140 1139 1139 1138 1138 1137 1136 1135 1135 1135 1134 1133 1133 1133 1133 1133 1133 1133 1133 1134 1135 1137 1138 1141 1143 1144 1145 1146 1146 1147 1148 1148 1148 1149 1149 1149 1149 1149 1149 1149 1149 1149 1149 1148 1148 1148 1147 1146 1146 1146 1145 1144 1143 1141 1141 1139 1137 1135 1134 1133 1133 1131 1131 1130 1129 1129 1128 1128 1127 1127 1127 1127 1126 1126 1125 1125 1125 1125 1125 1125 1125 1125 1126 1126 1127 1127 1127 1129 1130 1131 1132 1133 1135 1135 1135 1136 1136 1136 1136 1136 1136 1136 1136 1136 1136 1136 1136 1136 1135 1135 1135 1135 1135 1135 1134 1133 1133 1131 1131 1129 1127 1125 1123 1123 1119 1116 1113 1112 1111 1111 1110 1110 1110 1110 1110 1110 1110 1110 1110 1111 1111 1112 1112 1113 1113 1114 1115 1115 1115 1115 1116 1118 1120 1121 1123 1125 1126 1127 1128 1129 1129 1129 1129 1129 1129 1129 1128 1128 1128 1128 1128 1128 1128 1128 1127 1127 1127 1127 1126 1126 1126 1126 1125 1124 1124 1122 1121 1120 1118 1115 1112 1108 1107 1106 1104 1103 1102 1100 1098 1097 1096 1096 1096 1096 1096 1095 1095 1094 1094 1094 1095 1095 1096 1096 1096 1097 1099 1101 1103 1106 1109 1112 1117 1119 1119 1120 1122 1122 1122 1123 1123 1123 1123 1123 1123 1123 1123 1123 1122 1122 1122 1122 1123 1123 1123 1123 1122 1122 1121 1121 1120 1120 1119 1117 1115 1112 1108 1105 1099 1092 1088 1087 1086 1085 1084 1083 1082 1082 1082 1082 1082 1082 1084 1085 1085 1086 1086 1086 1087 1088 1090 1091 1092 1092 1093 1095 1097 1102 1110 1113 1114 1115 1117 1119 1121 1122 1123 1123 1124 1124 1125 1125 1125 1125 1125 1125 1125 1125 1125 1125 1125 1125 1125 1125 1125 1125 1125 1126 1126 1126 1126 1126 1126 1126 1125 1125 1124 1123 1122 1122 1122 1121 1121 1120 1120 1119 1119 1119 1119 1119 1119 1118 1118 1118 1116 1115 1114 1112 1110 1108 1108 1107 1104 1098 1079 0 0 0 0 0 0 0 0 0 0 0 0 0 0 0 0 0 0 0 0 0 0 0 0 0 0 0 0 0 0 0 0
2080 2080 2111 2136 2151 2158 2167 2182 2198 2218 2233 2245 2250 2269 2290 2327 2346 2360 2370 2386 2394 2408 2427 2447 2462 2472 2477 2490 2503 2525 2545 2559 2566 2575 2588 2614 2633 2646 2658 2663 2668 2674 2682 2697 2713 2730 2745 2749 2750 2753 2764 2781 2791 2792 2797 2806 2821 2826 2840 2852 2862 2873 2892 2906 2923 2936 2948 2955 2965 2967 2971 2977 2985 2996 3006 3015 3029 3034 3046 3056 3065 3071 3084 3092 3095 3098 3099 3104 3110 3114 3121 3124 3130 3138 3141 3143 3155 3173 3186 3194 3199 3203 3207 3212 3216 3223 3226 3227 3231 3241 3252 3264 3272 3279 3280 3287 3293 3296 3297 3300 3304 3307 3311 3313 3315 3317 3321 3325 3329 3332 3336 3342 3347 3347 3347 3347 3347 3350 3352 3352 3352 3352 3349 3349 3349 3353 3357 3361 3363 3363 3363 3363 3360 3360 3359 3357 3357 3356 3354 3353 3348 3344 3339 3336 3333 3330 3327 3327 3326 3325 3324 3323 3322 3316 3312 3308 3305 3303 3299 3296 3289 3284 3280 3273 3263 3253 3247 3235 3222 3205 3191 3186 3185 3181 3180 3177 3170 3155 3136 3116 3103 3090 3077 3053 3031 3008 2977 2948 2894 2834 2778 2726 0 0 0 0 0 1166 1163 1162 1161 1161 1162 1162 1162 1162 1162 1162 1162 1162 1161 1161 1161 1161 1161 1161 1161 1161 1160 1160 1160 1159 1158 1157 1156 1154 1151 1150 1147 1146 1145 1144 1142 1140 1140 1139 1139 1138 1138 1137 1136 1136 1136 1136 1135 1135 1134 1134 1134 1135 1136 1136 1136 1137 1138 1139 1142 1144 1145 1146 1147 1148 1148 1149 1150 1150 1150 1150 1150 1150 1150 1150 1150 1150 1150 1149 1149 1149 1149 1148 1148 1147 1146 1146 1145 1143 1142 1142 1140 1138 1136 1135 1135 1133 1133 1132 1131 1131 1130 1129 1129 1128 1128 1128 1128 1127 1126 1126 1126 1126 1126 1126 1126 1126 1127 1128 1128 1128 1128 1128 1131 1131 1133 1133 1134 1135 1136 1137 1137 1138 1138 1138 1138 1138 1137 1137 1137 1137 1137 1137 1137 1137 1137 1137 1136 1136 1136 1135 1134 1134 1132 1131 1129 1127 1126 1124 1123 1120 1117 1115 1114 1114 1113 1113 1112 1112 1112 1112 1112 1112 1112 1113 1113 1113 1113 1113 1114 1114 1115 1115 1116 1117 1118 1118 1120 1121 1122 1124 1126 1127 1129 1129 1130 1131 1131 1131 1131 1131 1130 1130 1129 1129 1129 1129 1129 1129 1129 1128 1128 1128 1128 1128 1127 1127 1127 1127 1126 1125 1124 1122 1121 1119 1117 1114 1110 1108 1107 1105 1104 1103 1101 1100 1099 1098 1098 1098 1097 1097 1096 1096 1095 1095 1095 1095 1096 1096 1096 1097 1098 1100 1102 1104 1108 1110 1114 1119 1121 1121 1121 1122 1123 1123 1124 1124 1124 1124 1124 1124 1124 1124 1124 1124 1124 1124 1124 1124 1124 1123 1123 1123 1123 1122 1122 1121 1120 1120 1118 1116 1112 1108 1105 1099 1094 1089 1087 1086 1085 1085 1083 1082 1082 1082 1083 1084 1085 1085 1086 1087 1087 1088 1088 1089 1090 1091 1093 1093 1093 1094 1095 1097 1103 1112 1114 1114 1115 1119 1121 1122 1123 1124 1124 1125 1126 1126 1126 1126 1126 1126 1126 1126 1126 1126 1126 1126 1126 1126 1126 1126 1127 1127 1127 1127 1127 1127 1127 1126 1126 1126 1125 1125 1125 1124 1124 1122 1122 1122 1122 1122 1121 1120 1120 1120 1119 1119 1119 1119 1119 1117 1116 1114 1112 1111 1111 1110 1109 1106 1094 0 0 0 0 0 0 0 0 0 0 0 0 1209 1209 1209 1196 0 0 0 0 0 0 0 0 0 0 0 0 0 0 0 0 0
2080 2080 2111 2136 2151 2158 2167 2172 2188 2209 2220 2227 2233 2241 2267 2327 2346 2360 2370 2386 2394 2408 2427 2449 2464 2473 2482 2491 2507 2525 2537 2545 2562 2575 2588 2614 2633 2647 2658 2663 2668 2674 2682 2697 2713 2730 2745 2749 2751 2753 2766 2775 2783 2789 2796 2804 2811 2815 2834 2852 2862 2873 2892 2906 2923 2938 2954 2960 2962 2964 2965 2974 2982 2996 3008 3018 3029 3035 3046 3055 3059 3068 3084 3091 3095 3096 3098 3103 3108 3114 3121 3130 3136 3140 3146 3154 3160 3173 3186 3194 3199 3203 3207 3215 3222 3226 3233 3239 3242 3248 3252 3256 3261 3276 3280 3287 3293 3296 3297 3299 3303 3306 3309 3312 3315 3318 3321 3325 3329 3332 3336 3341 3344 3344 3344 3346 3346 3348 3352 3352 3352 3352 3346 3346 3346 3350 3356 3360 3363 3363 3363 3363 3360 3354 3353 3353 3351 3351 3351 3348 3344 3340 3337 3335 3333 3330 3328 3327 3327 3326 3325 3324 3322 3316 3312 3307 3305 3304 3302 3296 3289 3284 3278 3272 3263 3253 3249 3245 3227 3208 3191 3181 3181 3180 3180 3177 3170 3155 3136 3117 3105 3090 3077 3054 3034 3011 2983 2950 2899 2846 2785 2735 2614 0 0 0 0 1170 1165 1163 1163 1163 1163 1164 1164 1163 1163 1163 1163 1163 1163 1163 1163 1163 1163 1163 1163 1163 1162 1161 1161 1160 1159 1158 1157 1155 1153 1151 1148 1148 1147 1145 1143 1142 1141 1140 1140 1139 1139 1137 1137 1137 1137 1137 1137 1137 1137 1137 1137 1137 1138 1139 1139 1140 1141 1142 1143 1145 1146 1147 1148 1150 1150 1150 1151 1152 1152 1152 1152 1152 1152 1152 1152 1151 1151 1151 1151 1150 1150 1150 1149 1149 1148 1147 1146 1145 1144 1143 1142 1139 1138 1137 1137 1134 1134 1134 1133 1132 1131 1131 1130 1130 1129 1129 1128 1128 1127 1127 1127 1126 1126 1126 1127 1127 1128 1128 1128 1129 1129 1130 1132 1133 1133 1135 1136 1137 1137 1138 1138 1139 1139 1139 1139 1139 1139 1139 1139 1139 1139 1139 1138 1138 1138 1138 1138 1138 1138 1136 1136 1135 1134 1132 1130 1128 1126 1125 1123 1121 1120 1118 1117 1116 1115 1114 1114 1114 1114 1114 1114 1114 1114 1114 1115 1115 1115 1115 1115 1115 1116 1117 1117 1118 1119 1120 1121 1122 1124 1126 1127 1128 1129 1130 1131 1131 1132 1132 1132 1132 1132 1131 1131 1131 1131 1130 1130 1129 1129 1129 1129 1129 1129 1129 1129 1129 1128 1128 1127 1127 1125 1123 1121 1119 1118 1115 1112 1109 1108 1107 1105 1103 1102 1101 1101 1100 1099 1099 1098 1098 1097 1097 1096 1096 1096 1096 1096 1097 1098 1099 1100 1101 1103 1106 1109 1111 1117 1121 1122 1123 1123 1124 1124 1125 1125 1125 1125 1125 1126 1126 1126 1125 1125 1125 1125 1125 1125 1125 1125 1125 1125 1125 1123 1123 1123 1122 1120 1120 1119 1117 1114 1109 1104 1099 1094 1091 1089 1086 1086 1085 1084 1084 1084 1084 1085 1086 1087 1088 1089 1089 1089 1089 1089 1090 1091 1093 1094 1094 1095 1095 1095 1097 1103 1113 1118 1118 1118 1120 1122 1123 1124 1125 1126 1127 1127 1127 1127 1127 1127 1127 1127 1127 1127 1127 1127 1128 1128 1128 1128 1128 1128 1128 1128 1128 1128 1128 1128 1128 1127 1127 1126 1125 1125 1124 1124 1124 1124 1123 1123 1123 1122 1122 1121 1121 1121 1121 1120 1119 1119 1118 1117 1115 1114 1112 1111 1111 1111 1107 1092 0 0 0 0 0 0 0 0 0 0 0 1197 1219 1219 1219 1211 1191 0 0 0 0 0 0 0 0 0 0 0 0 0 0 0 0
2080 2080 2111 2136 2151 2156 2158 2172 2188 2206 2208 2209 2214 2240 2267 2300 2331 2346 2361 2375 2386 2401 2427 2451 2466 2477 2483 2492 2507 2523 2534 2544 2553 2566 2584 2614 2633 2647 2657 2662 2667 2674 2682 2697 2713 2730 2745 2749 2751 2755 2766 2774 2781 2788 2796 2804 2809 2815 2827 2840 2851 2867 2880 2901 2923 2942 2956 2960 2960 2961 2961 2967 2979 2997 3008 3018 3029 3035 3046 3055 3055 3068 3078 3084 3086 3086 3092 3102 3108 3115 3121 3130 3136 3140 3146 3154 3164 3173 3186 3194 3199 3203 3207 3215 3222 3226 3233 3239 3242 3248 3252 3256 3259 3267 3280 3287 3293 3296 3296 3297 3300 3304 3307 3312 3315 3318 3321 3325 3329 3330 3335 3338 3341 3342 3342 3343 3345 3347 3349 3349 3349 3345 3344 3344 3344 3349 3354 3358 3361 3363 3363 3363 3359 3349 3349 3349 3348 3348 3348 3344 3340 3338 3337 3335 3334 3332 3329 3328 3327 3327 3325 3324 3322 3318 3313 3307 3305 3305 3302 3296 3290 3283 3277 3272 3262 3253 3249 3246 3236 3211 3191 3181 3180 3180 3177 3176 3170 3155 3136 3117 3105 3090 3074 3058 3045 3024 2997 2963 2912 2864 2797 2737 2630 0 0 0 0 1179 1168 1167 1165 1165 1165 1165 1165 1165 1165 1164 1164 1164 1164 1164 1164 1164 1164 1164 1164 1164 1163 1162 1162 1161 1161 1159 1159 1157 1155 1154 1153 1151 1148 1146 1145 1143 1143 1143 1142 1141 1141 1140 1139 1139 1139 1139 1139 1139 1139 1139 1139 1140 1140 1142 1142 1142 1142 1143 1147 1147 1148 1149 1150 1151 1152 1152 1152 1152 1153 1153 1153 1152 1153 1153 1152 1152 1152 1152 1152 1152 1152 1151 1150 1149 1148 1148 1147 1147 1145 1144 1143 1141 1139 1139 1138 1137 1136 1135 1135 1134 1134 1132 1132 1130 1129 1129 1129 1129 1129 1128 1128 1128 1128 1128 1129 1129 1130 1130 1130 1131 1131 1133 1134 1134 1135 1137 1137 1138 1138 1140 1140 1140 1140 1140 1140 1140 1140 1140 1140 1140 1139 1139 1139 1139 1139 1139 1139 1139 1139 1138 1137 1136 1134 1133 1132 1129 1127 1125 1123 1122 1121 1120 1119 1118 1117 1117 1117 1117 1117 1117 1116 1116 1116 1117 1117 1117 1117 1117 1117 1117 1117 1118 1118 1119 1120 1121 1122 1122 1125 1127 1128 1129 1131 1132 1132 1132 1133 1133 1133 1133 1133 1133 1132 1132 1132 1132 1132 1131 1131 1131 1131 1130 1130 1130 1130 1129 1129 1129 1128 1127 1127 1125 1123 1120 1119 1116 1112 1110 1109 1108 1106 1104 1103 1103 1102 1101 1101 1101 1099 1099 1098 1098 1097 1097 1097 1097 1098 1098 1099 1100 1101 1102 1103 1107 1112 1116 1118 1122 1123 1124 1125 1125 1126 1126 1126 1126 1126 1127 1127 1127 1126 1126 1126 1126 1126 1126 1126 1126 1126 1125 1125 1125 1125 1124 1123 1122 1121 1121 1119 1118 1114 1109 1104 1100 1096 1093 1091 1089 1087 1086 1086 1086 1086 1086 1087 1087 1087 1088 1089 1090 1090 1091 1091 1092 1093 1093 1094 1095 1096 1096 1096 1097 1105 1113 1118 1120 1121 1122 1123 1124 1125 1126 1127 1128 1128 1128 1128 1129 1129 1129 1128 1128 1128 1128 1128 1128 1128 1129 1129 1129 1129 1129 1129 1129 1129 1129 1129 1129 1128 1128 1127 1127 1126 1125 1125 1124 1124 1124 1124 1124 1124 1123 1122 1122 1122 1122 1121 1121 1120 1119 1118 1117 1116 1115 1111 1111 1111 1107 0 0 0 0 0 0 0 0 0 0 0 0 1222 1232 1232 1232 1215 1191 0 0 0 0 0 0 0 0 0 0 0 0 0 0 0 0
2041 2041 2088 2118 2127 2139 2149 2169 2188 2206 2208 2209 2214 2223 2250 2292 2323 2346 2355 2363 2381 2401 2427 2459 2472 2478 2484 2493 2503 2523 2531 2544 2553 2566 2583 2604 2633 2647 2655 2660 2664 2674 2683 2694 2705 2721 2738 2749 2751 2755 2766 2774 2781 2788 2796 2804 2809 2815 2827 2840 2851 2867 2880 2901 2923 2942 2956 2956 2957 2960 2960 2966 2979 2997 3008 3018 3024 3035 3044 3053 3054 3062 3070 3074 3079 3084 3092 3101 3108 3115 3120 3130 3136 3140 3146 3154 3164 3173 3185 3188 3193 3197 3203 3215 3222 3226 3233 3239 3242 3248 3251 3256 3258 3264 3273 3283 3287 3290 3291 3296 3297 3300 3303 3307 3312 3318 3321 3325 3327 3328 3331 3334 3337 3339 3340 3342 3344 3345 3345 3345 3343 3341 3341 3341 3343 3346 3352 3356 3360 3360 3360 3358 3355 3349 3347 3347 3347 3347 3346 3343 3340 3338 3337 3335 3334 3332 3330 3328 3328 3327 3325 3324 3322 3316 3312 3308 3305 3305 3302 3296 3290 3283 3277 3269 3261 3253 3249 3246 3239 3220 3201 3189 3180 3176 3172 3167 3161 3149 3135 3117 3104 3090 3074 3061 3054 3035 3008 2967 2925 2883 2812 2738 2666 0 0 0 0 0 1169 1167 1167 1167 1167 1166 1166 1166 1166 1166 1166 1166 1166 1166 1166 1166 1165 1165 1165 1164 1164 1164 1163 1162 1162 1161 1160 1159 1157 1156 1154 1152 1150 1148 1147 1145 1144 1144 1144 1143 1142 1141 1141 1141 1140 1141 1141 1141 1141 1141 1141 1142 1143 1143 1143 1143 1143 1146 1149 1151 1152 1152 1152 1152 1153 1153 1154 1154 1154 1154 1154 1154 1154 1154 1154 1154 1153 1153 1153 1152 1152 1152 1152 1151 1150 1150 1148 1148 1147 1146 1144 1142 1141 1141 1141 1139 1138 1137 1136 1136 1134 1133 1133 1132 1131 1130 1130 1130 1130 1130 1130 1130 1130 1130 1130 1131 1132 1132 1132 1133 1133 1135 1135 1136 1137 1138 1139 1140 1140 1141 1141 1142 1142 1142 1142 1142 1142 1142 1141 1141 1141 1141 1141 1141 1141 1140 1140 1140 1140 1139 1138 1137 1136 1134 1133 1131 1129 1127 1124 1123 1122 1122 1121 1121 1120 1120 1120 1120 1120 1119 1119 1119 1119 1118 1119 1119 1119 1119 1119 1119 1119 1119 1119 1120 1121 1122 1122 1124 1126 1128 1129 1130 1131 1133 1133 1134 1134 1134 1134 1134 1134 1134 1134 1133 1132 1132 1132 1132 1132 1132 1132 1131 1131 1131 1131 1130 1130 1130 1129 1128 1127 1127 1126 1123 1120 1117 1114 1111 1110 1109 1108 1106 1105 1104 1103 1102 1102 1101 1100 1100 1099 1098 1097 1097 1097 1098 1099 1099 1102 1104 1105 1105 1106 1109 1114 1117 1119 1122 1124 1124 1125 1126 1126 1127 1127 1127 1127 1127 1127 1127 1127 1127 1127 1127 1127 1127 1127 1127 1126 1126 1126 1126 1125 1125 1124 1123 1122 1122 1119 1118 1114 1110 1104 1100 1097 1095 1092 1090 1089 1088 1088 1088 1088 1089 1089 1089 1089 1090 1090 1092 1092 1092 1093 1093 1093 1094 1095 1096 1097 1098 1098 1099 1107 1114 1118 1121 1122 1124 1125 1126 1127 1128 1129 1129 1129 1130 1130 1130 1130 1130 1130 1130 1130 1130 1130 1130 1129 1130 1130 1130 1130 1130 1130 1130 1130 1130 1129 1129 1128 1128 1128 1128 1127 1127 1126 1126 1125 1125 1125 1125 1125 1124 1124 1123 1123 1123 1122 1121 1121 1120 1119 1119 1118 1115 1113 1112 1111 1106 0 0 0 0 0 0 0 0 0 0 0 0 1259 1259 1259 1233 1223 1204 0 0 0 0 0 0 0 0 0 0 0 0 0 0 0 0
2014 2014 2051 2080 2101 2113 2136 2167 2200 2206 2208 2209 2214 2223 2250 2292 2323 2346 2355 2363 2381 2401 2428 2470 2476 2482 2491 2494 2507 2523 2531 2544 2553 2566 2583 2604 2628 2646 2654 2659 2664 2674 2683 2693 2703 2717 2730 2741 2750 2755 2766 2772 2781 2788 2797 2804 2809 2816 2827 2840 2851 2867 2880 2901 2923 2942 2953 2953 2956 2956 2956 2965 2978 2996 3008 3015 3020 3026 3044 3048 3052 3060 3067 3071 3076 3083 3091 3099 3108 3114 3119 3127 3136 3140 3146 3152 3164 3169 3172 3178 3185 3189 3198 3211 3218 3224 3229 3234 3239 3244 3248 3255 3257 3259 3266 3270 3276 3280 3283 3288 3289 3293 3296 3301 3307 3313 3320 3324 3325 3327 3327 3330 3333 3334 3337 3341 3342 3342 3342 3341 3338 3337 3337 3337 3342 3345 3350 3356 3360 3360 3360 3358 3355 3349 3347 3347 3346 3346 3345 3343 3339 3338 3337 3335 3334 3334 3332 3332 3329 3327 3324 3323 3322 3316 3311 3307 3305 3305 3302 3296 3290 3280 3271 3264 3259 3253 3249 3246 3239 3230 3216 3198 3185 3174 3167 3157 3151 3144 3132 3117 3105 3090 3074 3065 3054 3035 3008 2971 2932 2883 2821 2755 2699 0 0 0 0 0 1171 1170 1168 1168 1168 1167 1167 1167 1167 1167 1166 1166 1166 1166 1166 1166 1166 1166 1166 1166 1166 1165 1165 1164 1163 1163 1161 1160 1159 1157 1156 1154 1152 1150 1149 1147 1146 1146 1146 1145 1145 1144 1143 1143 1143 1143 1144 1144 1144 1144 1145 1145 1145 1145 1146 1146 1146 1149 1150 1152 1153 1153 1153 1154 1155 1155 1155 1155 1155 1155 1155 1155 1155 1155 1155 1154 1154 1154 1154 1154 1153 1153 1153 1153 1151 1151 1150 1149 1148 1147 1146 1144 1143 1142 1142 1141 1139 1139 1138 1136 1136 1136 1134 1132 1132 1131 1131 1131 1130 1130 1130 1131 1131 1131 1132 1132 1133 1134 1134 1134 1134 1136 1137 1137 1138 1139 1140 1141 1141 1142 1143 1143 1143 1143 1143 1143 1142 1142 1142 1142 1142 1142 1142 1142 1142 1142 1141 1141 1141 1140 1139 1138 1137 1136 1135 1133 1132 1129 1127 1125 1124 1124 1124 1123 1122 1122 1122 1122 1122 1122 1121 1121 1121 1121 1121 1121 1121 1121 1122 1122 1122 1122 1122 1122 1123 1123 1124 1125 1128 1129 1130 1132 1133 1134 1135 1135 1136 1136 1136 1136 1135 1135 1135 1134 1134 1134 1133 1133 1133 1133 1133 1133 1132 1132 1132 1132 1131 1131 1130 1129 1128 1127 1126 1125 1122 1119 1116 1115 1113 1111 1109 1108 1106 1106 1105 1103 1103 1102 1101 1100 1100 1099 1099 1099 1099 1099 1100 1101 1104 1106 1107 1108 1109 1113 1117 1118 1120 1122 1125 1126 1126 1128 1128 1128 1128 1128 1129 1129 1129 1129 1129 1128 1128 1128 1128 1128 1128 1128 1127 1127 1127 1126 1126 1126 1125 1124 1123 1122 1120 1118 1116 1110 1104 1101 1098 1096 1094 1092 1092 1090 1090 1090 1090 1090 1090 1090 1090 1091 1091 1093 1093 1093 1094 1094 1094 1094 1096 1097 1100 1102 1102 1104 1109 1118 1121 1123 1124 1126 1127 1128 1128 1130 1130 1130 1130 1131 1132 1132 1132 1132 1132 1131 1131 1131 1131 1131 1131 1131 1131 1131 1131 1131 1131 1131 1131 1131 1130 1130 1130 1129 1129 1128 1128 1128 1127 1127 1126 1126 1126 1126 1126 1126 1125 1125 1124 1124 1124 1123 1122 1120 1120 1120 1118 1115 1113 1113 1111 1102 0 0 0 0 0 0 0 0 0 0 0 0 1275 1275 1275 1245 1223 0 0 0 0 0 0 0 0 0 0 0 0 0 0 0 0 0
1962 1962 1987 2021 2063 2088 2118 2164 2200 2210 2213 2217 2217 2223 2250 2292 2323 2346 2355 2363 2381 2406 2431 2470 2476 2482 2491 2499 2507 2523 2534 2545 2555 2568 2583 2604 2626 2642 2653 2658 2663 2675 2683 2692 2701 2710 2720 2728 2738 2751 2766 2772 2780 2792 2801 2806 2813 2817 2828 2843 2859 2876 2888 2901 2921 2940 2950 2951 2952 2954 2954 2964 2978 2994 3007 3012 3017 3025 3033 3039 3045 3056 3067 3071 3075 3083 3090 3100 3108 3114 3118 3127 3136 3140 3146 3152 3162 3169 3172 3177 3182 3185 3193 3204 3212 3220 3229 3234 3239 3244 3248 3255 3256 3257 3261 3263 3267 3271 3276 3283 3286 3288 3294 3297 3304 3310 3316 3320 3322 3323 3325 3327 3328 3328 3330 3331 3332 3332 3331 3331 3331 3331 3332 3337 3341 3345 3350 3356 3359 3359 3359 3356 3355 3350 3350 3348 3346 3346 3345 3342 3339 3338 3338 3337 3336 3334 3334 3332 3329 3327 3323 3320 3318 3315 3311 3305 3305 3305 3300 3295 3289 3280 3271 3264 3258 3252 3249 3246 3239 3230 3216 3198 3186 3175 3166 3156 3151 3144 3132 3117 3105 3091 3078 3067 3054 3035 3008 2971 2938 2884 2824 2755 2699 0 0 0 0 0 1175 1173 1171 1170 1170 1170 1169 1168 1168 1168 1168 1167 1167 1167 1167 1167 1167 1167 1167 1167 1167 1167 1166 1165 1165 1163 1162 1162 1161 1159 1157 1156 1155 1154 1152 1150 1148 1148 1148 1148 1147 1146 1145 1144 1144 1144 1146 1146 1147 1147 1147 1147 1147 1147 1147 1147 1150 1151 1151 1152 1155 1155 1155 1155 1156 1156 1156 1156 1156 1156 1156 1156 1156 1156 1156 1156 1155 1155 1155 1155 1155 1154 1154 1153 1153 1152 1151 1151 1150 1149 1147 1146 1144 1144 1144 1143 1142 1140 1140 1138 1138 1137 1136 1134 1134 1133 1132 1132 1132 1131 1131 1131 1132 1133 1134 1135 1135 1135 1135 1135 1137 1138 1138 1139 1139 1141 1141 1142 1142 1143 1144 1144 1144 1144 1144 1144 1144 1144 1143 1143 1143 1143 1143 1143 1143 1142 1142 1142 1141 1141 1140 1139 1138 1137 1136 1134 1132 1131 1130 1127 1126 1126 1125 1125 1125 1124 1124 1124 1124 1123 1123 1123 1122 1122 1122 1122 1122 1123 1124 1124 1124 1124 1124 1124 1124 1125 1125 1126 1130 1131 1131 1133 1134 1135 1136 1136 1137 1137 1137 1137 1137 1136 1136 1136 1135 1135 1135 1135 1134 1134 1134 1134 1134 1134 1133 1133 1133 1132 1132 1130 1128 1128 1127 1125 1122 1120 1119 1118 1116 1113 1111 1111 1109 1107 1107 1106 1105 1104 1102 1101 1101 1100 1100 1100 1100 1100 1101 1103 1106 1107 1109 1111 1114 1117 1119 1121 1123 1124 1125 1127 1128 1128 1129 1129 1129 1129 1130 1130 1130 1129 1129 1129 1129 1129 1129 1129 1129 1128 1128 1128 1128 1128 1128 1126 1126 1124 1124 1123 1122 1119 1116 1110 1104 1102 1100 1098 1096 1095 1093 1092 1091 1091 1091 1092 1093 1093 1094 1094 1095 1095 1095 1095 1095 1095 1095 1096 1097 1098 1101 1103 1105 1109 1112 1118 1123 1124 1126 1127 1128 1129 1130 1131 1132 1132 1132 1132 1133 1133 1133 1133 1133 1133 1133 1133 1132 1132 1132 1132 1132 1132 1132 1132 1132 1132 1132 1132 1132 1131 1131 1130 1130 1130 1129 1129 1128 1128 1128 1128 1127 1127 1127 1127 1126 1126 1125 1125 1124 1124 1123 1123 1121 1120 1118 1115 1113 1113 1111 1094 0 0 0 0 0 0 0 0 0 0 0 0 1282 1282 1282 1279 1254 0 0 0 0 0 0 0 0 0 0 0 0 0 0 0 0 0
1962 1962 1967 1987 2011 2063 2095 2163 2200 2210 2213 2217 2221 2246 2273 2305 2332 2351 2365 2371 2387 2406 2431 2470 2476 2482 2491 2499 2517 2523 2537 2548 2572 2586 2593 2607 2623 2637 2646 2652 2663 2675 2683 2691 2698 2704 2713 2724 2734 2746 2757 2769 2780 2792 2801 2806 2813 2821 2830 2846 2864 2878 2889 2901 2917 2932 2948 2950 2951 2952 2954 2964 2975 2990 3000 3012 3016 3021 3025 3031 3041 3054 3065 3071 3075 3083 3092 3101 3110 3115 3118 3127 3136 3143 3146 3152 3162 3168 3172 3177 3182 3184 3192 3201 3210 3219 3227 3234 3239 3242 3247 3253 3255 3255 3256 3259 3262 3266 3270 3274 3280 3287 3292 3296 3301 3306 3311 3314 3317 3320 3322 3323 3323 3323 3322 3322 3322 3323 3323 3323 3323 3326 3329 3334 3341 3343 3348 3356 3359 3359 3359 3356 3355 3350 3350 3348 3346 3345 3341 3339 3338 3338 3337 3337 3336 3334 3334 3332 3329 3327 3323 3320 3317 3313 3309 3303 3299 3295 3293 3291 3289 3280 3271 3264 3258 3252 3249 3246 3239 3230 3216 3199 3187 3175 3166 3156 3151 3144 3132 3117 3106 3097 3081 3067 3054 3034 3003 2973 2939 2885 2826 2755 2699 0 0 0 0 0 1177 1174 1173 1171 1171 1171 1170 1170 1169 1169 1169 1169 1169 1169 1169 1168 1168 1168 1168 1168 1168 1168 1167 1167 1166 1165 1165 1163 1162 1162 1160 1159 1158 1157 1155 1152 1150 1150 1150 1150 1149 1149 1148 1147 1147 1147 1147 1148 1148 1149 1149 1149 1149 1149 1150 1151 1151 1153 1153 1155 1156 1157 1157 1157 1157 1157 1157 1158 1158 1158 1158 1158 1157 1157 1157 1157 1157 1156 1156 1156 1156 1155 1155 1154 1154 1153 1152 1151 1151 1150 1149 1147 1146 1145 1145 1144 1143 1143 1141 1141 1140 1139 1137 1136 1136 1135 1135 1134 1133 1133 1133 1133 1134 1135 1136 1136 1136 1137 1137 1137 1138 1140 1140 1140 1141 1142 1143 1144 1144 1144 1145 1145 1145 1145 1145 1145 1145 1145 1145 1144 1144 1144 1144 1143 1143 1143 1143 1143 1143 1142 1141 1140 1140 1138 1137 1136 1134 1132 1131 1129 1128 1127 1127 1127 1127 1126 1126 1125 1125 1125 1125 1125 1124 1124 1124 1124 1124 1124 1125 1125 1125 1125 1125 1125 1125 1126 1126 1129 1131 1131 1133 1134 1136 1137 1137 1138 1138 1138 1138 1138 1137 1137 1137 1137 1137 1136 1136 1136 1135 1135 1135 1135 1135 1135 1135 1134 1134 1133 1133 1132 1131 1129 1128 1126 1122 1121 1120 1119 1118 1115 1113 1112 1111 1110 1109 1108 1106 1106 1104 1104 1103 1103 1102 1102 1102 1102 1104 1105 1106 1107 1109 1113 1116 1120 1122 1123 1125 1126 1127 1128 1129 1130 1130 1130 1130 1130 1130 1130 1130 1130 1130 1130 1130 1130 1130 1130 1129 1129 1129 1129 1129 1128 1128 1128 1127 1126 1125 1125 1122 1120 1116 1112 1108 1106 1102 1101 1098 1096 1094 1093 1092 1092 1092 1094 1095 1096 1096 1097 1098 1098 1098 1098 1098 1099 1099 1099 1100 1100 1102 1104 1106 1113 1116 1120 1123 1125 1129 1129 1130 1130 1131 1132 1133 1133 1133 1133 1133 1134 1134 1134 1134 1134 1134 1133 1133 1133 1133 1133 1133 1133 1133 1133 1133 1133 1133 1133 1133 1132 1132 1131 1131 1131 1131 1130 1130 1129 1129 1129 1129 1129 1128 1128 1127 1127 1127 1126 1126 1124 1124 1123 1122 1120 1118 1115 1114 1114 1111 1093 0 0 0 0 0 0 0 0 0 0 0 0 1285 1302 1306 1306 1306 0 0 0 0 0 0 0 0 0 0 0 0 0 0 0 0 0
1962 1962 1967 1987 2011 2063 2095 2142 2187 2210 2213 2217 2221 2246 2274 2315 2340 2361 2371 2379 2387 2406 2431 2456 2461 2470 2482 2499 2517 2523 2537 2555 2572 2586 2596 2609 2622 2631 2638 2644 2655 2675 2683 2688 2691 2698 2707 2719 2734 2746 2757 2765 2780 2792 2801 2806 2813 2823 2833 2847 2864 2879 2890 2901 2910 2925 2938 2943 2947 2950 2953 2958 2969 2981 2999 3004 3011 3012 3014 3019 3038 3053 3064 3072 3076 3084 3093 3101 3110 3115 3119 3127 3136 3143 3149 3154 3160 3167 3170 3174 3179 3184 3190 3199 3208 3218 3226 3232 3239 3241 3246 3247 3248 3248 3252 3257 3261 3266 3270 3273 3275 3284 3290 3295 3298 3302 3306 3310 3312 3316 3321 3321 3322 3322 3322 3322 3322 3321 3321 3321 3321 3321 3324 3330 3335 3336 3342 3353 3359 3359 3359 3356 3355 3350 3350 3348 3346 3341 3338 3338 3338 3337 3337 3337 3336 3334 3334 3332 3329 3326 3322 3319 3316 3311 3304 3295 3290 3290 3289 3289 3289 3283 3274 3268 3258 3250 3245 3238 3232 3221 3209 3199 3188 3175 3166 3156 3155 3145 3131 3117 3106 3097 3081 3067 3050 3030 3003 2973 2939 2894 2827 2763 2702 0 0 0 0 0 1178 1174 1173 1172 1172 1172 1171 1170 1170 1169 1169 1169 1169 1169 1170 1169 1169 1169 1169 1169 1169 1169 1169 1168 1168 1166 1166 1165 1164 1163 1163 1161 1159 1158 1157 1155 1153 1152 1152 1152 1152 1151 1150 1148 1148 1148 1149 1150 1150 1150 1150 1150 1151 1151 1152 1152 1154 1154 1155 1156 1158 1158 1158 1159 1159 1158 1159 1159 1158 1158 1158 1158 1158 1158 1158 1158 1158 1158 1157 1157 1157 1157 1156 1155 1155 1154 1154 1153 1153 1151 1150 1150 1148 1148 1147 1146 1146 1145 1143 1143 1142 1140 1139 1138 1136 1136 1136 1135 1134 1134 1134 1134 1136 1137 1137 1138 1138 1138 1138 1139 1140 1141 1142 1142 1142 1144 1145 1145 1145 1146 1146 1146 1146 1146 1146 1146 1146 1146 1145 1145 1145 1145 1145 1145 1145 1144 1144 1144 1144 1143 1142 1141 1141 1139 1139 1136 1135 1134 1132 1131 1130 1130 1130 1130 1129 1128 1128 1127 1127 1127 1127 1127 1126 1126 1125 1125 1125 1125 1126 1126 1126 1126 1126 1126 1126 1127 1128 1130 1131 1132 1134 1135 1137 1137 1138 1139 1139 1139 1139 1139 1138 1138 1138 1138 1138 1138 1137 1137 1137 1137 1137 1137 1136 1136 1136 1135 1135 1134 1134 1133 1131 1130 1130 1127 1123 1123 1121 1120 1119 1118 1117 1115 1113 1112 1111 1110 1109 1108 1107 1107 1107 1106 1106 1105 1105 1105 1107 1107 1108 1109 1110 1114 1118 1121 1123 1124 1126 1128 1128 1129 1130 1131 1131 1131 1131 1131 1131 1131 1131 1131 1131 1131 1131 1131 1131 1130 1130 1130 1130 1130 1130 1129 1129 1129 1127 1126 1126 1125 1124 1120 1116 1112 1110 1108 1105 1101 1100 1097 1095 1094 1094 1094 1094 1095 1096 1098 1099 1101 1101 1101 1100 1100 1100 1100 1101 1101 1102 1102 1102 1106 1109 1117 1123 1123 1125 1128 1129 1131 1132 1132 1133 1133 1133 1134 1134 1134 1135 1135 1134 1134 1134 1134 1134 1134 1134 1135 1134 1134 1134 1134 1134 1134 1134 1134 1134 1133 1133 1133 1133 1133 1132 1132 1132 1132 1131 1131 1130 1130 1130 1129 1129 1129 1128 1128 1128 1127 1127 1126 1125 1125 1122 1120 1118 1115 1115 1114 1111 1093 0 0 0 0 0 0 0 0 0 0 0 0 1289 1311 1334 1334 1334 0 0 0 0 0 0 0 0 0 0 0 0 0 0 0 0 0
1989 1989 1989 1997 2011 2063 2095 2117 2152 2183 2200 2205 2221 2246 2274 2315 2344 2364 2371 2379 2387 2404 2423 2435 2439 2450 2463 2489 2517 2523 2537 2555 2572 2586 2596 2609 2621 2630 2637 2643 2652 2673 2681 2684 2687 2693 2703 2719 2734 2746 2757 2765 2773 2790 2799 2803 2812 2823 2836 2852 2866 2879 2890 2900 2910 2923 2931 2938 2943 2949 2952 2957 2967 2981 2998 3003 3008 3009 3011 3018 3031 3049 3064 3076 3084 3086 3094 3102 3111 3115 3121 3127 3136 3143 3149 3154 3160 3167 3170 3174 3179 3184 3187 3194 3206 3217 3226 3232 3239 3241 3243 3243 3244 3247 3250 3253 3257 3262 3268 3271 3275 3284 3290 3295 3298 3300 3301 3305 3310 3315 3319 3320 3320 3320 3320 3320 3321 3321 3321 3319 3319 3319 3322 3325 3326 3330 3336 3342 3347 3347 3347 3344 3339 3339 3339 3339 3339 3337 3332 3332 3332 3334 3334 3334 3334 3333 3331 3329 3329 3325 3321 3317 3316 3310 3298 3287 3287 3287 3288 3291 3291 3291 3284 3273 3258 3249 3235 3225 3217 3212 3205 3198 3193 3186 3177 3166 3156 3145 3131 3117 3106 3097 3081 3064 3050 3030 3003 2976 2940 2898 2837 2763 2702 2524 0 0 0 0 1178 1174 1174 1173 1173 1173 1172 1172 1172 1170 1170 1170 1170 1171 1171 1171 1171 1171 1171 1171 1170 1170 1170 1170 1169 1169 1168 1167 1166 1165 1164 1162 1161 1159 1158 1157 1155 1154 1154 1154 1154 1154 1153 1152 1152 1152 1152 1152 1152 1152 1152 1152 1152 1152 1153 1154 1154 1154 1156 1157 1158 1159 1159 1159 1159 1159 1159 1159 1160 1159 1159 1159 1159 1159 1158 1158 1158 1158 1158 1157 1157 1157 1157 1156 1155 1155 1155 1154 1154 1153 1151 1151 1150 1149 1149 1148 1148 1147 1146 1145 1144 1143 1142 1140 1139 1139 1139 1137 1136 1136 1136 1137 1138 1139 1140 1141 1141 1141 1141 1141 1141 1143 1143 1143 1144 1145 1146 1146 1147 1147 1148 1148 1148 1147 1147 1147 1147 1147 1147 1147 1146 1146 1146 1146 1145 1145 1145 1145 1145 1144 1143 1142 1141 1141 1140 1138 1136 1134 1133 1132 1132 1132 1131 1131 1130 1129 1129 1129 1129 1129 1129 1128 1128 1128 1127 1126 1126 1126 1126 1127 1127 1127 1127 1128 1128 1128 1129 1130 1132 1134 1135 1136 1138 1138 1139 1140 1140 1140 1140 1140 1140 1140 1139 1139 1139 1139 1139 1138 1138 1138 1138 1137 1137 1137 1136 1136 1136 1135 1134 1133 1132 1131 1131 1130 1127 1125 1123 1122 1121 1119 1119 1117 1116 1114 1113 1112 1111 1111 1111 1111 1110 1110 1110 1110 1110 1110 1110 1111 1111 1112 1113 1115 1119 1124 1126 1127 1127 1128 1130 1130 1130 1131 1132 1132 1132 1132 1132 1132 1132 1132 1132 1132 1132 1132 1131 1131 1132 1131 1131 1131 1131 1130 1130 1130 1129 1129 1128 1126 1125 1121 1116 1113 1112 1109 1107 1103 1101 1100 1098 1097 1096 1096 1096 1096 1096 1098 1101 1103 1103 1103 1103 1103 1103 1103 1104 1104 1104 1105 1107 1109 1114 1120 1124 1125 1127 1129 1131 1131 1132 1133 1134 1134 1134 1135 1135 1135 1135 1135 1135 1135 1135 1135 1136 1136 1136 1136 1136 1136 1136 1135 1135 1135 1135 1135 1135 1135 1135 1134 1134 1133 1133 1133 1133 1132 1132 1132 1131 1131 1131 1131 1131 1130 1130 1130 1129 1129 1128 1127 1127 1125 1123 1121 1119 1119 1119 1118 1114 1093 0 0 0 0 0 0 0 0 0 0 0 0 1299 1313 1334 1334 1334 0 0 0 0 0 0 0 0 0 0 0 0 0 0 0 0 0
1989 1989 1997 2046 2048 2064 2095 2117 2139 2151 2167 2173 2200 2234 2274 2315 2344 2364 2371 2379 2386 2396 2411 2420 2424 2429 2434 2451 2498 2523 2535 2555 2572 2586 2596 2609 2620 2627 2636 2642 2652 2671 2680 2681 2684 2691 2703 2719 2731 2750 2759 2765 2773 2788 2798 2803 2811 2823 2836 2852 2867 2879 2890 2899 2910 2921 2931 2938 2943 2949 2952 2957 2967 2981 2993 3003 3008 3009 3011 3018 3031 3048 3063 3076 3084 3087 3094 3102 3113 3123 3128 3128 3136 3143 3149 3154 3160 3161 3166 3170 3175 3177 3183 3190 3201 3212 3220 3228 3232 3236 3236 3241 3244 3247 3250 3252 3256 3260 3265 3270 3275 3284 3290 3295 3298 3300 3301 3305 3310 3315 3319 3320 3320 3320 3320 3320 3319 3319 3319 3318 3318 3319 3319 3322 3324 3328 3332 3335 3337 3337 3337 3334 3330 3330 3330 3332 3332 3332 3329 3329 3329 3331 3331 3331 3331 3330 3327 3327 3326 3324 3321 3316 3310 3301 3293 3287 3287 3287 3288 3291 3291 3291 3284 3273 3258 3241 3222 3211 3204 3204 3203 3196 3193 3186 3184 3173 3158 3148 3129 3108 3096 3083 3069 3058 3050 3030 3008 2978 2940 2900 2838 2765 2714 2557 0 0 0 0 1186 1174 1174 1173 1173 1173 1173 1172 1172 1172 1172 1171 1171 1171 1171 1172 1172 1172 1171 1171 1171 1171 1171 1171 1170 1169 1169 1168 1167 1166 1166 1163 1162 1161 1160 1159 1157 1157 1157 1157 1156 1156 1156 1155 1155 1154 1154 1154 1154 1153 1153 1153 1153 1154 1154 1154 1155 1155 1156 1157 1158 1159 1159 1159 1160 1160 1160 1160 1160 1160 1160 1160 1160 1159 1159 1159 1159 1159 1159 1159 1158 1158 1158 1157 1157 1156 1156 1155 1155 1154 1153 1153 1152 1150 1150 1150 1149 1149 1148 1147 1146 1145 1144 1142 1141 1141 1141 1141 1141 1141 1141 1141 1141 1141 1142 1144 1144 1144 1143 1143 1143 1144 1144 1145 1146 1147 1147 1147 1148 1148 1148 1148 1148 1148 1148 1148 1148 1148 1148 1148 1147 1147 1147 1147 1147 1147 1146 1146 1145 1145 1144 1144 1143 1142 1141 1139 1138 1137 1135 1135 1133 1133 1133 1132 1131 1131 1131 1131 1131 1131 1131 1131 1131 1130 1130 1129 1129 1129 1129 1129 1129 1129 1129 1129 1129 1130 1130 1131 1133 1136 1137 1137 1138 1139 1140 1140 1140 1140 1141 1140 1140 1140 1140 1140 1140 1140 1140 1139 1139 1139 1138 1138 1138 1137 1137 1137 1136 1135 1135 1134 1133 1132 1131 1130 1129 1127 1123 1123 1122 1121 1120 1118 1117 1117 1115 1115 1114 1114 1114 1114 1114 1114 1114 1114 1114 1114 1114 1114 1114 1115 1117 1118 1121 1125 1126 1127 1129 1130 1131 1131 1131 1132 1132 1132 1132 1132 1132 1132 1132 1132 1132 1132 1132 1132 1132 1132 1132 1132 1132 1132 1132 1131 1131 1131 1130 1129 1128 1127 1125 1122 1116 1114 1113 1112 1109 1105 1104 1103 1103 1103 1100 1099 1098 1098 1098 1100 1103 1105 1105 1105 1105 1105 1105 1105 1106 1107 1107 1108 1109 1112 1117 1120 1124 1126 1128 1129 1131 1132 1132 1134 1134 1134 1135 1135 1135 1135 1135 1135 1136 1136 1136 1136 1136 1136 1136 1136 1136 1136 1136 1136 1136 1136 1136 1136 1136 1136 1136 1135 1135 1134 1134 1134 1134 1134 1134 1134 1133 1133 1132 1132 1132 1132 1131 1131 1131 1130 1129 1129 1127 1127 1123 1122 1121 1120 1120 1120 1114 1093 0 0 0 0 0 0 0 0 0 0 0 1269 1299 1313 1334 1334 1334 1316 1284 0 0 0 0 0 0 0 0 0 0 0 0 0 0 0
