1942 1982 2033 2042 2046 2081 2120 2168 2197 2215 2232 2248 2252 2259 2259 2259 2268 2268 2268 2288 2338 2338 2338 2344 2344 2344 2353 2372 2396 2420 2449 2475 2483 2496 2504 2523 2543 2545 2562 2598 2608 2623 2623 2623 2611 2609 2608 2608 2609 2611 2613 2615 2619 2623 2632 2640 2644 2652 2657 2669 2685 2712 2753 2779 2800 2815 2836 2857 2860 2860 2860 2854 2850 2850 2850 2859 2872 2885 2902 2925 2936 2939 2941 2941 2941 2948 2955 2956 2959 2959 2959 2971 2973 2989 3004 3005 3008 3008 3012 3015 3021 3029 3043 3043 3043 3047 3047 3047 3059 3071 3077 3078 3078 3081 3086 3090 3103 3116 3119 3121 3134 3139 3139 3139 3139 3136 3136 3136 3154 3158 3158 3158 3158 3158 3159 3159 3159 3154 3147 3147 3147 3161 3170 3175 3176 3185 3193 3193 3193 3195 3195 3197 3197 3197 3193 3187 3171 3163 3160 3158 3158 3160 3162 3170 3188 3201 3223 3240 3249 3249 3249 3231 3231 3231 3230 3231 3233 3233 3231 3231 3228 3226 3226 3226 3224 3219 3216 3212 3208 3205 3205 3205 3207 3209 3210 3210 3212 3212 3211 3211 3207 3202 3200 3198 3196 3184 3176 3174 3174 3174 3177 3177 3178 3178 3177 3176 3176 3175 3172 3164 3143 3122 3119 3118 3117 3098 3077 3051 2995 2967 2948 2948 2944 2944 2944 2920 2920 2920 2923 2958 2958 2962 2975 2975 2975 2979 3012 3020 3036 3039 3039 3039 3032 3021 3014 3013 3010 3009 3008 2993 2975 2969 2967 2967 2955 2943 2932 2926 2919 2913 2895 2864 2833 2828 2819 2818 2787 2746 2671 0 0 0 1972 1966 1961 1961 1958 1956 1956 1956 1955 1953 1949 1942 1929 1929 1925 1921 1916 1904 1879 1847 0 0 0 0 0 0 0 0 1015 1002 1000 998 998 996 992 991 990 989 989 988 988 986 985 984 982 982 982 981 980 979 979 978 978 978 978 978 977 976 975 974 974 972 971 970 969 969 968 967 966 966 965 964 963 963 963 962 961 961 959 959 959 958 957 956 955 955 954 953 953 952 951 950 949 949 948 948 947 946 945 945 944 944 943 943 941 941 940 939 939 939 938 937 936 935 935 934 933 933 932 931 931 930 929 929 928 928 927 926 926 925 924 924 923 923 923 922 922 922 922 922 922 922 922 922 922 923 923 923 926 929 0 0 0 0 0 0 0 1519 1543 1544 1548 1549 1549 1552 1557 1564 1574 1585 1590 1593 1595 1595 1595 1599 1602 1603 1604 1605 1607 1608 1610 1611 1611 1611 1611 1611 1611 1611 1610 1609 1609 1608 1608 1607 1606 1605 1604 1603 1602 1600 1597 1596 1593 1591 1590 1589 1587 1584 1582 1580 1579 1577 1575 1574 1572 1570 1569 1566 1563 1561 1558 1557 1556 1555 1554 1552 1551 1550 1550 1550 1551 1553 1554 1555 1555 1557 1561 1564 1565 1567 1568 1569 1572 1575 1577 1579 1582 1584 1585 1587 1588 1588 1590 1591 1591 1591 1591 1591 1591 1591 1591 1590 1589 1589 1588 1588 1588 1588 1587 1587 1587 1587 1587 1587 1587 1587 1587 1587 1588 1588 1588 1590 1591 1594 1597 1602 1609 1613 1618 1623 1628 1631 1634 1637 1641 1643 1646 1647 1649 1650 1651 1654 1655 1657 1657 1658 1658 1659 1660 1660 1660 1660 1661 1662 1662 1662 1662 1662 1662 1662 1662 1663 1663 1663 1663 1662 1662 1662 1662 1662 1662 1661 1660 1660 1658 1652 1652 1652 1651 1652 1652 1652 1652 1652 1653 1653 1652 1652 1651 1650 1648 1645 1640 1639 1637 1636 1636
1942 1996 2046 2056 2081 2082 2120 2168 2197 2215 2228 2248 2252 2259 2263 2263 2268 2268 2268 2288 2338 2369 2369 2369 2353 2353 2353 2374 2397 2420 2449 2475 2491 2516 2517 2530 2545 2561 2578 2599 2611 2623 2623 2623 2623 2616 2612 2611 2611 2612 2616 2619 2622 2628 2644 2648 2648 2655 2664 2678 2693 2717 2754 2784 2808 2819 2836 2857 2861 2861 2861 2859 2859 2859 2859 2867 2878 2889 2906 2926 2939 2944 2945 2948 2948 2950 2963 2966 2968 2970 2970 2972 2976 2989 3004 3005 3008 3011 3012 3015 3021 3029 3042 3042 3042 3047 3047 3047 3059 3072 3082 3082 3082 3087 3090 3101 3113 3119 3121 3122 3134 3145 3145 3145 3145 3143 3143 3143 3159 3159 3159 3159 3159 3159 3164 3164 3164 3164 3157 3157 3157 3163 3175 3183 3187 3196 3200 3201 3201 3201 3203 3208 3208 3208 3198 3189 3173 3173 3173 3181 3189 3189 3189 3189 3189 3201 3223 3241 3242 3242 3242 3234 3234 3233 3233 3234 3234 3233 3233 3233 3228 3226 3226 3225 3224 3219 3216 3212 3208 3206 3206 3206 3208 3211 3211 3212 3212 3212 3212 3212 3208 3205 3202 3200 3197 3195 3183 3178 3178 3178 3178 3178 3180 3179 3177 3177 3176 3175 3172 3159 3131 3116 3113 3096 3084 3073 3033 3000 2956 2898 2882 2882 2882 2881 2881 2849 2811 2747 2747 2747 2860 2938 2938 2940 2947 2962 2985 3020 3033 3035 3035 3035 3027 3021 3010 3010 3009 3008 3008 3004 2988 2987 2985 2981 2971 2953 2939 2928 2920 2914 2899 2872 2843 2821 2819 2808 2787 2746 2668 0 0 0 1967 1966 1961 1961 1958 1956 1955 1954 1953 1952 1946 1932 1924 1921 1917 1914 1904 1895 0 0 0 0 0 0 0 0 0 1001 1000 1000 1000 998 998 997 994 991 991 990 990 989 988 986 985 984 983 982 982 981 981 980 980 980 979 978 978 978 977 977 976 975 974 973 972 971 970 969 968 968 966 966 965 965 964 963 963 962 961 961 960 959 959 958 957 957 956 955 954 954 953 952 952 951 950 950 949 948 947 946 946 946 945 945 943 943 942 942 941 940 939 939 938 937 937 936 935 934 933 933 932 932 931 930 930 929 928 928 927 927 926 926 925 925 924 924 923 923 923 923 923 923 922 922 922 922 922 923 923 923 924 926 0 0 0 0 0 0 0 0 1522 1533 1539 1548 1549 1549 1555 1560 1566 1578 1584 1586 1589 1590 1590 1594 1599 1600 1601 1602 1606 1606 1608 1610 1611 1611 1611 1611 1611 1610 1609 1608 1608 1608 1607 1606 1606 1605 1604 1603 1602 1601 1599 1596 1595 1593 1591 1589 1587 1585 1582 1581 1580 1579 1579 1576 1574 1572 1570 1567 1564 1561 1559 1557 1556 1555 1554 1553 1551 1550 1550 1550 1550 1550 1552 1553 1554 1555 1556 1559 1562 1565 1566 1569 1571 1574 1576 1577 1578 1582 1584 1585 1587 1588 1589 1590 1590 1590 1590 1591 1590 1590 1590 1589 1589 1589 1588 1588 1588 1588 1587 1587 1587 1587 1587 1587 1587 1587 1587 1587 1587 1588 1588 1589 1590 1591 1593 1598 1602 1609 1615 1620 1626 1627 1631 1633 1639 1643 1645 1646 1648 1650 1651 1654 1655 1656 1657 1658 1658 1658 1660 1660 1660 1661 1662 1662 1662 1662 1662 1662 1662 1662 1662 1663 1664 1664 1664 1663 1662 1662 1662 1662 1663 1663 1662 1661 1661 1658 1655 1655 1655 1655 1655 1655 1655 1654 1654 1653 1653 1652 1651 1648 1645 1641 1638 1637 1636 1635 1635
1972 2021 2082 2083 2083 2092 2129 2168 2195 2213 2227 2231 2247 2259 2269 2272 2276 2280 2288 2300 2338 2380 2380 2380 2360 2360 2360 2374 2397 2420 2449 2475 2492 2520 2536 2555 2572 2588 2598 2606 2611 2623 2635 2643 2643 2643 2635 2621 2621 2621 2626 2626 2629 2638 2644 2652 2664 2675 2683 2694 2708 2737 2769 2800 2810 2821 2841 2857 2862 2862 2862 2860 2860 2860 2861 2873 2885 2896 2909 2926 2940 2948 2948 2948 2949 2958 2967 2975 2975 2975 2975 2975 2977 2989 3004 3005 3008 3013 3015 3015 3021 3029 3042 3042 3044 3047 3048 3052 3066 3074 3082 3083 3087 3094 3098 3109 3121 3127 3127 3131 3139 3158 3158 3158 3154 3153 3153 3153 3159 3159 3159 3159 3159 3159 3169 3172 3172 3172 3162 3162 3162 3170 3183 3186 3197 3201 3201 3202 3206 3210 3211 3212 3211 3210 3202 3193 3193 3193 3199 3204 3210 3210 3210 3212 3212 3213 3233 3249 3249 3249 3242 3239 3236 3234 3234 3235 3235 3233 3233 3233 3231 3226 3226 3224 3223 3219 3216 3212 3209 3206 3206 3206 3209 3213 3214 3216 3216 3216 3215 3213 3209 3205 3204 3204 3203 3199 3189 3178 3178 3178 3178 3178 3181 3179 3178 3178 3176 3175 3172 3150 3131 3110 3100 3062 3044 3001 2975 2967 2896 2862 2679 2514 2504 0 0 0 0 0 2562 2646 2663 2668 2699 2758 2834 2894 2967 3013 3027 3027 3027 3021 3019 3018 3001 3001 3001 3017 3017 3017 3000 2997 2991 2981 2971 2958 2944 2930 2920 2913 2899 2878 2847 2821 2804 2804 2787 2746 2667 0 0 0 1967 1966 1961 1961 1956 1952 1950 1947 1947 1944 1935 1931 1917 1917 1905 1903 1897 0 0 0 0 0 0 0 0 0 1002 1000 999 999 999 998 998 997 994 992 991 991 990 989 988 987 985 984 984 983 983 982 981 981 980 980 980 979 978 978 978 977 977 976 975 974 972 972 971 970 969 968 968 967 966 966 965 964 963 963 962 961 961 960 959 959 958 958 957 956 955 955 954 953 952 951 951 950 950 949 948 948 946 946 946 945 944 944 943 942 941 941 940 939 939 938 937 936 935 935 934 933 933 932 932 931 930 929 929 929 928 927 927 926 926 925 925 924 924 923 923 923 923 923 923 923 922 922 922 923 923 923 923 923 924 0 0 0 0 0 0 0 1508 1523 1534 1545 1547 1547 1553 1554 1559 1569 1575 1579 1581 1583 1583 1586 1591 1594 1596 1598 1601 1605 1606 1608 1608 1609 1609 1609 1609 1608 1607 1607 1607 1606 1606 1606 1605 1605 1604 1603 1602 1601 1600 1598 1596 1595 1592 1590 1588 1587 1585 1582 1582 1581 1579 1578 1575 1574 1571 1569 1567 1565 1563 1560 1559 1557 1555 1554 1552 1550 1550 1550 1550 1550 1550 1550 1552 1553 1554 1556 1557 1560 1564 1566 1568 1571 1573 1574 1576 1579 1581 1584 1585 1586 1587 1588 1589 1589 1589 1589 1589 1589 1589 1589 1589 1588 1588 1588 1588 1588 1587 1587 1587 1587 1587 1587 1587 1587 1587 1587 1587 1587 1587 1588 1589 1589 1589 1592 1596 1603 1610 1615 1622 1625 1626 1629 1634 1642 1644 1645 1647 1649 1650 1652 1654 1656 1657 1658 1658 1658 1659 1660 1660 1661 1663 1663 1663 1663 1663 1663 1663 1663 1663 1663 1664 1664 1664 1664 1664 1664 1663 1664 1664 1663 1663 1662 1661 1658 1656 1656 1656 1656 1656 1656 1656 1656 1654 1653 1653 1652 1648 1646 1643 1640 1637 1635 1634 1634 1634
2026 2064 2091 2105 2114 2137 2167 2195 2195 2207 2226 2230 2247 2259 2269 2276 2283 2293 2305 2328 2354 2394 2394 2394 2392 2392 2392 2398 2414 2438 2456 2478 2501 2526 2543 2555 2572 2588 2598 2608 2612 2623 2633 2643 2659 2659 2659 2643 2636 2636 2636 2643 2644 2648 2658 2666 2683 2695 2707 2721 2734 2760 2790 2812 2816 2823 2841 2849 2860 2864 2865 2865 2866 2866 2866 2879 2894 2907 2914 2926 2940 2949 2950 2952 2954 2965 2978 2982 2984 2984 2982 2982 2984 2985 2988 2998 3011 3017 3020 3027 3031 3036 3044 3045 3047 3047 3048 3055 3067 3078 3083 3086 3093 3097 3105 3119 3128 3135 3139 3151 3154 3159 3162 3162 3162 3160 3159 3159 3159 3159 3161 3161 3163 3168 3180 3180 3180 3179 3179 3179 3183 3194 3199 3200 3202 3205 3205 3206 3208 3211 3212 3212 3212 3211 3209 3209 3209 3212 3219 3223 3225 3230 3230 3231 3233 3233 3245 3250 3250 3250 3246 3246 3242 3242 3242 3235 3235 3234 3234 3233 3231 3226 3226 3224 3223 3219 3216 3212 3211 3208 3208 3208 3210 3213 3216 3220 3220 3220 3220 3219 3216 3212 3212 3212 3211 3206 3192 3178 3178 3178 3182 3183 3183 3182 3181 3176 3167 3163 3157 3131 3130 3106 3069 3039 2994 2962 2962 2834 2662 0 0 0 0 0 0 0 0 0 0 0 0 0 0 0 0 0 2843 2997 3017 3017 3017 2996 2996 2983 2996 2996 2999 3017 3017 3017 3011 2999 2991 2981 2971 2958 2945 2933 2919 2911 2899 2878 2847 2821 2803 2803 2785 2746 2652 0 0 0 1961 1960 1959 1955 1947 1946 1945 1942 1940 1935 1929 1926 1913 1912 1895 1892 0 0 0 0 0 0 0 0 0 1013 1002 999 999 999 999 998 998 997 994 993 992 991 990 989 988 987 986 985 985 984 983 983 982 981 981 980 980 980 979 979 978 977 977 976 975 974 973 972 971 971 970 968 968 967 967 966 965 964 964 963 962 962 962 961 960 960 959 958 957 957 956 955 954 954 952 952 951 951 950 949 948 948 947 947 946 946 945 944 943 943 942 941 940 939 939 938 938 936 936 935 934 934 933 932 932 932 931 931 930 929 928 928 927 927 926 926 925 925 925 924 924 923 923 923 923 922 922 922 923 923 923 923 923 923 923 932 0 0 0 0 0 0 0 1512 1532 1544 1546 1547 1553 1554 1558 1563 1569 1571 1574 1575 1577 1579 1583 1586 1591 1594 1597 1601 1603 1604 1604 1605 1606 1606 1606 1605 1605 1605 1605 1605 1605 1604 1604 1603 1603 1603 1602 1601 1600 1599 1598 1596 1594 1591 1590 1588 1587 1585 1583 1581 1581 1579 1578 1575 1573 1571 1569 1568 1565 1563 1560 1559 1558 1556 1554 1551 1550 1550 1549 1549 1549 1549 1550 1552 1553 1554 1555 1557 1559 1562 1565 1566 1569 1571 1573 1577 1579 1582 1583 1584 1585 1586 1587 1587 1588 1588 1588 1588 1588 1588 1588 1588 1588 1588 1588 1588 1587 1587 1587 1586 1586 1586 1586 1586 1586 1586 1586 1587 1587 1588 1588 1588 1588 1588 1592 1598 1603 1609 1611 1616 1620 1626 1632 1638 1642 1644 1646 1648 1650 1651 1652 1654 1656 1657 1658 1658 1659 1660 1660 1662 1663 1663 1663 1663 1663 1663 1663 1663 1663 1663 1664 1664 1664 1664 1665 1665 1665 1665 1665 1664 1664 1663 1661 1660 1656 1656 1656 1656 1657 1657 1657 1656 1654 1653 1653 1652 1648 1646 1642 1639 1637 1634 1634 1633 1633
2069 2095 2112 2121 2139 2152 2188 2197 2212 2218 2218 2230 2247 2259 2269 2285 2297 2316 2335 2358 2388 2416 2416 2416 2412 2412 2412 2418 2442 2462 2473 2488 2509 2533 2552 2557 2573 2590 2602 2609 2615 2623 2629 2643 2659 2659 2659 2643 2643 2643 2645 2651 2652 2661 2664 2680 2694 2708 2721 2729 2749 2773 2802 2819 2829 2833 2841 2849 2856 2863 2866 2872 2874 2874 2875 2890 2906 2913 2914 2926 2939 2950 2952 2960 2966 2976 2987 2998 2998 2998 2988 2985 2985 2985 2988 2998 3011 3017 3030 3038 3041 3043 3045 3047 3047 3049 3049 3056 3067 3078 3088 3093 3096 3099 3109 3122 3136 3144 3151 3158 3158 3161 3167 3169 3169 3169 3163 3161 3161 3161 3163 3165 3168 3178 3190 3190 3192 3192 3200 3209 3212 3214 3214 3214 3210 3208 3208 3208 3213 3213 3213 3211 3207 3207 3207 3208 3210 3217 3222 3232 3233 3235 3242 3244 3244 3249 3258 3258 3258 3258 3253 3252 3251 3248 3242 3236 3234 3234 3233 3233 3231 3226 3226 3224 3223 3219 3216 3212 3211 3210 3210 3210 3210 3216 3221 3224 3224 3224 3220 3220 3219 3218 3217 3217 3216 3208 3195 3180 3180 3180 3183 3185 3185 3185 3181 3171 3163 3155 3149 3131 3130 3100 3067 3011 2962 2928 2774 0 0 0 0 0 0 0 0 0 0 0 0 0 0 0 0 0 0 0 0 2754 2974 2974 2974 2967 2962 2962 2962 2978 2979 2998 3011 3011 3011 2999 2991 2969 2964 2958 2948 2936 2919 2905 2894 2878 2847 2816 2802 2796 2785 2746 2640 0 0 0 1960 1954 1951 1946 1942 1939 1937 1933 1929 1928 1924 1909 1908 1889 0 0 0 0 0 0 0 0 0 0 0 1009 1002 999 999 999 999 998 997 996 994 993 992 991 990 990 989 988 987 986 985 984 984 983 983 982 982 981 980 980 980 979 979 978 977 977 975 975 974 973 972 972 970 970 969 968 967 966 965 965 965 963 963 963 962 962 961 960 960 959 958 957 957 956 955 954 953 953 952 951 951 950 950 948 948 947 946 946 946 945 944 943 943 941 941 940 939 938 938 936 936 936 934 934 933 933 932 932 931 931 930 930 929 928 928 928 926 926 926 926 925 925 924 924 923 923 923 923 922 922 922 922 922 922 921 921 921 927 943 0 0 0 0 0 0 1493 1518 1543 1545 1547 1552 1553 1554 1561 1567 1568 1570 1570 1572 1575 1578 1581 1584 1588 1592 1596 1598 1599 1599 1601 1602 1603 1603 1603 1603 1603 1603 1603 1603 1603 1603 1603 1602 1602 1602 1601 1600 1599 1598 1597 1595 1593 1591 1590 1588 1587 1585 1583 1582 1581 1578 1577 1575 1573 1572 1569 1567 1564 1562 1560 1559 1557 1555 1553 1552 1550 1549 1549 1549 1549 1549 1550 1551 1551 1553 1556 1556 1558 1562 1564 1565 1567 1569 1572 1576 1578 1580 1581 1583 1584 1585 1586 1587 1587 1587 1588 1588 1588 1588 1588 1588 1588 1588 1588 1587 1587 1587 1587 1586 1586 1586 1586 1586 1586 1586 1586 1586 1586 1586 1587 1587 1587 1589 1594 1598 1603 1608 1614 1615 1623 1631 1638 1642 1644 1646 1648 1650 1650 1652 1653 1655 1657 1658 1658 1659 1660 1660 1662 1663 1663 1664 1664 1664 1663 1663 1663 1663 1663 1664 1664 1665 1665 1666 1666 1666 1667 1667 1666 1666 1666 1665 1661 1658 1657 1657 1657 1657 1657 1657 1657 1655 1653 1653 1652 1648 1645 1642 1638 1635 1634 1633 1633 1633
2085 2099 2115 2130 2141 2181 2214 2214 2218 2218 2218 2230 2255 2262 2271 2289 2314 2345 2363 2370 2396 2425 2442 2442 2442 2433 2433 2433 2453 2477 2491 2496 2510 2537 2553 2559 2575 2597 2603 2612 2623 2625 2629 2637 2646 2646 2646 2644 2644 2644 2648 2652 2656 2661 2675 2688 2700 2711 2721 2730 2749 2775 2803 2826 2834 2840 2845 2849 2855 2863 2867 2875 2881 2881 2884 2894 2906 2913 2914 2925 2939 2948 2952 2962 2970 2979 2988 3002 3005 3005 3005 2994 2991 2991 2991 2998 3011 3027 3036 3039 3045 3047 3051 3055 3058 3059 3061 3062 3069 3084 3090 3094 3097 3100 3109 3124 3139 3149 3158 3160 3161 3164 3167 3172 3172 3172 3171 3167 3167 3167 3170 3170 3172 3182 3190 3197 3201 3201 3202 3214 3229 3229 3229 3224 3216 3208 3208 3208 3213 3213 3213 3212 3207 3207 3207 3208 3212 3218 3223 3233 3238 3242 3244 3249 3253 3262 3272 3272 3272 3264 3260 3253 3251 3248 3242 3236 3233 3233 3233 3234 3234 3234 3233 3229 3224 3219 3216 3216 3216 3216 3216 3216 3217 3222 3228 3228 3228 3225 3221 3221 3220 3218 3218 3217 3216 3208 3197 3185 3182 3182 3182 3185 3185 3185 3180 3170 3162 3153 3141 3131 3129 3098 3034 2945 2823 2750 2517 0 0 0 0 0 0 0 0 0 0 0 0 0 0 0 0 0 0 0 0 0 2381 2663 2858 2894 2903 2930 2930 2949 2964 2998 3011 3011 3011 2999 2988 2951 2949 2948 2943 2936 2918 2899 2884 2867 2835 2812 2802 2789 2776 2746 2639 0 0 0 1951 1944 1944 1938 1937 1934 1928 1921 1918 1913 1907 1901 1883 0 0 0 0 0 0 0 0 0 0 1012 1004 1003 1002 1000 999 999 998 998 997 996 994 993 992 992 991 990 989 988 987 986 986 985 985 984 983 982 982 982 981 981 980 980 979 978 977 977 977 975 974 973 973 972 971 970 969 968 967 967 967 965 965 964 964 963 963 962 962 961 960 960 959 958 958 957 956 955 954 953 953 952 951 951 950 949 949 948 947 947 946 945 944 944 943 942 942 940 939 939 938 937 936 936 935 934 934 933 933 933 932 931 931 931 929 929 929 928 927 927 927 926 926 925 925 924 923 923 923 923 923 923 923 923 923 923 922 922 922 927 938 0 0 0 0 0 0 1479 1517 1539 1545 1545 1546 1551 1554 1557 1563 1566 1568 1568 1568 1570 1574 1577 1579 1583 1585 1590 1593 1594 1595 1596 1598 1600 1600 1601 1601 1601 1601 1601 1601 1601 1601 1601 1601 1601 1601 1601 1600 1599 1598 1597 1596 1594 1592 1591 1590 1588 1586 1585 1584 1582 1581 1578 1577 1575 1573 1571 1569 1567 1564 1562 1559 1558 1556 1554 1552 1551 1551 1550 1548 1548 1548 1548 1548 1550 1551 1553 1554 1555 1558 1561 1563 1563 1566 1568 1573 1575 1578 1579 1581 1582 1583 1584 1585 1586 1586 1586 1587 1587 1587 1587 1587 1588 1587 1587 1587 1587 1587 1587 1586 1586 1586 1586 1586 1585 1585 1585 1585 1585 1585 1585 1586 1587 1588 1591 1595 1596 1601 1608 1615 1622 1631 1636 1641 1643 1645 1648 1650 1650 1651 1652 1655 1656 1658 1658 1659 1660 1661 1662 1662 1663 1664 1664 1664 1664 1663 1663 1663 1663 1664 1664 1665 1665 1666 1666 1666 1667 1667 1668 1668 1668 1668 1666 1661 1658 1657 1657 1657 1658 1658 1658 1657 1655 1654 1652 1648 1642 1640 1637 1635 1633 1633 1632 1632
2085 2104 2123 2133 2142 2193 2225 2225 2225 2225 2225 2236 2265 2271 2275 2298 2332 2354 2363 2374 2402 2437 2468 2469 2469 2469 2465 2465 2465 2483 2503 2506 2521 2543 2555 2559 2575 2598 2603 2616 2623 2626 2629 2637 2645 2646 2646 2646 2646 2647 2651 2652 2656 2661 2675 2692 2706 2716 2728 2744 2754 2775 2806 2831 2838 2846 2848 2849 2855 2863 2868 2877 2887 2891 2892 2896 2909 2915 2917 2925 2936 2946 2956 2964 2971 2979 2992 3005 3008 3017 3017 3017 3013 3009 3009 3009 3020 3030 3036 3040 3045 3047 3053 3060 3066 3067 3067 3069 3080 3091 3097 3101 3101 3102 3111 3126 3142 3149 3158 3163 3164 3164 3167 3172 3178 3178 3178 3178 3178 3178 3178 3178 3179 3184 3190 3201 3202 3203 3206 3221 3230 3230 3230 3226 3220 3217 3217 3217 3219 3219 3219 3216 3207 3207 3207 3208 3213 3230 3241 3246 3249 3249 3250 3251 3258 3264 3272 3272 3272 3268 3262 3253 3251 3245 3238 3236 3233 3233 3233 3237 3238 3238 3238 3233 3224 3222 3222 3222 3222 3222 3222 3223 3223 3226 3229 3229 3229 3226 3221 3221 3221 3219 3218 3218 3216 3208 3199 3187 3182 3182 3182 3185 3185 3185 3176 3165 3157 3151 3141 3129 3119 3054 3001 2941 2757 2384 2035 0 0 0 0 0 0 0 0 0 0 0 0 0 0 0 0 0 0 0 0 0 1786 1809 2159 2601 2717 2862 2902 2941 2945 2964 2987 2987 2987 2981 2956 2943 2943 2942 2940 2936 2914 2891 2874 2850 2819 2794 2777 2776 2759 2724 2575 0 0 0 1942 1937 1936 1936 1933 1924 1916 1912 1905 1897 1891 1878 1869 0 0 0 0 0 0 0 0 0 1008 1004 1003 1003 1002 1000 999 999 998 998 997 996 994 994 993 992 991 991 989 988 988 988 987 986 986 984 984 984 982 982 982 981 980 980 979 979 978 977 977 976 975 974 974 973 972 971 970 969 968 967 967 966 965 965 965 964 964 963 962 961 961 960 960 959 958 957 956 955 954 954 953 953 952 951 950 950 949 948 948 947 947 945 945 944 943 942 942 941 940 939 939 938 938 937 936 935 935 934 933 933 932 932 932 931 930 930 929 929 928 928 928 926 926 926 925 924 924 923 923 923 923 923 923 923 923 923 922 922 922 923 928 936 0 0 0 0 0 1453 1500 1526 1545 1545 1546 1547 1552 1553 1556 1561 1565 1566 1566 1567 1569 1572 1576 1579 1582 1585 1588 1590 1592 1593 1594 1598 1599 1599 1599 1599 1599 1599 1599 1600 1600 1600 1600 1600 1600 1600 1600 1599 1598 1597 1596 1595 1593 1591 1590 1589 1588 1587 1586 1585 1582 1581 1580 1578 1574 1572 1571 1568 1565 1563 1561 1559 1558 1555 1553 1552 1551 1550 1548 1546 1546 1546 1546 1546 1547 1549 1551 1553 1554 1557 1561 1562 1563 1565 1569 1572 1574 1577 1579 1580 1581 1583 1583 1584 1585 1586 1586 1586 1587 1587 1587 1587 1587 1587 1587 1587 1587 1586 1586 1586 1586 1586 1585 1585 1585 1584 1584 1584 1584 1585 1585 1587 1587 1588 1589 1591 1592 1599 1606 1617 1623 1631 1637 1642 1645 1648 1650 1650 1651 1652 1654 1656 1658 1658 1659 1659 1660 1662 1662 1663 1664 1664 1664 1664 1664 1663 1663 1663 1664 1665 1665 1666 1666 1667 1667 1667 1668 1668 1671 1671 1671 1670 1665 1661 1659 1659 1659 1659 1660 1660 1660 1659 1656 1652 1646 1641 1639 1636 1635 1633 1633 1632 1632
2085 2104 2125 2137 2155 2193 2230 2231 2231 2231 2231 2237 2273 2279 2285 2308 2335 2354 2364 2376 2402 2443 2479 2483 2483 2483 2478 2478 2478 2491 2506 2523 2542 2563 2567 2575 2591 2600 2604 2616 2623 2627 2632 2637 2645 2646 2646 2646 2646 2647 2652 2654 2664 2664 2678 2697 2714 2722 2730 2744 2754 2782 2808 2832 2848 2850 2853 2855 2855 2863 2867 2877 2887 2892 2895 2899 2916 2918 2921 2925 2936 2946 2957 2965 2972 2982 2993 3008 3012 3026 3029 3029 3029 3024 3024 3024 3025 3031 3037 3042 3045 3050 3054 3062 3070 3073 3073 3076 3084 3094 3100 3105 3107 3108 3119 3131 3142 3149 3158 3163 3164 3164 3167 3172 3179 3179 3182 3183 3183 3183 3183 3183 3183 3184 3195 3203 3206 3211 3216 3223 3230 3232 3232 3232 3224 3224 3224 3226 3226 3226 3224 3219 3216 3216 3216 3219 3223 3231 3250 3256 3256 3256 3256 3256 3258 3265 3273 3273 3273 3269 3263 3259 3244 3238 3236 3235 3233 3233 3233 3237 3238 3238 3238 3233 3228 3222 3222 3222 3224 3225 3225 3225 3226 3226 3229 3229 3229 3226 3221 3220 3219 3219 3218 3217 3215 3210 3199 3189 3182 3182 3182 3182 3182 3179 3170 3164 3157 3151 3148 3129 3087 3016 2957 2866 0 0 0 0 1364 1313 1300 1294 1286 1275 1274 1274 1274 1283 1284 1287 1288 1292 1293 1299 1312 1313 0 0 0 0 0 0 0 0 0 2910 2913 2920 2927 2957 2957 2957 2955 2934 2934 2930 2930 2921 2900 2880 2860 2829 2798 2770 2756 2755 2754 2702 2553 0 0 1950 1940 1935 1931 1928 1926 1917 1906 1904 1884 1883 0 0 0 0 0 0 0 0 0 1035 1016 1007 1007 1004 1003 1003 1002 1000 999 999 998 998 997 996 994 994 993 993 992 991 991 990 989 988 988 987 986 985 984 984 984 983 982 981 981 980 979 979 979 978 977 976 976 974 974 973 972 971 970 970 969 968 968 967 967 967 966 965 964 964 963 962 962 961 960 960 959 958 957 956 956 955 953 953 953 951 951 950 950 949 949 947 947 946 946 945 943 943 942 941 940 940 940 939 938 937 937 936 935 934 934 934 933 932 932 931 930 930 930 929 928 928 928 927 927 926 926 925 924 924 924 923 923 923 923 923 923 923 923 923 923 923 926 929 940 0 0 0 0 0 0 1523 1545 1545 1546 1546 1547 1547 1551 1552 1557 1562 1563 1565 1566 1567 1570 1574 1577 1581 1584 1587 1589 1590 1592 1595 1597 1597 1597 1597 1597 1597 1598 1598 1599 1599 1599 1599 1599 1599 1599 1598 1598 1596 1596 1595 1594 1593 1591 1590 1589 1589 1587 1586 1585 1583 1582 1580 1577 1575 1572 1570 1567 1566 1563 1561 1558 1557 1555 1552 1551 1550 1548 1546 1545 1545 1545 1545 1546 1547 1550 1550 1551 1553 1556 1559 1561 1564 1566 1570 1572 1575 1576 1578 1580 1580 1581 1583 1585 1585 1585 1585 1586 1586 1586 1586 1587 1587 1587 1587 1586 1586 1586 1586 1586 1586 1585 1585 1585 1584 1584 1584 1584 1585 1585 1586 1586 1586 1587 1587 1589 1590 1597 1606 1617 1624 1631 1637 1644 1648 1649 1650 1650 1651 1654 1656 1658 1658 1659 1659 1660 1661 1662 1663 1664 1664 1664 1664 1664 1664 1664 1664 1664 1665 1665 1666 1666 1667 1668 1668 1669 1670 1672 1672 1672 1672 1669 1665 1663 1662 1662 1662 1662 1662 1662 1661 1657 1652 1646 1641 1639 1636 1635 1635 1633 1632 1632
2081 2104 2125 2155 2186 2213 2230 2230 2230 2231 2231 2254 2283 2283 2292 2310 2339 2366 2375 2376 2405 2446 2480 2484 2487 2487 2487 2487 2487 2494 2510 2535 2560 2575 2580 2585 2595 2602 2609 2617 2625 2627 2640 2648 2648 2648 2652 2652 2652 2656 2657 2658 2664 2664 2680 2710 2743 2746 2748 2749 2767 2794 2814 2832 2848 2850 2855 2858 2860 2863 2866 2877 2887 2895 2895 2903 2916 2921 2926 2931 2936 2946 2958 2971 2976 2987 2998 3013 3024 3028 3033 3033 3033 3028 3027 3027 3027 3032 3037 3042 3045 3051 3054 3064 3072 3078 3080 3081 3086 3096 3101 3108 3113 3117 3125 3133 3142 3152 3158 3164 3164 3164 3165 3172 3179 3182 3182 3190 3191 3191 3191 3191 3191 3191 3195 3203 3211 3218 3220 3223 3230 3234 3234 3234 3231 3231 3231 3232 3233 3233 3232 3230 3229 3229 3229 3232 3238 3243 3257 3264 3264 3264 3264 3264 3268 3277 3277 3277 3274 3269 3264 3259 3244 3238 3236 3235 3233 3233 3233 3238 3238 3238 3238 3234 3228 3225 3225 3225 3225 3229 3229 3229 3230 3230 3229 3229 3229 3225 3221 3220 3219 3219 3218 3215 3214 3210 3200 3193 3189 3184 3184 3183 3182 3176 3164 3161 3157 3151 3148 3105 3065 2961 2909 2642 0 0 0 0 1320 1301 1299 1289 1279 1269 1265 1265 1265 1271 1283 1283 1283 1284 1284 1294 1298 1299 0 0 0 0 0 0 0 0 0 2545 2814 2864 2892 2904 2920 2926 2926 2926 2910 2907 2895 2889 2883 2872 2854 2815 2783 2758 2751 2741 2741 2674 2552 0 0 1948 1930 1929 1927 1924 1924 1904 1902 1878 1877 0 0 0 0 0 0 0 0 0 0 1012 1009 1007 1007 1004 1003 1003 1002 1000 999 999 998 998 998 997 996 995 994 993 992 992 991 991 990 989 988 987 987 986 985 985 984 984 983 983 982 981 980 980 979 979 977 977 976 975 975 973 972 972 971 970 969 969 968 968 967 967 966 965 965 964 964 963 962 962 960 960 960 958 958 957 956 956 955 954 953 953 952 950 950 949 949 948 947 946 946 945 944 944 943 941 941 940 940 940 938 938 937 937 936 935 935 934 934 933 932 932 932 931 930 930 930 928 928 928 927 927 926 926 925 924 924 924 924 923 923 923 923 923 923 922 922 922 926 929 937 0 0 0 0 0 0 0 1537 1542 1544 1544 1545 1546 1550 1551 1554 1557 1559 1562 1563 1565 1568 1569 1570 1573 1576 1581 1584 1586 1588 1590 1594 1594 1594 1595 1595 1595 1596 1597 1598 1598 1598 1598 1598 1598 1598 1598 1597 1596 1596 1595 1595 1594 1593 1592 1591 1590 1589 1587 1587 1585 1583 1582 1580 1577 1575 1571 1570 1567 1565 1562 1560 1557 1556 1554 1553 1552 1549 1546 1545 1545 1544 1544 1544 1546 1547 1548 1549 1549 1553 1555 1558 1562 1565 1568 1570 1572 1574 1576 1577 1578 1580 1581 1583 1584 1585 1585 1585 1585 1585 1585 1586 1586 1586 1586 1586 1586 1586 1586 1586 1586 1585 1585 1584 1584 1584 1584 1584 1585 1585 1586 1586 1586 1586 1586 1587 1588 1592 1596 1606 1620 1626 1632 1637 1645 1648 1648 1650 1650 1653 1656 1657 1657 1658 1659 1660 1661 1662 1662 1664 1664 1664 1664 1664 1664 1664 1664 1664 1665 1666 1666 1667 1667 1668 1668 1669 1671 1673 1673 1673 1672 1670 1668 1666 1666 1665 1665 1664 1663 1663 1661 1658 1653 1646 1641 1639 1636 1636 1636 1634 1633 1633
2081 2100 2125 2159 2193 2214 2230 2230 2230 2231 2231 2254 2289 2306 2313 2327 2343 2371 2375 2393 2422 2457 2489 2489 2489 2489 2488 2488 2488 2494 2516 2543 2565 2582 2586 2591 2598 2607 2610 2617 2625 2633 2647 2656 2658 2659 2660 2660 2667 2667 2667 2664 2664 2664 2680 2728 2747 2767 2768 2774 2795 2809 2815 2832 2848 2850 2855 2858 2861 2863 2865 2870 2886 2897 2905 2913 2928 2938 2947 2950 2954 2961 2971 2975 2987 3000 3010 3014 3024 3031 3033 3033 3033 3029 3029 3029 3031 3033 3037 3042 3045 3051 3058 3068 3077 3085 3091 3098 3106 3107 3111 3113 3119 3122 3130 3134 3143 3152 3158 3164 3164 3166 3167 3172 3174 3178 3185 3193 3199 3203 3203 3203 3203 3203 3203 3206 3214 3219 3221 3223 3228 3236 3236 3236 3237 3237 3239 3239 3240 3241 3241 3244 3244 3245 3246 3246 3247 3256 3266 3267 3267 3269 3270 3273 3284 3291 3291 3291 3284 3276 3269 3259 3244 3240 3240 3240 3240 3240 3240 3240 3240 3240 3238 3234 3229 3229 3229 3232 3234 3235 3235 3235 3233 3232 3232 3232 3228 3225 3221 3218 3217 3215 3215 3214 3213 3212 3209 3204 3194 3184 3183 3182 3176 3164 3163 3159 3151 3147 3137 3096 3010 2934 2676 0 0 0 0 0 1306 1301 1293 1287 1279 1269 1265 1263 1263 1263 1270 1279 1280 1281 1282 1283 1290 1295 1306 1312 1324 0 0 0 0 0 0 0 0 2671 2845 2873 2901 2904 2905 2904 2904 2886 2884 2876 2874 2869 2849 2809 2772 2747 2745 2735 2728 2649 2544 0 0 1946 1928 1923 1922 1921 1907 1904 1877 1877 0 0 0 0 0 0 0 0 0 0 1012 1009 1008 1007 1006 1006 1005 1005 1003 1000 999 999 999 999 998 997 996 996 995 994 994 993 992 991 990 989 989 988 988 987 986 986 985 984 983 983 983 982 981 980 980 979 978 977 976 975 975 975 974 973 972 970 970 969 969 968 967 967 966 965 965 965 964 964 963 962 961 961 960 959 958 957 957 956 956 955 954 953 952 952 951 950 949 949 948 947 947 945 945 944 944 943 942 942 941 940 939 939 938 937 937 936 936 936 934 934 934 933 932 932 931 931 930 929 929 929 928 927 927 926 925 925 925 924 924 923 923 923 923 923 923 922 922 922 923 928 936 947 0 0 0 0 0 0 1501 1541 1541 1542 1542 1545 1547 1550 1554 1557 1558 1559 1561 1562 1563 1566 1566 1567 1569 1573 1576 1580 1581 1584 1587 1589 1590 1591 1591 1593 1594 1594 1595 1595 1596 1596 1597 1597 1597 1597 1596 1596 1596 1596 1595 1595 1593 1593 1591 1590 1589 1588 1587 1585 1584 1583 1581 1578 1576 1574 1572 1569 1565 1563 1560 1559 1558 1555 1554 1553 1551 1547 1545 1545 1544 1544 1544 1544 1545 1546 1547 1548 1549 1552 1555 1559 1563 1564 1567 1570 1571 1574 1576 1577 1578 1579 1581 1583 1583 1584 1584 1585 1585 1585 1585 1586 1586 1586 1586 1586 1586 1586 1586 1586 1585 1585 1584 1584 1584 1584 1584 1584 1585 1585 1585 1585 1585 1585 1586 1587 1589 1591 1596 1608 1624 1627 1630 1633 1640 1643 1646 1646 1650 1654 1656 1656 1657 1658 1660 1661 1662 1662 1663 1663 1664 1664 1664 1664 1664 1664 1664 1665 1666 1667 1668 1668 1669 1669 1669 1672 1674 1674 1674 1672 1670 1668 1668 1668 1667 1666 1664 1664 1664 1661 1658 1653 1647 1642 1641 1638 1638 1637 1635 1633 1633
2081 2100 2132 2162 2195 2214 2229 2229 2230 2230 2236 2254 2289 2318 2339 2348 2359 2371 2392 2427 2462 2486 2489 2491 2495 2496 2496 2499 2503 2514 2529 2549 2569 2591 2606 2609 2610 2612 2615 2617 2625 2639 2652 2661 2669 2671 2672 2673 2677 2684 2684 2684 2687 2688 2704 2733 2747 2768 2771 2784 2795 2809 2815 2829 2834 2843 2852 2858 2861 2863 2865 2870 2886 2899 2915 2931 2948 2959 2965 2965 2966 2970 2975 2989 3003 3013 3020 3023 3025 3031 3037 3037 3037 3037 3037 3038 3039 3040 3042 3044 3050 3057 3065 3073 3082 3090 3098 3098 3106 3111 3115 3118 3122 3126 3130 3134 3142 3153 3162 3166 3166 3168 3168 3172 3174 3178 3185 3193 3203 3208 3211 3211 3211 3212 3212 3213 3217 3220 3221 3223 3227 3236 3236 3237 3237 3238 3245 3245 3245 3245 3245 3245 3246 3246 3250 3251 3254 3262 3268 3268 3270 3270 3271 3275 3284 3291 3291 3291 3291 3282 3274 3266 3255 3248 3248 3248 3249 3249 3249 3248 3245 3242 3238 3238 3234 3234 3234 3238 3239 3239 3239 3235 3233 3232 3232 3232 3227 3225 3221 3218 3217 3215 3215 3215 3218 3218 3218 3215 3194 3184 3182 3172 3167 3164 3163 3159 3151 3147 3089 3024 2961 2788 0 0 0 0 0 1312 1303 1300 1293 1286 1277 1269 1262 1261 1260 1260 1261 1269 1279 1281 1281 1281 1289 1295 1305 1311 1320 1325 1328 0 0 0 0 0 0 0 0 2763 2874 2889 2889 2882 2877 2877 2875 2875 2874 2851 2833 2794 2751 2735 2728 2720 2718 2644 2518 0 0 1939 1923 1921 1919 1915 1907 1903 1876 0 0 0 0 0 0 0 0 0 0 1011 1010 1009 1007 1007 1006 1006 1006 1005 1003 1001 1001 1000 1000 999 999 998 997 996 996 995 994 993 992 992 991 991 990 989 989 988 987 987 986 985 985 984 983 982 982 981 980 979 979 977 977 976 976 975 974 973 972 971 970 970 969 968 967 967 966 965 965 965 964 964 964 962 962 961 960 960 959 958 957 956 956 955 954 954 953 953 952 951 950 949 948 947 947 946 945 944 944 943 943 942 941 941 940 940 939 938 938 937 937 936 935 935 934 933 932 932 932 931 930 930 929 929 928 928 927 926 926 925 925 925 924 924 923 923 923 923 923 923 922 922 922 925 934 942 0 0 0 0 0 0 0 1517 1537 1538 1539 1540 1546 1550 1554 1556 1557 1557 1558 1558 1560 1562 1563 1564 1565 1566 1568 1570 1572 1574 1578 1582 1584 1584 1586 1588 1590 1590 1591 1592 1592 1594 1595 1595 1596 1596 1596 1596 1596 1595 1595 1595 1593 1593 1592 1591 1590 1589 1588 1587 1584 1584 1582 1580 1578 1576 1573 1571 1568 1564 1563 1560 1559 1557 1556 1553 1551 1549 1546 1545 1544 1544 1544 1544 1544 1545 1546 1547 1549 1550 1551 1554 1559 1562 1564 1567 1569 1571 1574 1575 1576 1578 1579 1581 1582 1583 1583 1584 1584 1585 1585 1585 1585 1585 1586 1585 1585 1585 1586 1585 1585 1585 1585 1584 1584 1584 1584 1584 1584 1584 1584 1584 1584 1584 1584 1587 1587 1589 1591 1599 1610 1621 1624 1625 1629 1634 1641 1646 1647 1651 1652 1653 1655 1656 1658 1660 1661 1661 1662 1663 1664 1664 1664 1664 1664 1664 1664 1665 1666 1667 1668 1670 1670 1671 1671 1673 1674 1674 1674 1672 1671 1668 1668 1668 1667 1666 1665 1665 1664 1661 1658 1653 1647 1644 1643 1641 1639 1637 1635 1633 1633
2089 2100 2132 2162 2197 2216 2229 2229 2230 2230 2236 2259 2289 2318 2343 2364 2371 2389 2414 2438 2476 2486 2495 2495 2496 2498 2502 2520 2525 2539 2552 2568 2593 2612 2628 2628 2628 2622 2622 2622 2628 2640 2652 2661 2669 2672 2682 2683 2684 2689 2695 2699 2707 2710 2719 2734 2747 2768 2771 2784 2795 2809 2816 2829 2834 2843 2851 2855 2861 2863 2865 2870 2886 2899 2922 2947 2967 2973 2973 2975 2975 2976 2988 3001 3014 3021 3024 3026 3028 3031 3038 3039 3039 3040 3046 3046 3047 3047 3047 3051 3056 3062 3065 3073 3087 3097 3098 3100 3106 3111 3116 3119 3122 3126 3131 3134 3142 3155 3167 3172 3172 3173 3174 3174 3174 3178 3185 3194 3203 3211 3217 3217 3217 3218 3218 3218 3220 3221 3222 3226 3227 3233 3236 3237 3237 3238 3247 3249 3249 3249 3246 3246 3246 3248 3251 3253 3260 3264 3268 3270 3271 3272 3275 3275 3284 3291 3291 3291 3291 3282 3274 3266 3265 3265 3264 3262 3262 3259 3259 3256 3252 3245 3245 3240 3235 3235 3235 3241 3242 3242 3242 3238 3233 3232 3232 3223 3220 3220 3219 3218 3217 3215 3215 3215 3218 3218 3218 3215 3194 3174 3170 3167 3163 3163 3159 3155 3146 3116 3084 3005 2919 0 0 0 0 0 0 1309 1303 1300 1287 1282 1274 1269 1262 1260 1260 1260 1260 1262 1271 1275 1275 1276 1285 1295 1305 1305 1314 1321 1322 1325 1328 1334 1336 0 0 0 0 0 2651 2860 2862 2862 2862 2860 2860 2859 2853 2838 2819 2766 2725 2705 2700 2693 2679 2629 0 0 0 1938 1920 1919 1918 1912 1907 1880 0 0 0 0 0 0 0 0 0 0 1014 1011 1010 1009 1008 1007 1007 1007 1006 1005 1004 1003 1002 1001 1001 1000 1000 999 998 997 997 995 995 994 993 993 992 992 991 991 990 989 988 988 987 986 986 985 983 983 982 982 981 979 979 978 977 977 976 975 975 974 973 972 972 970 969 969 968 968 967 966 966 966 965 964 964 963 962 961 961 961 959 958 958 957 956 956 955 954 954 953 952 951 951 949 949 948 947 946 946 945 944 943 943 943 942 942 942 941 940 940 939 939 938 937 936 936 935 934 933 933 932 932 930 930 929 929 928 928 927 927 926 925 925 925 924 924 924 923 923 923 923 923 922 922 922 924 924 935 941 0 0 0 0 0 0 1505 1528 1531 1535 1536 1544 1549 1553 1554 1555 1556 1556 1557 1557 1558 1558 1561 1562 1564 1564 1565 1565 1568 1569 1573 1577 1580 1581 1583 1585 1587 1587 1589 1590 1591 1593 1594 1594 1594 1594 1595 1595 1595 1595 1594 1593 1593 1592 1592 1591 1590 1588 1587 1587 1584 1583 1582 1580 1578 1575 1572 1569 1567 1564 1563 1562 1560 1557 1555 1552 1550 1549 1546 1545 1544 1543 1543 1543 1544 1545 1546 1548 1548 1550 1553 1556 1559 1563 1565 1567 1569 1571 1573 1574 1576 1578 1579 1581 1582 1582 1583 1584 1584 1584 1584 1585 1585 1585 1585 1585 1585 1585 1585 1585 1585 1585 1584 1584 1584 1584 1584 1584 1583 1583 1582 1582 1582 1583 1584 1587 1589 1591 1594 1602 1611 1618 1618 1619 1624 1633 1642 1644 1648 1650 1652 1653 1656 1657 1659 1659 1659 1660 1662 1663 1663 1663 1663 1663 1663 1664 1665 1667 1667 1668 1670 1671 1674 1675 1676 1676 1676 1674 1672 1671 1669 1668 1668 1667 1666 1666 1666 1663 1660 1657 1653 1647 1644 1643 1641 1639 1637 1635 1633 1633
2103 2119 2149 2162 2197 2216 2229 2230 2231 2238 2244 2259 2289 2320 2345 2366 2380 2397 2415 2442 2476 2486 2495 2495 2496 2498 2505 2522 2536 2551 2575 2590 2609 2627 2637 2637 2637 2630 2630 2630 2631 2640 2652 2661 2669 2674 2687 2690 2690 2694 2710 2715 2730 2735 2735 2736 2742 2756 2771 2784 2795 2807 2822 2829 2834 2842 2849 2854 2861 2865 2877 2887 2899 2916 2934 2953 2968 2977 2979 2979 2981 2986 2990 3001 3017 3021 3029 3029 3030 3031 3039 3041 3042 3044 3047 3049 3049 3049 3051 3055 3061 3062 3065 3073 3087 3097 3097 3100 3102 3111 3116 3123 3128 3130 3132 3135 3142 3155 3168 3176 3177 3177 3178 3178 3179 3186 3192 3200 3208 3216 3223 3223 3223 3222 3222 3222 3222 3225 3225 3226 3227 3233 3235 3235 3236 3239 3248 3250 3250 3250 3246 3246 3246 3251 3254 3257 3263 3264 3268 3270 3271 3275 3275 3275 3276 3282 3290 3290 3290 3282 3274 3267 3267 3267 3267 3267 3267 3267 3263 3259 3253 3251 3250 3246 3241 3241 3241 3243 3245 3245 3245 3238 3236 3221 3216 3213 3213 3213 3217 3217 3217 3215 3215 3215 3218 3218 3218 3215 3188 3164 3155 3154 3154 3153 3152 3146 3121 3105 3018 3000 2718 0 0 0 0 0 1304 1303 1301 1297 1287 1272 1270 1267 1262 1259 1258 1255 1255 1255 1258 1267 1271 1272 1278 1285 1292 1299 1310 1321 1322 1325 1326 1330 1331 0 0 0 0 0 0 2557 2802 2806 2818 2850 2850 2850 2840 2811 2783 2753 2722 2678 2662 2657 2640 2537 0 0 0 1923 1918 1917 1915 1906 0 0 0 0 0 0 0 0 0 0 1023 1016 1014 1011 1010 1010 1008 1007 1007 1007 1007 1006 1004 1003 1002 1002 1002 1001 1000 999 998 997 997 996 995 994 994 993 993 992 992 991 990 990 989 988 988 987 986 985 984 984 983 983 981 980 980 979 978 977 976 975 975 975 974 973 972 971 970 970 969 969 968 968 966 966 966 964 964 963 962 962 961 961 960 959 958 957 957 956 955 954 954 953 952 952 951 950 949 949 948 947 946 946 945 944 944 944 943 943 942 942 941 940 940 939 939 938 938 936 935 935 934 933 933 932 931 930 930 929 928 928 927 927 927 926 926 925 925 924 924 924 924 923 923 923 922 922 922 923 924 924 927 0 0 0 0 0 0 0 1501 1527 1528 1532 1537 1543 1549 1554 1554 1554 1555 1555 1555 1557 1557 1557 1559 1561 1562 1562 1563 1563 1564 1567 1570 1573 1575 1579 1581 1583 1585 1586 1588 1589 1591 1592 1592 1593 1593 1593 1593 1593 1593 1593 1593 1593 1592 1592 1591 1590 1590 1589 1587 1587 1585 1583 1581 1579 1577 1575 1571 1569 1567 1565 1564 1562 1559 1556 1553 1551 1550 1548 1546 1545 1544 1544 1544 1544 1544 1546 1546 1547 1549 1552 1555 1559 1561 1563 1565 1567 1569 1571 1573 1574 1576 1578 1580 1581 1581 1583 1583 1583 1584 1584 1584 1584 1584 1584 1584 1585 1585 1585 1585 1585 1585 1584 1584 1584 1584 1584 1584 1583 1583 1582 1582 1582 1583 1584 1584 1587 1590 1593 1595 1602 1612 1615 1618 1621 1629 1637 1643 1646 1649 1650 1653 1655 1657 1657 1657 1657 1659 1660 1662 1663 1663 1663 1663 1663 1664 1665 1667 1667 1668 1670 1671 1674 1675 1676 1676 1676 1675 1675 1672 1670 1670 1668 1667 1667 1666 1666 1664 1659 1656 1651 1647 1644 1643 1641 1639 1636 1633 1632 1632
2108 2120 2150 2189 2217 2226 2230 2233 2247 2259 2270 2274 2289 2320 2351 2369 2388 2401 2419 2442 2476 2480 2495 2495 2498 2500 2510 2522 2536 2551 2575 2605 2623 2639 2639 2639 2639 2630 2630 2630 2631 2640 2645 2657 2670 2678 2691 2701 2708 2714 2719 2734 2753 2753 2753 2753 2753 2756 2765 2778 2795 2807 2822 2830 2832 2840 2848 2854 2857 2866 2883 2902 2919 2934 2946 2955 2968 2978 2979 2982 2982 2987 2990 3001 3017 3023 3029 3031 3032 3032 3039 3042 3045 3048 3049 3050 3051 3051 3055 3061 3061 3062 3062 3067 3087 3087 3091 3097 3100 3104 3118 3128 3136 3137 3138 3140 3143 3157 3170 3177 3178 3179 3181 3183 3185 3191 3198 3202 3208 3216 3223 3226 3227 3227 3227 3227 3227 3227 3227 3227 3227 3230 3230 3233 3236 3240 3249 3251 3251 3251 3246 3246 3246 3251 3259 3265 3265 3267 3267 3270 3275 3275 3275 3275 3275 3275 3279 3279 3279 3277 3269 3267 3267 3267 3269 3269 3269 3268 3265 3262 3259 3259 3256 3253 3248 3243 3243 3243 3245 3245 3245 3238 3228 3221 3213 3211 3211 3211 3217 3217 3217 3216 3215 3215 3216 3215 3215 3215 3182 3164 3154 3153 3145 3141 3141 3110 3066 3025 3013 2862 0 0 0 0 0 1305 1299 1299 1299 1294 1283 1270 1262 1260 1256 1254 1252 1250 1248 1248 1248 1254 1263 1268 1270 1276 1287 1296 1303 1311 1316 1322 1323 1323 1323 1323 0 0 0 0 0 0 0 2690 2791 2793 2826 2826 2826 2808 2783 2744 2700 2670 2642 2613 2589 0 0 0 0 1918 1915 1914 1907 1897 0 0 0 0 0 0 0 0 0 1025 1018 1016 1014 1012 1012 1011 1008 1008 1007 1007 1007 1006 1004 1004 1003 1002 1002 1001 1000 1000 999 998 997 997 996 996 995 994 994 993 993 992 992 991 990 990 988 988 987 986 985 985 983 983 982 981 980 979 978 977 977 976 975 975 974 973 972 972 971 971 969 969 969 968 967 967 966 965 964 964 963 963 962 961 960 959 959 958 957 957 956 956 955 954 953 952 951 950 950 949 948 947 947 947 946 946 944 944 944 943 943 943 942 941 941 940 940 940 939 937 937 936 935 934 933 933 931 931 930 929 929 928 927 927 927 926 926 926 925 925 924 924 924 923 923 923 923 924 924 924 924 924 924 927 0 0 0 0 0 0 0 1514 1526 1527 1533 1543 1549 1553 1553 1553 1553 1553 1554 1555 1555 1557 1557 1558 1559 1560 1561 1561 1562 1563 1564 1567 1570 1572 1577 1580 1584 1584 1584 1588 1589 1591 1591 1592 1592 1592 1592 1592 1592 1592 1592 1592 1591 1591 1591 1590 1590 1589 1588 1587 1586 1584 1582 1580 1579 1576 1574 1571 1569 1567 1566 1563 1561 1558 1556 1554 1552 1551 1548 1546 1545 1544 1544 1544 1544 1545 1546 1547 1548 1551 1553 1556 1560 1562 1563 1565 1567 1569 1570 1572 1574 1576 1578 1580 1581 1582 1582 1583 1583 1583 1584 1584 1584 1584 1584 1584 1585 1585 1585 1585 1584 1584 1584 1584 1584 1584 1583 1583 1582 1582 1582 1582 1582 1583 1583 1585 1590 1592 1593 1598 1605 1614 1617 1621 1627 1636 1642 1643 1646 1648 1651 1654 1655 1655 1655 1656 1656 1659 1662 1662 1662 1662 1662 1663 1663 1665 1666 1667 1667 1669 1671 1674 1675 1676 1676 1676 1675 1675 1673 1672 1670 1668 1667 1667 1667 1666 1664 1659 1654 1651 1647 1644 1641 1637 1636 1635 1631 1629 1629
2109 2141 2188 2223 2226 2234 2235 2238 2252 2269 2278 2288 2299 2320 2354 2386 2410 2420 2426 2439 2456 2463 2477 2489 2494 2503 2511 2526 2536 2551 2575 2605 2629 2643 2643 2643 2640 2633 2632 2632 2632 2641 2645 2657 2670 2679 2701 2719 2731 2745 2750 2769 2772 2772 2772 2756 2756 2756 2765 2778 2795 2807 2826 2831 2832 2833 2837 2839 2855 2866 2887 2911 2929 2948 2951 2957 2970 2979 2980 2982 2983 2988 2995 3003 3017 3024 3029 3031 3034 3034 3039 3043 3050 3051 3051 3052 3053 3053 3060 3062 3062 3063 3063 3067 3078 3086 3086 3089 3091 3104 3118 3131 3142 3143 3145 3147 3150 3162 3172 3177 3178 3179 3183 3187 3188 3194 3198 3202 3208 3216 3223 3226 3228 3230 3233 3233 3233 3233 3229 3229 3229 3230 3230 3233 3236 3246 3258 3259 3259 3259 3248 3248 3248 3253 3262 3268 3268 3268 3270 3270 3277 3277 3277 3275 3273 3272 3272 3272 3272 3271 3267 3267 3267 3269 3270 3270 3270 3270 3267 3264 3263 3262 3261 3259 3253 3247 3247 3247 3245 3245 3245 3238 3228 3220 3213 3211 3211 3211 3214 3214 3216 3216 3214 3210 3210 3210 3203 3203 3182 3164 3148 3143 3137 3137 3118 3094 3018 3006 2978 2653 0 0 0 0 0 1299 1297 1295 1292 1287 1276 1263 1254 1253 1252 1251 1249 1246 1243 1239 1239 1239 1247 1256 1259 1263 1276 1292 1302 1308 1315 1318 1318 1321 1322 1322 1328 1329 0 0 0 0 0 0 2649 2748 2788 2805 2805 2805 2765 2731 2698 2667 2640 2607 2550 0 0 0 0 0 1896 1894 1886 0 0 0 0 0 0 0 0 0 1022 1017 1017 1016 1014 1013 1012 1011 1011 1010 1009 1008 1007 1006 1004 1004 1003 1003 1002 1002 1001 1001 1000 999 998 998 997 997 996 995 994 994 993 993 993 992 991 991 990 989 988 987 986 985 984 984 983 982 981 979 979 978 977 977 976 976 974 974 973 973 972 972 970 970 970 968 967 967 967 965 965 964 963 963 962 962 960 960 959 958 958 958 957 956 955 954 953 953 952 951 951 950 949 949 948 948 947 947 946 945 945 944 944 943 943 942 942 941 941 941 939 938 937 937 935 935 934 933 932 931 931 930 929 929 928 928 927 927 927 926 925 925 925 925 924 924 924 924 924 924 924 924 924 924 924 927 0 0 0 0 0 0 0 1513 1526 1526 1533 1543 1549 1550 1552 1552 1552 1552 1554 1555 1555 1555 1556 1556 1556 1557 1557 1559 1560 1560 1562 1562 1564 1568 1572 1576 1577 1581 1582 1583 1587 1588 1589 1590 1590 1590 1591 1591 1591 1591 1591 1591 1591 1591 1591 1590 1590 1589 1589 1588 1586 1586 1584 1582 1581 1578 1575 1573 1572 1570 1568 1565 1563 1560 1558 1556 1554 1551 1550 1547 1546 1544 1544 1544 1544 1544 1544 1545 1547 1549 1552 1554 1556 1559 1561 1564 1565 1567 1569 1569 1572 1574 1576 1578 1580 1581 1581 1582 1582 1583 1583 1583 1584 1584 1584 1584 1584 1584 1584 1584 1584 1584 1584 1584 1584 1584 1583 1582 1582 1582 1582 1582 1582 1582 1583 1585 1586 1587 1590 1595 1600 1608 1615 1621 1626 1632 1637 1639 1643 1645 1648 1652 1652 1652 1653 1653 1655 1658 1661 1662 1662 1662 1662 1663 1663 1665 1666 1666 1666 1666 1669 1673 1675 1676 1676 1676 1675 1675 1673 1672 1670 1668 1667 1667 1667 1666 1664 1659 1654 1651 1646 1644 1641 1637 1633 1631 1629 1627 1627
2111 2153 2205 2223 2229 2234 2236 2241 2256 2278 2291 2304 2318 2338 2374 2386 2410 2420 2427 2442 2453 2463 2477 2489 2494 2507 2514 2526 2536 2551 2571 2605 2629 2645 2645 2645 2639 2637 2637 2637 2638 2641 2645 2657 2671 2693 2717 2736 2745 2746 2755 2771 2790 2790 2790 2770 2765 2765 2765 2778 2795 2818 2828 2832 2833 2833 2837 2839 2855 2871 2902 2924 2939 2953 2955 2957 2970 2979 2982 2983 2989 2991 2995 3003 3017 3024 3030 3033 3034 3034 3039 3046 3050 3052 3053 3054 3054 3060 3063 3063 3063 3063 3063 3067 3078 3086 3086 3089 3091 3104 3120 3137 3151 3151 3154 3157 3157 3165 3173 3177 3179 3179 3183 3188 3193 3195 3200 3205 3206 3210 3217 3222 3229 3235 3239 3239 3239 3236 3232 3230 3230 3230 3230 3233 3242 3255 3259 3260 3260 3260 3255 3254 3254 3254 3263 3268 3268 3269 3270 3270 3278 3278 3278 3278 3273 3272 3272 3272 3272 3271 3267 3267 3267 3269 3271 3271 3271 3271 3267 3264 3264 3264 3264 3261 3255 3249 3243 3243 3243 3243 3243 3239 3228 3220 3211 3211 3211 3211 3211 3214 3214 3214 3205 3199 3199 3199 3189 3189 3182 3164 3147 3128 3120 3112 3080 3067 2989 2918 2743 0 0 0 0 0 1296 1295 1295 1291 1287 1278 1269 1256 1251 1247 1247 1247 1245 1244 1239 1234 1232 1232 1232 1235 1243 1254 1265 1285 1296 1298 1307 1315 1316 1316 1320 1317 1317 1318 1319 0 0 0 0 0 0 2677 2741 2791 2791 2791 2765 2726 2696 2663 2628 2600 2513 0 0 0 0 0 0 0 0 0 0 0 0 0 0 0 0 1020 1017 1016 1016 1016 1014 1013 1013 1012 1011 1011 1010 1009 1007 1007 1006 1005 1004 1004 1003 1002 1002 1001 1001 1000 1000 999 998 997 997 996 995 995 994 994 993 993 992 991 990 990 989 988 987 986 985 984 983 983 981 980 979 979 978 978 977 977 975 974 974 974 973 972 972 972 970 968 968 967 967 966 965 965 963 963 962 962 962 961 960 960 959 959 957 957 956 955 954 953 953 952 952 951 951 949 949 948 947 947 947 946 946 945 945 945 944 943 943 942 941 941 940 940 938 937 936 935 934 933 932 931 931 930 930 929 929 928 928 928 927 927 926 926 925 925 925 924 924 924 924 924 924 924 924 924 924 927 930 0 0 0 0 0 0 0 1522 1523 1532 1543 1549 1550 1550 1552 1552 1552 1553 1553 1554 1554 1555 1555 1555 1555 1555 1555 1557 1559 1559 1559 1560 1560 1564 1568 1572 1574 1577 1581 1582 1584 1586 1587 1588 1588 1588 1589 1590 1590 1590 1590 1590 1590 1590 1590 1590 1589 1589 1588 1587 1587 1585 1583 1581 1580 1578 1576 1573 1571 1570 1567 1565 1562 1561 1558 1556 1554 1551 1548 1546 1545 1545 1544 1544 1544 1544 1544 1545 1548 1550 1551 1554 1554 1556 1559 1562 1564 1566 1568 1570 1571 1573 1576 1579 1580 1580 1581 1581 1581 1582 1582 1583 1583 1583 1583 1584 1584 1584 1584 1584 1584 1584 1584 1584 1583 1583 1582 1582 1581 1581 1581 1582 1582 1582 1582 1586 1586 1586 1590 1598 1603 1612 1618 1622 1626 1632 1635 1637 1638 1642 1648 1648 1649 1651 1651 1652 1657 1659 1661 1661 1662 1662 1663 1663 1664 1664 1665 1665 1666 1668 1670 1672 1672 1673 1673 1673 1673 1673 1672 1670 1668 1667 1667 1667 1666 1664 1659 1654 1650 1646 1643 1640 1635 1633 1631 1628 1627 1627
2127 2175 2205 2223 2232 2234 2236 2241 2273 2292 2311 2329 2350 2363 2386 2392 2410 2420 2427 2439 2453 2463 2477 2489 2494 2509 2520 2526 2536 2551 2568 2605 2629 2645 2645 2645 2643 2643 2643 2648 2650 2653 2660 2675 2692 2712 2732 2740 2746 2746 2755 2771 2790 2790 2790 2783 2781 2781 2781 2792 2810 2829 2832 2833 2836 2836 2837 2839 2855 2882 2920 2944 2954 2958 2959 2962 2971 2979 2983 2986 2995 2995 2998 3006 3017 3028 3033 3038 3038 3038 3048 3051 3052 3052 3054 3058 3059 3063 3067 3067 3067 3068 3068 3068 3078 3086 3089 3093 3102 3115 3129 3142 3155 3158 3158 3159 3164 3170 3175 3177 3179 3180 3184 3188 3193 3196 3201 3205 3206 3210 3217 3222 3229 3236 3242 3242 3242 3239 3236 3233 3233 3233 3235 3240 3244 3255 3259 3262 3262 3262 3259 3258 3258 3258 3265 3269 3273 3273 3273 3273 3279 3284 3284 3284 3281 3274 3273 3272 3272 3271 3267 3267 3267 3269 3273 3274 3274 3274 3270 3269 3266 3266 3266 3266 3266 3263 3252 3244 3244 3242 3241 3236 3228 3220 3209 3208 3207 3207 3206 3206 3204 3198 3184 3183 3183 3184 3182 3182 3182 3164 3140 3105 3084 3044 3000 2939 2900 2595 0 0 0 0 0 0 1294 1291 1291 1289 1279 1269 1258 1251 1248 1243 1242 1240 1239 1237 1232 1227 1226 1226 1226 1229 1235 1241 1251 1267 1283 1293 1297 1306 1315 1317 1317 1317 1317 1316 1316 1318 0 0 0 0 0 0 2652 2745 2762 2762 2762 2724 2691 2662 2624 2565 0 0 0 0 0 0 0 0 0 0 0 0 0 0 0 0 1023 1020 1016 1016 1016 1016 1014 1013 1013 1012 1012 1011 1010 1009 1008 1007 1006 1006 1005 1004 1004 1004 1003 1002 1002 1001 1000 1000 999 998 997 997 996 996 995 994 994 994 993 992 991 991 990 989 988 987 986 985 984 983 982 980 980 979 979 979 978 977 976 975 975 974 974 974 972 972 971 969 968 967 967 966 965 965 964 963 963 962 962 961 961 960 959 959 958 957 956 955 955 954 953 953 953 951 951 950 950 949 949 948 948 947 947 946 946 946 945 945 944 944 943 941 940 940 939 937 937 936 935 934 933 932 932 930 930 930 930 929 928 928 928 927 927 927 926 925 925 925 925 924 924 924 924 924 924 924 924 926 929 940 0 0 0 0 0 0 0 0 1532 1543 1549 1549 1549 1550 1550 1550 1551 1553 1554 1554 1555 1555 1555 1555 1555 1555 1555 1555 1556 1556 1557 1557 1557 1558 1561 1566 1570 1573 1574 1579 1580 1583 1585 1585 1585 1587 1589 1589 1589 1589 1589 1589 1590 1590 1590 1589 1588 1588 1587 1587 1585 1584 1582 1580 1579 1576 1575 1573 1571 1569 1567 1565 1563 1561 1559 1557 1554 1551 1549 1548 1546 1546 1545 1544 1544 1544 1545 1546 1548 1550 1551 1553 1554 1555 1558 1562 1563 1565 1568 1569 1571 1573 1576 1578 1578 1579 1580 1580 1581 1581 1581 1582 1583 1583 1583 1583 1583 1583 1584 1584 1584 1584 1583 1583 1583 1582 1581 1581 1581 1581 1582 1582 1582 1582 1585 1585 1586 1590 1596 1601 1608 1615 1617 1621 1624 1630 1631 1634 1638 1643 1645 1645 1646 1647 1650 1654 1656 1659 1660 1660 1661 1661 1662 1662 1664 1664 1664 1665 1667 1668 1668 1669 1670 1672 1672 1672 1672 1671 1670 1668 1667 1667 1667 1666 1664 1659 1655 1650 1646 1641 1637 1633 1632 1630 1628 1627 1627
2135 2175 2205 2222 2234 2236 2241 2273 2303 2316 2332 2356 2383 2392 2393 2393 2419 2428 2434 2439 2453 2464 2480 2492 2503 2515 2527 2537 2547 2553 2568 2578 2605 2638 2638 2638 2638 2638 2645 2654 2657 2658 2661 2675 2692 2714 2732 2741 2750 2753 2759 2771 2791 2794 2796 2796 2796 2796 2800 2811 2830 2847 2849 2851 2851 2855 2856 2865 2882 2898 2926 2948 2958 2966 2972 2978 2982 2984 2985 2991 2997 3001 3007 3012 3023 3038 3047 3047 3048 3050 3054 3054 3054 3055 3055 3060 3062 3068 3074 3077 3080 3084 3086 3088 3089 3093 3102 3109 3114 3123 3133 3143 3155 3160 3160 3162 3166 3173 3176 3179 3179 3183 3186 3191 3193 3197 3204 3205 3206 3210 3217 3222 3232 3237 3242 3243 3243 3243 3243 3243 3240 3240 3240 3243 3247 3255 3259 3261 3262 3262 3262 3262 3266 3267 3269 3275 3278 3280 3281 3281 3281 3287 3287 3287 3286 3285 3280 3276 3273 3273 3271 3270 3270 3271 3275 3276 3276 3276 3276 3273 3270 3270 3270 3275 3275 3275 3263 3242 3239 3237 3236 3231 3226 3220 3208 3201 3198 3191 3184 3177 3177 3167 3158 3134 3132 3132 3132 3141 3141 3141 3109 3072 3037 2980 2921 2858 2802 0 0 0 0 0 0 1297 1292 1291 1285 1279 1268 1262 1254 1249 1245 1241 1238 1234 1229 1227 1225 1223 1222 1222 1222 1225 1229 1239 1245 1252 1267 1286 1293 1299 1314 1316 1316 1316 1315 1313 1313 1315 1323 0 0 0 0 0 0 2682 2734 2734 2734 2680 2655 2632 2585 2514 0 0 0 0 0 0 0 0 0 0 0 0 0 0 0 1027 1022 1019 1016 1016 1016 1016 1015 1013 1013 1013 1012 1011 1010 1009 1009 1008 1007 1007 1006 1005 1005 1005 1004 1003 1003 1003 1001 1001 1000 999 999 998 997 996 995 995 995 994 993 993 992 992 991 989 989 988 987 987 985 984 983 981 980 980 980 980 979 978 977 977 977 976 975 974 973 972 971 970 969 968 968 966 966 965 965 964 964 963 962 962 961 961 960 959 959 958 957 956 956 955 955 954 953 953 952 951 950 950 949 949 949 948 948 947 947 946 946 946 945 945 944 942 942 941 940 938 938 937 935 935 934 933 932 931 931 930 930 930 929 929 928 928 928 927 927 926 926 925 925 925 925 924 924 924 924 924 924 926 928 933 943 0 0 0 0 0 0 0 0 1540 1543 1547 1547 1548 1548 1550 1551 1552 1553 1555 1555 1555 1555 1555 1555 1555 1554 1554 1554 1554 1554 1554 1554 1556 1556 1559 1562 1564 1568 1575 1577 1579 1580 1580 1582 1583 1586 1586 1586 1586 1586 1588 1588 1589 1589 1589 1588 1588 1587 1587 1585 1585 1583 1582 1581 1579 1578 1575 1574 1572 1569 1567 1566 1564 1562 1560 1558 1554 1551 1549 1548 1547 1546 1546 1545 1545 1545 1545 1546 1548 1549 1550 1552 1553 1554 1558 1561 1564 1566 1568 1570 1571 1572 1575 1576 1577 1578 1578 1580 1580 1580 1582 1582 1582 1582 1582 1583 1583 1583 1583 1583 1583 1583 1583 1583 1582 1581 1581 1581 1581 1581 1581 1582 1582 1583 1585 1586 1590 1594 1599 1608 1613 1615 1615 1620 1625 1630 1631 1635 1638 1641 1642 1642 1644 1648 1652 1655 1657 1659 1660 1660 1661 1662 1662 1662 1662 1662 1664 1665 1666 1666 1667 1668 1670 1670 1670 1670 1670 1669 1668 1667 1667 1666 1665 1663 1658 1655 1650 1645 1641 1636 1632 1630 1629 1627 1626 1626
2141 2175 2200 2221 2234 2242 2257 2284 2303 2316 2332 2356 2383 2392 2393 2393 2419 2428 2434 2447 2464 2483 2493 2507 2517 2525 2534 2544 2555 2562 2568 2578 2603 2615 2633 2633 2637 2638 2645 2655 2658 2662 2668 2679 2697 2714 2732 2741 2750 2753 2759 2771 2791 2799 2800 2817 2820 2828 2828 2832 2848 2864 2868 2870 2872 2878 2884 2893 2899 2910 2929 2955 2969 2978 2986 2989 2993 2994 2994 2996 3003 3009 3018 3021 3033 3050 3057 3061 3061 3061 3059 3058 3058 3058 3059 3064 3069 3074 3080 3084 3087 3093 3098 3102 3108 3112 3116 3119 3119 3123 3135 3146 3157 3164 3164 3164 3169 3175 3179 3182 3187 3191 3192 3195 3197 3206 3214 3214 3214 3216 3220 3226 3235 3240 3246 3249 3250 3251 3251 3251 3249 3245 3245 3245 3253 3258 3259 3261 3262 3262 3265 3269 3274 3278 3280 3283 3284 3284 3284 3285 3286 3287 3287 3287 3286 3285 3282 3280 3277 3275 3274 3271 3271 3271 3275 3277 3277 3277 3276 3274 3272 3272 3272 3275 3275 3275 3263 3242 3237 3236 3236 3228 3211 3202 3188 3173 3153 3137 3136 3136 3131 3113 3094 3089 3076 3076 3076 3078 3078 3078 3063 3010 2958 2919 2876 2756 0 0 0 0 0 0 1305 1297 1291 1286 1285 1274 1266 1261 1254 1248 1244 1240 1235 1229 1225 1225 1225 1223 1221 1220 1219 1219 1219 1227 1239 1246 1259 1282 1291 1299 1308 1316 1316 1316 1314 1313 1313 1314 1314 1321 0 0 0 0 0 0 2573 2637 2637 2637 2607 2578 2557 0 0 0 0 0 0 0 0 0 0 0 0 0 0 0 1027 1024 1022 1019 1017 1016 1016 1016 1015 1014 1014 1013 1012 1011 1011 1010 1009 1008 1008 1007 1007 1006 1006 1006 1005 1004 1004 1003 1002 1001 1000 1000 999 998 998 997 997 997 996 996 995 994 993 993 992 990 989 989 988 987 985 984 983 982 982 982 981 981 980 978 978 978 977 976 975 974 973 972 971 971 969 969 968 967 966 966 965 965 964 964 963 962 962 961 960 960 959 959 958 957 957 956 955 955 954 953 953 952 951 950 950 950 949 949 948 948 947 947 947 946 945 945 945 943 942 942 941 939 938 937 936 935 935 933 932 932 932 931 930 930 930 929 928 928 928 927 927 926 926 925 925 925 925 925 924 924 923 923 923 926 928 932 937 944 0 0 0 0 0 0 0 0 1528 1539 1545 1546 1547 1550 1551 1551 1553 1555 1556 1556 1556 1556 1555 1554 1554 1553 1553 1552 1552 1552 1552 1554 1554 1555 1555 1558 1564 1568 1570 1572 1573 1576 1577 1580 1582 1583 1583 1583 1583 1586 1587 1587 1588 1588 1588 1588 1587 1587 1585 1585 1584 1583 1583 1581 1579 1577 1576 1574 1572 1570 1568 1566 1564 1562 1560 1558 1554 1551 1550 1549 1548 1548 1547 1545 1545 1545 1546 1546 1546 1548 1549 1550 1552 1553 1559 1562 1565 1566 1567 1568 1570 1572 1574 1575 1577 1578 1578 1579 1580 1581 1581 1581 1582 1582 1582 1582 1582 1582 1582 1582 1582 1582 1582 1582 1581 1581 1581 1581 1581 1581 1581 1582 1583 1585 1586 1590 1593 1596 1605 1612 1612 1612 1617 1622 1627 1629 1632 1634 1636 1637 1638 1641 1644 1649 1653 1656 1657 1657 1658 1659 1659 1660 1660 1660 1660 1661 1663 1663 1664 1664 1666 1668 1668 1668 1668 1668 1668 1667 1666 1666 1664 1662 1659 1657 1655 1650 1645 1640 1635 1629 1629 1628 1627 1626 1626
2141 2172 2197 2215 2226 2242 2257 2284 2303 2316 2332 2356 2383 2391 2393 2393 2419 2429 2445 2452 2467 2488 2509 2522 2530 2536 2541 2549 2562 2567 2568 2578 2601 2612 2631 2633 2637 2638 2648 2656 2661 2664 2674 2684 2698 2715 2732 2740 2746 2753 2759 2771 2791 2800 2822 2846 2846 2847 2850 2850 2867 2880 2880 2881 2883 2885 2887 2901 2906 2913 2932 2955 2969 2979 2989 2989 2994 2994 2994 2998 3005 3015 3019 3030 3046 3063 3070 3070 3070 3064 3060 3060 3060 3063 3065 3071 3076 3080 3082 3085 3088 3095 3106 3113 3116 3122 3122 3122 3124 3124 3135 3146 3157 3164 3166 3169 3171 3177 3179 3184 3192 3199 3201 3206 3211 3218 3224 3224 3224 3224 3226 3231 3235 3241 3249 3253 3255 3261 3261 3261 3249 3247 3247 3247 3253 3258 3259 3261 3262 3263 3266 3271 3280 3284 3288 3288 3288 3285 3285 3285 3286 3287 3287 3287 3286 3285 3283 3281 3277 3275 3274 3273 3273 3273 3275 3277 3277 3277 3276 3275 3273 3273 3273 3275 3275 3275 3263 3242 3239 3237 3235 3228 3208 3177 3143 3121 3102 3089 3089 3089 3089 3043 3021 3016 2999 2999 2999 3026 3050 3050 3050 2944 2862 2850 2797 0 0 0 0 0 0 1300 1299 1296 1291 1285 1282 1274 1266 1260 1253 1247 1243 1240 1233 1228 1224 1222 1222 1221 1218 1216 1216 1216 1217 1226 1235 1241 1250 1264 1286 1298 1306 1313 1314 1314 1314 1314 1314 1314 1314 1314 1321 0 0 0 0 0 0 0 2530 2535 2535 2530 0 0 0 0 0 0 0 0 0 0 0 0 0 0 0 1030 1027 1024 1022 1020 1018 1017 1017 1017 1016 1016 1015 1014 1012 1011 1011 1010 1010 1009 1008 1008 1007 1007 1007 1006 1006 1005 1004 1004 1002 1002 1001 1000 1000 999 999 998 998 997 997 996 996 995 994 994 993 991 990 989 988 987 986 984 984 983 983 983 983 982 981 980 978 978 978 977 975 974 973 972 971 971 969 969 969 968 966 966 965 965 964 964 963 963 962 962 961 961 960 960 959 959 957 957 956 956 955 954 954 953 952 952 951 951 950 950 949 949 949 949 948 947 947 946 945 943 943 942 941 941 939 938 938 936 935 934 934 933 932 932 931 930 930 930 929 928 928 928 927 926 926 926 926 926 925 925 925 924 923 923 923 925 925 928 934 939 958 0 0 0 0 0 0 0 1517 1529 1543 1546 1547 1550 1551 1551 1553 1555 1556 1556 1556 1556 1555 1555 1554 1553 1553 1552 1552 1552 1552 1552 1553 1553 1554 1554 1557 1561 1565 1566 1568 1571 1573 1573 1576 1578 1579 1581 1582 1583 1585 1585 1586 1586 1586 1586 1586 1586 1585 1585 1584 1583 1583 1581 1580 1578 1576 1575 1573 1572 1570 1568 1565 1565 1562 1560 1557 1554 1552 1551 1549 1549 1548 1547 1547 1545 1545 1545 1546 1546 1547 1548 1549 1552 1557 1559 1562 1563 1565 1566 1568 1569 1572 1574 1575 1576 1577 1577 1579 1580 1580 1581 1581 1581 1582 1582 1582 1582 1582 1582 1581 1581 1581 1581 1581 1580 1580 1580 1581 1581 1582 1582 1583 1585 1587 1589 1591 1595 1603 1606 1609 1611 1616 1621 1623 1627 1628 1630 1633 1633 1635 1636 1640 1645 1649 1653 1653 1653 1654 1655 1656 1657 1657 1658 1658 1658 1660 1661 1661 1662 1663 1665 1665 1666 1666 1666 1665 1665 1665 1662 1660 1658 1657 1656 1654 1650 1645 1639 1631 1628 1626 1625 1623 1623 1623
2145 2172 2197 2214 2226 2242 2257 2284 2300 2313 2326 2355 2375 2375 2389 2401 2419 2430 2445 2452 2467 2488 2509 2527 2542 2548 2550 2559 2570 2572 2577 2590 2599 2608 2629 2634 2634 2637 2648 2658 2661 2669 2675 2684 2698 2715 2731 2737 2746 2756 2773 2790 2805 2822 2836 2847 2849 2854 2856 2861 2878 2884 2889 2889 2889 2889 2892 2902 2911 2922 2935 2955 2969 2979 2989 2989 2994 2994 2994 3003 3012 3019 3025 3036 3048 3063 3075 3075 3075 3065 3063 3063 3063 3068 3072 3079 3080 3085 3087 3093 3094 3102 3114 3121 3126 3126 3126 3130 3130 3130 3144 3154 3161 3171 3176 3181 3184 3184 3185 3186 3192 3199 3208 3216 3222 3232 3232 3232 3228 3228 3228 3232 3238 3244 3256 3260 3263 3264 3264 3264 3256 3249 3249 3249 3253 3258 3262 3267 3269 3270 3273 3279 3286 3288 3290 3290 3290 3287 3286 3286 3286 3286 3286 3286 3285 3285 3283 3281 3278 3276 3274 3273 3272 3272 3272 3273 3275 3275 3275 3275 3273 3272 3271 3270 3270 3265 3250 3236 3234 3231 3231 3226 3178 3134 3094 3064 3030 2993 2993 2955 2946 2916 2877 2872 2838 2838 2838 2965 2965 2965 2929 2822 2727 2620 0 0 0 0 0 0 1298 1296 1296 1294 1291 1285 1282 1274 1266 1260 1252 1246 1239 1235 1229 1225 1220 1218 1216 1216 1215 1214 1214 1214 1214 1221 1229 1237 1243 1252 1268 1286 1297 1307 1314 1314 1314 1314 1314 1314 1314 1314 1314 1314 0 0 0 0 0 0 0 0 0 0 0 0 0 0 0 0 0 0 0 0 0 0 0 0 1032 1029 1027 1024 1022 1020 1020 1019 1019 1018 1018 1017 1016 1015 1013 1012 1012 1011 1011 1010 1009 1009 1008 1008 1007 1007 1007 1006 1005 1004 1004 1003 1002 1001 1001 1001 1000 999 999 998 997 997 996 995 995 994 993 992 991 990 989 989 987 986 986 985 984 984 984 983 981 981 980 979 978 977 976 974 973 972 971 971 970 969 969 968 967 967 966 965 965 965 964 964 963 963 962 961 960 960 960 959 958 958 957 957 956 955 955 954 953 953 953 952 951 951 950 950 950 949 949 948 947 946 945 944 944 942 941 941 939 938 938 936 936 934 934 934 933 932 931 931 930 930 929 929 929 928 928 928 927 926 926 926 926 926 925 925 924 924 924 925 925 928 933 936 947 964 996 0 0 0 0 0 0 1520 1533 1546 1547 1551 1553 1554 1554 1557 1557 1557 1557 1556 1556 1555 1554 1554 1553 1553 1552 1551 1551 1551 1551 1551 1552 1552 1554 1557 1557 1559 1563 1564 1569 1570 1571 1572 1575 1577 1579 1582 1584 1585 1585 1585 1585 1586 1586 1586 1585 1584 1584 1583 1583 1581 1580 1579 1577 1576 1575 1574 1572 1569 1568 1566 1564 1562 1560 1557 1554 1553 1552 1550 1549 1548 1547 1545 1545 1545 1545 1546 1546 1547 1547 1549 1553 1557 1557 1558 1560 1563 1566 1568 1570 1572 1574 1576 1576 1577 1578 1579 1579 1580 1580 1581 1581 1581 1581 1581 1581 1581 1581 1581 1581 1581 1581 1581 1581 1581 1581 1581 1582 1582 1583 1585 1587 1589 1589 1593 1598 1605 1605 1609 1613 1618 1622 1625 1627 1628 1629 1631 1631 1634 1637 1640 1643 1645 1647 1648 1651 1653 1655 1655 1655 1655 1655 1655 1657 1658 1660 1660 1662 1663 1663 1663 1663 1663 1663 1663 1663 1661 1660 1656 1655 1654 1653 1649 1641 1634 1625 1623 1622 1621 1617 1616 1616
2145 2172 2197 2215 2226 2229 2256 2284 2300 2300 2304 2317 2331 2356 2383 2401 2419 2430 2445 2452 2467 2488 2509 2527 2543 2550 2557 2561 2574 2582 2585 2593 2599 2608 2625 2634 2641 2641 2653 2671 2675 2678 2680 2690 2704 2717 2730 2735 2746 2756 2778 2806 2825 2836 2839 2847 2856 2859 2859 2865 2879 2895 2895 2895 2893 2893 2893 2903 2912 2923 2935 2953 2967 2979 2988 2989 2991 2991 2995 3003 3014 3020 3028 3037 3049 3063 3075 3075 3075 3066 3064 3064 3064 3072 3082 3087 3088 3088 3094 3102 3110 3111 3121 3124 3135 3137 3137 3140 3140 3142 3147 3158 3170 3182 3190 3190 3190 3186 3186 3186 3192 3199 3208 3217 3227 3235 3235 3235 3232 3232 3232 3236 3239 3247 3258 3263 3264 3264 3265 3264 3264 3262 3262 3262 3264 3268 3270 3274 3276 3278 3281 3285 3288 3294 3294 3294 3292 3287 3286 3286 3286 3286 3286 3286 3285 3285 3284 3284 3280 3276 3276 3273 3272 3272 3272 3273 3273 3274 3274 3273 3273 3270 3265 3258 3251 3246 3235 3231 3230 3230 3229 3180 3134 3093 3039 2993 2918 2869 2840 2825 2769 2713 2664 2623 2623 2623 2625 2662 2699 2699 2699 2642 2609 0 0 0 0 0 0 1305 1296 1289 1289 1285 1283 1281 1281 1272 1265 1259 1252 1241 1232 1225 1222 1216 1214 1212 1212 1212 1213 1213 1213 1210 1210 1210 1216 1224 1231 1241 1255 1274 1291 1305 1310 1313 1313 1313 1314 1314 1317 1317 1317 1315 1315 0 0 0 0 0 0 0 0 0 0 0 0 0 0 0 0 0 0 0 0 0 0 1030 1029 1029 1027 1024 1023 1023 1022 1022 1019 1019 1018 1018 1017 1016 1015 1013 1013 1012 1011 1011 1010 1009 1009 1009 1008 1008 1007 1006 1005 1005 1004 1003 1003 1002 1002 1001 1000 1000 999 999 998 998 998 997 996 994 994 993 992 992 990 989 988 988 986 986 985 985 984 983 982 981 980 979 978 978 976 975 975 973 972 971 971 970 969 969 968 968 967 966 966 966 965 964 964 963 962 962 962 961 960 960 960 958 958 958 957 956 956 955 954 954 954 953 953 952 951 951 951 951 950 949 947 946 945 945 945 944 942 941 940 939 938 937 936 935 934 934 933 933 931 931 931 931 930 930 929 929 928 928 928 927 926 926 926 926 926 926 926 925 925 925 925 928 932 935 936 949 974 0 0 0 0 0 0 0 1524 1538 1547 1554 1555 1555 1556 1557 1557 1557 1557 1557 1557 1556 1556 1555 1555 1553 1552 1552 1551 1551 1551 1551 1551 1552 1552 1553 1555 1556 1557 1560 1560 1565 1569 1571 1573 1574 1577 1578 1580 1583 1583 1584 1584 1584 1584 1584 1584 1583 1583 1582 1581 1581 1580 1579 1577 1576 1575 1574 1573 1571 1569 1568 1567 1564 1562 1559 1557 1555 1553 1551 1549 1549 1547 1546 1546 1545 1545 1545 1545 1545 1545 1547 1549 1551 1555 1556 1557 1560 1563 1566 1568 1570 1572 1575 1576 1576 1577 1578 1579 1579 1579 1579 1580 1580 1581 1581 1581 1581 1581 1581 1581 1580 1581 1581 1581 1581 1581 1581 1582 1582 1583 1585 1587 1589 1589 1593 1598 1600 1603 1607 1609 1614 1620 1622 1624 1625 1627 1628 1630 1632 1634 1637 1639 1640 1642 1642 1646 1651 1652 1652 1652 1652 1652 1652 1655 1658 1658 1659 1660 1661 1661 1661 1661 1661 1661 1661 1661 1660 1657 1655 1654 1654 1652 1646 1639 1630 1624 1620 1618 1614 1610 1610 1610
2156 2180 2197 2215 2226 2229 2256 2284 2300 2300 2304 2317 2331 2341 2369 2401 2418 2430 2435 2439 2454 2479 2505 2527 2543 2550 2557 2569 2584 2590 2590 2595 2599 2607 2619 2634 2642 2650 2666 2683 2690 2692 2692 2694 2708 2718 2730 2735 2746 2760 2778 2806 2825 2836 2839 2847 2856 2863 2865 2871 2884 2900 2900 2900 2895 2895 2895 2905 2913 2926 2936 2950 2960 2972 2983 2987 2988 2991 2995 3004 3014 3020 3028 3039 3050 3058 3075 3075 3075 3069 3064 3064 3064 3081 3091 3094 3096 3100 3100 3109 3122 3130 3133 3136 3145 3147 3148 3148 3148 3152 3162 3171 3178 3186 3192 3192 3192 3189 3189 3189 3192 3199 3208 3217 3227 3238 3241 3242 3242 3242 3242 3245 3249 3252 3259 3264 3264 3264 3265 3265 3267 3273 3274 3275 3278 3279 3280 3281 3281 3283 3288 3293 3300 3301 3301 3301 3296 3289 3286 3286 3286 3286 3286 3286 3285 3285 3285 3285 3281 3277 3276 3274 3272 3272 3272 3272 3272 3273 3271 3271 3270 3264 3253 3239 3232 3232 3227 3225 3222 3211 3172 3133 3095 3064 2987 2928 2838 2817 2780 2704 2616 2561 2513 0 0 0 0 0 0 0 0 0 0 0 0 0 0 0 1304 1302 1295 1286 1280 1280 1280 1277 1276 1272 1265 1259 1252 1240 1232 1222 1217 1212 1210 1208 1207 1207 1207 1207 1207 1205 1204 1204 1204 1213 1221 1229 1238 1260 1284 1298 1299 1302 1306 1312 1313 1314 1314 1314 1314 1312 1310 1310 1309 0 0 0 0 0 0 0 0 0 0 0 0 0 0 0 0 0 0 1039 1032 1030 1029 1029 1027 1026 1026 1025 1025 1024 1021 1020 1019 1018 1018 1017 1015 1015 1014 1013 1012 1012 1011 1011 1010 1009 1009 1008 1007 1007 1007 1006 1005 1005 1003 1003 1002 1002 1002 1001 1000 1000 999 998 998 997 997 995 995 994 993 992 991 990 990 989 988 986 985 985 984 983 982 982 980 979 979 978 977 976 975 974 973 973 973 971 971 970 969 968 967 967 967 967 966 966 965 964 964 963 963 962 961 961 960 959 959 958 958 957 956 956 955 955 955 954 953 952 952 951 951 951 950 949 948 947 946 946 945 944 943 941 941 940 939 937 937 936 935 935 934 933 933 932 932 932 930 930 930 929 929 928 928 927 927 926 926 926 926 926 926 926 926 926 926 929 932 934 935 941 957 980 0 0 0 0 0 0 0 1528 1546 1555 1556 1559 1559 1559 1559 1559 1559 1559 1558 1558 1557 1556 1555 1554 1553 1552 1551 1551 1551 1551 1551 1551 1551 1552 1553 1554 1554 1554 1555 1557 1562 1567 1569 1572 1572 1573 1574 1578 1581 1582 1583 1583 1583 1583 1583 1582 1581 1581 1580 1580 1580 1579 1578 1577 1576 1574 1573 1572 1570 1569 1568 1566 1564 1561 1558 1556 1555 1553 1551 1550 1548 1548 1546 1545 1545 1544 1544 1544 1544 1544 1546 1549 1552 1554 1555 1557 1561 1564 1568 1568 1569 1572 1574 1576 1577 1577 1577 1578 1578 1578 1578 1579 1579 1580 1580 1580 1580 1580 1580 1580 1581 1581 1581 1581 1582 1582 1582 1582 1583 1584 1587 1588 1589 1591 1595 1599 1599 1602 1607 1611 1615 1618 1620 1622 1623 1626 1629 1629 1631 1632 1634 1635 1637 1638 1642 1646 1648 1649 1650 1650 1650 1650 1651 1653 1654 1655 1657 1658 1658 1658 1658 1658 1659 1659 1659 1659 1656 1655 1654 1654 1649 1644 1635 1628 1623 1619 1615 1608 1604 1604 1604
2170 2195 2213 2215 2226 2229 2256 2285 2300 2304 2305 2317 2331 2341 2362 2387 2411 2419 2429 2437 2450 2473 2500 2520 2542 2550 2557 2569 2584 2592 2594 2598 2600 2607 2618 2634 2647 2666 2684 2696 2701 2701 2702 2705 2715 2726 2730 2735 2746 2760 2778 2806 2825 2836 2839 2845 2859 2866 2870 2878 2889 2900 2905 2905 2905 2905 2905 2911 2920 2931 2939 2950 2956 2964 2976 2982 2988 2993 3001 3013 3021 3026 3032 3041 3050 3057 3068 3072 3072 3072 3069 3069 3069 3081 3091 3102 3103 3106 3108 3114 3129 3136 3143 3149 3156 3156 3157 3157 3157 3161 3174 3180 3185 3190 3193 3193 3193 3190 3187 3186 3186 3186 3200 3217 3227 3238 3243 3247 3251 3253 3259 3260 3263 3269 3269 3269 3268 3265 3265 3265 3269 3284 3290 3290 3291 3290 3290 3288 3288 3288 3293 3300 3307 3310 3310 3310 3300 3292 3286 3286 3286 3291 3291 3291 3289 3287 3287 3285 3283 3281 3279 3276 3273 3273 3273 3273 3272 3271 3271 3268 3265 3256 3237 3231 3224 3221 3217 3217 3215 3203 3150 3086 3026 3000 2971 2805 2676 0 0 0 0 0 0 0 0 0 0 0 0 0 0 0 0 0 0 0 0 1296 1295 1295 1295 1286 1280 1277 1277 1276 1275 1271 1265 1259 1252 1238 1229 1220 1215 1210 1207 1205 1204 1203 1202 1201 1200 1199 1199 1199 1199 1203 1215 1223 1229 1242 1272 1294 1295 1299 1303 1305 1308 1310 1312 1312 1312 1312 1310 1309 1307 1307 1309 0 0 0 0 0 0 0 0 0 0 0 0 0 0 0 1041 1036 1032 1029 1029 1029 1028 1027 1027 1026 1025 1024 1022 1020 1020 1019 1018 1018 1017 1015 1015 1014 1013 1013 1012 1011 1011 1011 1010 1010 1008 1008 1007 1007 1006 1006 1005 1004 1003 1003 1002 1002 1001 1001 999 999 998 997 997 997 995 995 994 992 991 991 990 989 988 987 985 985 984 984 983 982 981 980 979 978 977 976 976 975 975 975 973 973 973 971 970 969 969 969 968 968 967 966 965 965 964 964 963 963 962 962 961 961 959 959 958 957 957 957 956 956 955 955 954 952 952 952 952 952 951 950 949 948 947 946 946 945 944 941 941 940 939 937 937 937 936 936 934 934 933 933 932 932 932 932 931 930 930 929 929 927 927 927 926 926 926 926 926 926 926 927 928 929 932 933 935 938 952 968 984 0 0 0 0 0 0 1524 1535 1555 1564 1564 1564 1564 1564 1563 1563 1562 1562 1560 1559 1558 1557 1555 1553 1552 1551 1551 1551 1551 1550 1550 1550 1551 1551 1552 1552 1552 1552 1552 1553 1557 1562 1564 1566 1566 1570 1574 1576 1580 1580 1580 1580 1580 1580 1580 1580 1580 1580 1579 1579 1579 1578 1577 1576 1574 1574 1572 1571 1570 1568 1567 1565 1562 1559 1558 1556 1554 1552 1551 1550 1549 1547 1545 1544 1544 1543 1543 1543 1543 1545 1547 1550 1551 1552 1555 1557 1563 1566 1567 1569 1570 1572 1573 1574 1575 1575 1575 1576 1576 1577 1578 1579 1579 1579 1579 1579 1579 1579 1580 1580 1580 1581 1581 1582 1582 1582 1582 1583 1584 1586 1588 1589 1590 1592 1596 1597 1600 1603 1609 1613 1616 1619 1619 1622 1625 1627 1627 1627 1628 1630 1631 1633 1634 1636 1641 1643 1645 1646 1647 1647 1647 1647 1648 1650 1651 1652 1652 1654 1655 1656 1656 1657 1659 1659 1659 1655 1653 1653 1652 1649 1644 1634 1628 1623 1619 1614 1607 1602 1602 1601
2172 2195 2225 2227 2237 2244 2256 2285 2305 2328 2337 2339 2340 2341 2362 2387 2410 2418 2429 2437 2450 2473 2500 2520 2533 2544 2552 2569 2584 2594 2599 2601 2603 2607 2618 2634 2658 2683 2692 2702 2706 2707 2712 2719 2729 2739 2745 2747 2752 2760 2778 2798 2814 2828 2836 2845 2859 2867 2876 2884 2892 2900 2910 2914 2919 2919 2924 2929 2937 2938 2940 2950 2956 2957 2965 2980 2990 3000 3013 3020 3028 3037 3041 3046 3050 3056 3065 3073 3073 3073 3075 3075 3075 3084 3091 3103 3110 3112 3114 3119 3131 3139 3143 3150 3158 3160 3162 3163 3169 3177 3187 3191 3191 3192 3194 3195 3195 3194 3187 3186 3186 3186 3200 3217 3227 3238 3245 3248 3255 3260 3263 3270 3273 3279 3279 3279 3273 3265 3265 3265 3273 3293 3303 3303 3303 3298 3292 3292 3292 3292 3297 3303 3308 3310 3310 3310 3308 3301 3293 3293 3293 3295 3295 3295 3296 3296 3296 3296 3296 3284 3281 3278 3277 3277 3277 3277 3277 3271 3271 3265 3258 3247 3225 3225 3216 3216 3215 3215 3204 3183 3109 3051 2954 2907 2742 0 0 0 0 0 0 0 0 0 0 0 0 0 0 0 0 0 0 0 0 0 1286 1286 1284 1284 1284 1281 1277 1275 1275 1274 1274 1271 1262 1256 1248 1236 1229 1220 1214 1209 1205 1202 1200 1199 1196 1195 1194 1192 1192 1192 1192 1198 1205 1220 1228 1235 1252 1283 1293 1297 1303 1303 1304 1305 1305 1310 1310 1310 1306 1306 1305 1305 1305 1305 0 0 0 0 0 0 0 0 0 0 0 0 0 1041 1040 1034 1032 1029 1029 1029 1028 1028 1027 1026 1025 1024 1023 1021 1021 1020 1019 1019 1017 1017 1016 1015 1014 1014 1013 1013 1012 1012 1010 1010 1010 1009 1008 1008 1007 1006 1006 1005 1004 1004 1003 1002 1002 1001 1001 1000 998 998 997 997 997 995 994 993 993 992 991 990 988 988 987 986 985 984 983 982 982 981 980 978 977 977 976 975 975 975 974 973 973 972 971 970 969 969 969 969 968 967 967 966 965 965 964 964 963 962 961 961 960 960 959 958 958 957 957 956 955 955 954 954 952 952 952 952 951 951 950 948 947 946 946 945 944 942 941 941 939 938 938 937 937 936 936 935 934 934 932 932 932 932 932 930 930 930 929 928 928 927 927 926 926 926 926 926 927 927 928 929 932 933 933 936 942 952 964 0 0 0 0 0 0 0 1526 1548 1569 1572 1572 1572 1570 1567 1566 1565 1564 1564 1561 1561 1559 1559 1556 1555 1553 1553 1552 1551 1551 1550 1550 1550 1550 1550 1549 1550 1550 1550 1550 1553 1555 1556 1560 1563 1567 1570 1576 1578 1578 1578 1578 1578 1578 1578 1578 1578 1579 1579 1578 1578 1578 1577 1576 1576 1575 1574 1573 1571 1570 1569 1566 1565 1562 1560 1559 1556 1554 1552 1551 1549 1547 1545 1544 1543 1543 1543 1543 1543 1544 1545 1547 1548 1548 1551 1555 1559 1564 1565 1567 1569 1570 1570 1571 1572 1573 1573 1574 1575 1576 1577 1577 1578 1578 1578 1578 1579 1579 1579 1580 1580 1580 1581 1582 1582 1582 1582 1583 1583 1586 1588 1589 1589 1591 1591 1593 1597 1600 1605 1611 1614 1616 1618 1620 1623 1624 1624 1626 1627 1627 1628 1630 1632 1634 1638 1639 1641 1642 1642 1642 1642 1642 1642 1644 1645 1646 1647 1649 1652 1653 1653 1654 1657 1657 1657 1655 1652 1652 1651 1647 1641 1633 1626 1622 1619 1614 1607 1600 1598 1598
2172 2195 2225 2227 2237 2244 2256 2285 2305 2330 2349 2349 2355 2359 2362 2387 2406 2418 2429 2437 2450 2473 2500 2520 2533 2544 2552 2566 2583 2594 2599 2606 2607 2608 2618 2643 2665 2683 2692 2702 2706 2709 2719 2729 2735 2741 2746 2748 2755 2761 2778 2798 2814 2828 2836 2845 2859 2876 2885 2888 2893 2900 2910 2914 2919 2923 2935 2943 2944 2945 2947 2951 2956 2957 2965 2980 2993 3002 3013 3020 3031 3043 3049 3050 3050 3055 3065 3073 3076 3077 3078 3078 3078 3085 3096 3106 3112 3120 3124 3129 3133 3141 3144 3153 3160 3163 3163 3164 3172 3182 3202 3209 3209 3209 3208 3206 3203 3195 3187 3186 3186 3186 3200 3217 3227 3238 3245 3249 3258 3260 3268 3276 3283 3288 3288 3288 3278 3269 3269 3269 3278 3293 3304 3308 3308 3308 3297 3297 3297 3300 3306 3311 3313 3313 3313 3310 3308 3308 3307 3307 3307 3311 3311 3311 3308 3307 3307 3306 3300 3298 3294 3286 3282 3282 3282 3281 3281 3279 3271 3264 3253 3241 3225 3212 3211 3211 3199 3193 3193 3168 3094 3033 2890 2576 0 0 0 0 0 0 0 0 0 0 0 0 0 0 0 0 0 0 0 0 0 1266 1267 1271 1279 1279 1279 1276 1274 1273 1273 1273 1272 1266 1261 1252 1246 1234 1226 1218 1212 1207 1203 1199 1197 1194 1193 1192 1189 1187 1187 1187 1188 1194 1201 1209 1224 1232 1242 1266 1287 1292 1299 1301 1301 1302 1303 1303 1303 1305 1306 1306 1305 1305 1303 1301 1299 0 0 0 0 0 0 0 0 0 0 0 1041 1040 1037 1035 1032 1030 1029 1029 1029 1028 1027 1027 1026 1025 1023 1022 1022 1022 1021 1019 1019 1017 1017 1016 1015 1015 1014 1014 1013 1012 1011 1011 1010 1010 1010 1008 1008 1007 1006 1006 1005 1004 1004 1003 1002 1002 1002 1001 1000 999 998 997 997 995 994 994 994 993 992 991 990 988 988 987 985 985 984 983 983 982 981 980 978 978 977 976 975 975 974 974 973 973 972 971 970 970 970 969 968 968 967 967 966 965 964 964 963 962 962 961 961 960 960 959 958 957 957 956 956 955 955 954 953 953 953 952 952 951 951 949 948 947 946 945 944 943 942 941 941 940 939 938 938 937 936 935 934 934 934 934 933 932 932 932 931 930 929 929 928 928 927 927 927 927 927 927 927 927 928 929 932 932 932 933 934 942 951 964 981 0 0 0 0 0 0 1548 1569 1576 1578 1578 1576 1575 1570 1567 1566 1565 1565 1564 1562 1561 1560 1557 1556 1555 1555 1553 1552 1550 1550 1550 1550 1550 1549 1549 1548 1548 1548 1548 1549 1549 1550 1555 1561 1566 1571 1575 1575 1575 1575 1575 1575 1575 1577 1577 1578 1578 1578 1578 1578 1577 1576 1576 1576 1574 1574 1572 1571 1570 1569 1567 1566 1563 1560 1558 1556 1554 1552 1550 1547 1546 1545 1543 1543 1542 1542 1542 1544 1544 1544 1545 1545 1546 1549 1557 1562 1563 1565 1567 1567 1568 1569 1570 1571 1571 1572 1573 1575 1575 1575 1576 1577 1577 1577 1578 1578 1579 1579 1580 1580 1580 1581 1581 1582 1582 1583 1583 1585 1586 1587 1587 1588 1588 1589 1592 1599 1603 1609 1611 1614 1616 1618 1621 1621 1622 1623 1625 1625 1625 1629 1631 1634 1637 1637 1638 1639 1639 1639 1638 1638 1638 1639 1641 1642 1643 1646 1647 1649 1651 1652 1654 1654 1654 1653 1651 1650 1649 1646 1640 1631 1625 1622 1614 1611 1605 1599 1596 1596
2172 2195 2225 2227 2237 2244 2247 2279 2306 2332 2352 2354 2358 2360 2366 2391 2410 2418 2439 2451 2452 2478 2506 2528 2533 2544 2552 2566 2582 2594 2599 2607 2611 2618 2629 2652 2665 2683 2692 2702 2706 2709 2719 2730 2736 2743 2747 2751 2756 2767 2783 2798 2814 2828 2839 2852 2867 2884 2889 2890 2895 2900 2907 2913 2919 2928 2938 2943 2947 2947 2947 2953 2957 2957 2965 2980 2995 3004 3013 3020 3033 3043 3049 3050 3051 3055 3065 3073 3080 3082 3082 3083 3083 3085 3096 3106 3119 3132 3136 3137 3143 3146 3151 3155 3161 3164 3164 3165 3172 3184 3202 3211 3214 3215 3217 3216 3216 3216 3202 3199 3199 3199 3208 3221 3233 3241 3246 3253 3262 3264 3275 3281 3287 3290 3290 3290 3281 3277 3277 3277 3287 3297 3304 3308 3308 3308 3308 3306 3306 3306 3312 3318 3318 3318 3313 3309 3309 3309 3314 3319 3319 3319 3317 3315 3313 3312 3310 3307 3303 3298 3295 3294 3292 3286 3285 3283 3282 3279 3271 3263 3252 3241 3225 3206 3182 3181 3166 3122 3105 3069 3049 0 0 0 0 0 0 0 0 0 0 1209 1209 1208 1206 1206 1208 1208 1212 1213 1216 1230 1238 1243 1258 1260 1260 1263 1269 1273 1273 1273 1273 1272 1272 1270 1266 1263 1261 1252 1246 1233 1224 1214 1208 1204 1199 1196 1193 1192 1190 1188 1185 1183 1183 1183 1184 1189 1196 1201 1209 1225 1240 1258 1282 1290 1299 1299 1299 1300 1300 1300 1299 1299 1299 1302 1302 1302 1295 1286 1262 0 0 0 0 0 0 0 0 0 1043 1042 1040 1037 1037 1035 1032 1031 1031 1030 1029 1028 1027 1027 1026 1025 1024 1023 1022 1022 1021 1021 1019 1019 1018 1017 1016 1016 1015 1015 1014 1013 1012 1012 1011 1011 1010 1009 1009 1008 1007 1007 1006 1005 1005 1004 1003 1003 1003 1002 1001 1000 998 997 997 996 996 996 996 994 994 992 991 990 989 988 987 985 985 984 983 982 981 981 980 978 977 976 976 975 974 974 974 973 973 972 971 971 970 969 969 968 968 968 967 966 965 965 964 963 963 962 961 961 960 959 959 957 957 957 956 956 956 954 954 953 953 953 952 951 951 950 948 947 946 945 944 943 943 941 941 940 939 939 938 937 936 936 935 935 934 934 934 934 933 932 931 931 931 930 929 929 928 928 927 927 927 927 927 927 928 929 931 931 931 931 931 938 948 959 971 991 0 0 0 0 0 0 1569 1578 1583 1583 1583 1580 1573 1572 1568 1566 1566 1565 1565 1565 1562 1560 1558 1558 1557 1554 1554 1553 1551 1550 1550 1550 1549 1549 1547 1546 1546 1545 1545 1545 1546 1548 1552 1557 1562 1566 1571 1571 1571 1573 1573 1573 1575 1575 1575 1576 1577 1577 1577 1576 1576 1576 1576 1576 1574 1573 1572 1571 1570 1569 1568 1566 1563 1560 1557 1555 1553 1552 1548 1547 1546 1544 1543 1542 1542 1542 1542 1542 1543 1543 1544 1544 1547 1554 1559 1562 1563 1564 1565 1566 1567 1568 1569 1569 1571 1572 1572 1573 1573 1574 1575 1576 1576 1576 1577 1578 1578 1578 1579 1579 1579 1581 1582 1582 1582 1583 1584 1586 1586 1586 1587 1587 1587 1588 1594 1603 1607 1607 1611 1615 1617 1617 1618 1619 1621 1621 1623 1624 1628 1631 1633 1636 1636 1636 1636 1634 1633 1633 1633 1633 1635 1637 1638 1639 1642 1644 1647 1649 1650 1650 1650 1648 1647 1644 1643 1643 1642 1635 1626 1621 1617 1613 1610 1600 1596 1593 1593
2166 2171 2199 2202 2211 2219 2247 2271 2306 2338 2359 2364 2367 2369 2380 2399 2411 2426 2441 2454 2464 2478 2506 2530 2540 2545 2548 2562 2580 2592 2599 2607 2611 2622 2639 2657 2665 2668 2678 2686 2700 2709 2719 2731 2737 2746 2752 2753 2763 2781 2797 2814 2825 2839 2849 2862 2876 2884 2891 2891 2896 2900 2907 2912 2925 2930 2940 2947 2948 2948 2950 2954 2958 2961 2970 2982 2995 3005 3013 3020 3033 3045 3050 3050 3051 3055 3067 3080 3086 3086 3086 3087 3087 3090 3096 3112 3131 3142 3145 3146 3148 3151 3153 3159 3161 3164 3164 3165 3172 3184 3202 3211 3217 3217 3220 3224 3225 3225 3225 3215 3215 3215 3222 3233 3245 3247 3254 3261 3264 3272 3279 3286 3288 3292 3292 3292 3290 3290 3290 3291 3297 3303 3306 3309 3309 3309 3309 3309 3309 3309 3316 3318 3318 3318 3312 3311 3311 3311 3318 3324 3324 3324 3322 3319 3315 3312 3310 3307 3303 3298 3295 3294 3292 3286 3285 3283 3282 3279 3271 3262 3250 3239 3227 3205 3163 3147 3111 3090 3058 2950 2747 0 0 0 0 0 0 0 0 1193 1189 1189 1189 1189 1194 1198 1198 1200 1208 1209 1212 1218 1229 1239 1250 1254 1255 1256 1256 1260 1269 1271 1271 1271 1267 1266 1264 1263 1261 1252 1244 1233 1220 1211 1204 1199 1195 1191 1191 1188 1186 1183 1180 1179 1179 1179 1182 1186 1191 1197 1204 1221 1236 1246 1268 1285 1296 1298 1298 1299 1299 1299 1299 1299 1299 1298 1297 1295 1285 1273 1236 0 0 0 0 0 1076 1065 1062 1045 1043 1042 1039 1037 1036 1035 1035 1033 1031 1030 1029 1028 1027 1027 1026 1025 1025 1024 1024 1023 1023 1022 1021 1020 1019 1018 1017 1017 1016 1015 1015 1015 1014 1013 1012 1012 1011 1010 1010 1009 1008 1008 1007 1007 1006 1005 1004 1004 1003 1003 1002 1001 1000 998 998 998 998 998 998 997 995 993 992 991 990 989 988 986 985 984 984 983 983 982 980 979 978 977 977 976 974 974 974 974 973 973 973 972 972 971 971 969 969 968 968 967 966 965 964 964 963 963 962 962 961 961 959 958 958 957 957 956 956 955 955 955 954 954 953 953 952 950 949 948 947 946 944 944 943 943 942 941 940 940 939 938 937 936 936 936 936 935 935 934 933 933 932 932 931 930 929 929 928 928 927 927 927 927 927 927 928 928 929 931 931 931 931 935 942 949 960 973 0 0 0 0 0 0 1568 1578 1591 1591 1591 1587 1578 1577 1575 1571 1571 1570 1568 1568 1565 1563 1562 1561 1559 1556 1555 1555 1553 1552 1550 1550 1550 1549 1547 1546 1546 1545 1545 1544 1544 1545 1548 1551 1554 1556 1560 1565 1567 1570 1570 1570 1573 1573 1573 1574 1574 1574 1575 1575 1576 1576 1576 1576 1574 1573 1572 1572 1571 1570 1569 1568 1565 1563 1560 1557 1555 1553 1550 1549 1547 1545 1544 1543 1542 1541 1541 1541 1541 1542 1543 1543 1546 1550 1554 1557 1560 1562 1562 1563 1565 1566 1567 1567 1568 1568 1569 1570 1571 1572 1573 1573 1573 1575 1575 1576 1577 1578 1578 1578 1579 1580 1581 1582 1582 1582 1583 1584 1584 1585 1586 1586 1586 1586 1587 1592 1596 1601 1604 1612 1614 1614 1615 1616 1618 1620 1622 1624 1626 1628 1631 1633 1633 1633 1632 1630 1628 1628 1628 1628 1631 1633 1635 1636 1638 1641 1644 1645 1645 1645 1643 1641 1639 1638 1637 1636 1634 1628 1621 1617 1612 1608 1603 1598 1588 1588 1588
2166 2171 2179 2180 2194 2214 2247 2271 2306 2332 2359 2372 2381 2388 2397 2416 2420 2428 2449 2459 2467 2478 2506 2530 2540 2545 2548 2562 2580 2589 2595 2598 2611 2630 2655 2664 2665 2665 2670 2676 2691 2704 2717 2730 2736 2747 2754 2757 2770 2792 2813 2829 2842 2848 2856 2870 2878 2885 2891 2891 2896 2898 2906 2912 2925 2930 2943 2948 2950 2950 2950 2955 2959 2968 2977 2987 2997 3004 3012 3020 3033 3043 3052 3054 3056 3063 3073 3084 3088 3088 3088 3089 3089 3093 3105 3122 3138 3145 3146 3147 3150 3154 3159 3163 3163 3163 3164 3165 3172 3184 3195 3207 3217 3220 3224 3231 3236 3236 3236 3232 3232 3232 3234 3247 3255 3259 3266 3272 3276 3282 3284 3287 3288 3292 3296 3301 3301 3302 3303 3304 3306 3306 3306 3309 3312 3313 3313 3314 3314 3316 3319 3319 3319 3318 3312 3311 3311 3311 3319 3325 3325 3325 3324 3321 3315 3312 3310 3307 3303 3300 3296 3294 3292 3286 3282 3276 3270 3269 3264 3256 3247 3238 3227 3201 3161 3135 3087 3036 2950 2746 2433 0 0 0 0 0 0 0 1194 1191 1187 1187 1187 1189 1193 1195 1196 1199 1201 1206 1209 1218 1223 1229 1238 1246 1248 1250 1253 1257 1267 1269 1269 1269 1267 1265 1264 1263 1261 1252 1244 1233 1219 1209 1203 1199 1194 1190 1187 1184 1182 1179 1178 1177 1177 1177 1181 1184 1189 1195 1204 1217 1233 1238 1256 1280 1288 1293 1294 1296 1299 1299 1299 1297 1297 1296 1284 1273 1268 1250 1235 0 0 0 0 1071 1058 1048 1046 1045 1043 1042 1039 1038 1037 1036 1035 1033 1032 1030 1030 1029 1028 1028 1027 1027 1026 1025 1025 1025 1024 1023 1022 1021 1020 1020 1018 1018 1017 1017 1016 1015 1015 1014 1013 1013 1012 1011 1011 1010 1009 1009 1009 1007 1007 1006 1006 1004 1004 1004 1004 1003 1000 1000 999 999 999 999 999 998 996 995 993 992 991 990 989 987 986 985 984 983 983 982 981 980 979 978 977 977 976 976 976 975 975 975 974 973 972 971 971 971 969 969 968 968 967 966 965 964 964 963 963 962 961 961 960 960 959 958 958 957 957 957 956 956 955 954 954 953 953 951 950 948 947 946 945 944 944 943 942 941 940 940 939 939 938 938 937 937 936 936 935 935 934 934 933 933 932 931 930 930 930 928 928 927 927 927 927 928 928 928 929 930 930 930 931 935 935 940 950 958 975 0 0 0 0 0 0 1578 1591 1591 1591 1587 1582 1579 1579 1578 1578 1575 1574 1573 1570 1566 1564 1563 1561 1560 1558 1557 1555 1554 1551 1550 1550 1549 1548 1546 1546 1545 1544 1544 1544 1544 1546 1547 1549 1550 1552 1554 1557 1561 1566 1568 1569 1570 1570 1570 1571 1573 1573 1574 1574 1575 1575 1575 1574 1573 1572 1572 1572 1572 1570 1569 1567 1564 1562 1559 1557 1555 1553 1551 1550 1548 1546 1544 1542 1541 1541 1541 1541 1542 1542 1543 1545 1548 1550 1553 1556 1558 1559 1561 1561 1562 1564 1565 1566 1567 1568 1569 1570 1571 1571 1571 1572 1572 1574 1574 1575 1576 1577 1577 1578 1579 1580 1580 1581 1581 1582 1583 1584 1584 1584 1584 1584 1584 1584 1584 1588 1595 1598 1604 1609 1609 1612 1613 1615 1617 1620 1621 1624 1626 1627 1629 1629 1629 1628 1625 1624 1624 1624 1626 1628 1631 1632 1633 1635 1638 1639 1639 1639 1639 1636 1636 1636 1635 1634 1633 1629 1621 1616 1613 1609 1605 1597 1590 1586 1585 1585
2166 2171 2172 2178 2192 2213 2247 2279 2306 2330 2355 2372 2385 2394 2410 2416 2423 2448 2467 2468 2472 2474 2494 2530 2540 2545 2547 2556 2564 2572 2587 2594 2611 2630 2655 2665 2665 2670 2670 2676 2682 2693 2714 2729 2736 2751 2758 2762 2773 2792 2813 2830 2854 2860 2863 2871 2882 2885 2891 2891 2896 2899 2906 2912 2925 2947 2960 2960 2960 2960 2960 2960 2965 2973 2977 2987 2997 3004 3012 3020 3033 3045 3051 3055 3061 3067 3078 3086 3089 3089 3090 3090 3090 3095 3107 3125 3139 3145 3147 3151 3153 3155 3159 3162 3162 3162 3162 3162 3169 3182 3195 3205 3215 3221 3231 3237 3239 3239 3239 3238 3238 3238 3244 3256 3264 3269 3273 3279 3284 3286 3287 3288 3289 3293 3299 3303 3307 3311 3311 3311 3308 3308 3308 3309 3312 3316 3318 3322 3322 3323 3323 3323 3319 3318 3312 3312 3312 3313 3320 3325 3325 3325 3324 3321 3315 3310 3306 3301 3300 3297 3296 3291 3288 3283 3276 3267 3258 3254 3249 3243 3236 3235 3227 3198 3161 3129 3086 3009 2859 2707 2241 0 0 0 0 0 1198 1193 1189 1188 1187 1186 1186 1186 1187 1192 1195 1198 1199 1204 1207 1211 1216 1222 1230 1237 1242 1245 1246 1256 1266 1266 1266 1266 1266 1265 1264 1263 1261 1252 1244 1232 1219 1207 1203 1197 1193 1188 1183 1180 1177 1176 1175 1175 1175 1175 1177 1181 1187 1194 1203 1212 1226 1233 1249 1274 1283 1284 1289 1293 1299 1299 1299 1294 1293 1287 1275 1254 1238 1228 0 0 0 0 1064 1053 1048 1048 1046 1045 1044 1042 1039 1038 1037 1036 1036 1034 1033 1032 1031 1030 1029 1029 1028 1027 1027 1026 1026 1026 1024 1024 1023 1022 1022 1020 1020 1019 1018 1018 1017 1016 1015 1015 1015 1014 1013 1012 1012 1011 1010 1010 1009 1008 1007 1007 1006 1006 1005 1005 1005 1005 1003 1001 1000 1000 1000 1000 1000 998 996 995 994 992 991 990 989 988 986 985 984 984 983 982 982 980 980 979 978 978 977 977 977 976 976 975 974 974 973 972 972 971 970 969 969 969 967 966 966 965 964 964 963 962 962 961 960 960 960 959 958 958 957 957 957 957 956 955 955 954 953 952 950 949 948 947 946 945 944 944 943 942 941 940 940 940 939 938 938 938 937 937 937 936 935 935 934 933 933 931 931 930 930 929 928 928 928 928 928 928 928 928 929 929 930 930 931 934 935 938 940 949 963 0 0 0 0 0 0 0 1591 1591 1591 1587 1585 1581 1581 1580 1580 1580 1579 1576 1574 1571 1568 1566 1564 1562 1562 1560 1558 1555 1554 1553 1552 1549 1548 1548 1547 1545 1544 1544 1544 1544 1544 1545 1546 1547 1547 1548 1551 1553 1558 1561 1564 1564 1564 1567 1569 1570 1571 1572 1572 1573 1574 1574 1574 1573 1572 1572 1572 1572 1571 1570 1568 1567 1564 1562 1560 1558 1555 1554 1551 1549 1547 1545 1542 1542 1541 1541 1541 1542 1542 1542 1544 1546 1547 1550 1552 1556 1557 1559 1559 1561 1562 1562 1564 1564 1565 1566 1567 1569 1569 1569 1569 1570 1571 1572 1573 1575 1576 1576 1577 1578 1579 1579 1580 1580 1581 1581 1582 1583 1583 1583 1582 1582 1582 1582 1583 1588 1592 1597 1602 1606 1607 1610 1613 1614 1617 1619 1622 1624 1626 1626 1626 1626 1623 1622 1621 1621 1621 1622 1625 1629 1631 1632 1634 1635 1635 1635 1635 1632 1632 1632 1632 1632 1632 1630 1623 1617 1610 1608 1605 1601 1590 1584 1580 1580 1580
2170 2170 2171 2175 2188 2212 2247 2279 2306 2330 2353 2372 2385 2394 2410 2416 2423 2448 2467 2471 2472 2474 2493 2514 2535 2538 2546 2555 2563 2572 2587 2594 2609 2630 2655 2665 2670 2670 2670 2676 2682 2682 2702 2707 2733 2758 2769 2771 2775 2792 2813 2831 2854 2860 2865 2873 2883 2885 2887 2892 2893 2899 2906 2919 2940 2962 2963 2963 2963 2963 2963 2968 2974 2975 2977 2987 2997 3004 3013 3021 3033 3045 3052 3057 3064 3071 3084 3092 3092 3093 3093 3094 3099 3108 3116 3128 3141 3147 3149 3153 3153 3156 3162 3162 3162 3162 3162 3162 3165 3181 3194 3205 3215 3225 3236 3241 3241 3241 3241 3241 3243 3245 3250 3256 3264 3269 3273 3279 3284 3286 3289 3289 3289 3293 3299 3304 3307 3311 3311 3311 3309 3309 3309 3313 3315 3318 3321 3322 3322 3323 3323 3323 3319 3318 3313 3313 3313 3316 3321 3325 3327 3327 3327 3322 3315 3306 3300 3299 3298 3297 3296 3290 3284 3277 3265 3254 3244 3238 3229 3217 3217 3216 3213 3197 3161 3118 3077 2999 2767 2431 2021 0 0 0 0 1206 1198 1192 1189 1188 1187 1186 1186 1186 1186 1187 1191 1194 1196 1201 1206 1207 1210 1217 1223 1230 1235 1239 1243 1251 1260 1264 1264 1264 1264 1264 1264 1263 1261 1255 1244 1231 1218 1207 1201 1196 1189 1184 1180 1176 1174 1174 1174 1173 1173 1173 1174 1176 1182 1194 1202 1212 1219 1224 1242 1266 1277 1279 1286 1293 1299 1299 1299 1292 1285 1277 1264 1236 1221 0 0 0 1097 1073 1056 1051 1048 1048 1047 1046 1045 1042 1039 1038 1037 1037 1037 1035 1034 1033 1032 1030 1030 1030 1030 1029 1028 1027 1027 1027 1026 1025 1024 1024 1022 1021 1021 1020 1019 1019 1018 1017 1017 1016 1015 1014 1014 1013 1013 1012 1012 1011 1010 1010 1008 1008 1008 1008 1007 1006 1005 1005 1003 1002 1002 1001 1001 1001 1000 998 997 995 995 994 992 990 990 988 987 986 985 984 983 983 982 981 981 980 980 980 979 979 979 978 977 976 975 974 974 973 972 972 971 971 969 969 968 967 966 966 965 964 964 963 962 961 961 960 960 959 959 958 958 958 957 957 956 956 955 955 953 952 952 951 949 948 947 946 945 944 944 943 942 942 942 940 940 939 939 939 939 937 937 937 936 935 935 934 933 932 932 930 930 929 929 929 928 928 928 928 928 928 929 929 929 930 931 932 934 934 940 944 956 974 0 0 0 0 0 0 1590 1590 1590 1587 1585 1585 1585 1584 1584 1583 1581 1579 1577 1575 1574 1572 1569 1567 1565 1563 1560 1558 1556 1555 1554 1552 1549 1548 1548 1546 1545 1545 1544 1544 1544 1543 1543 1543 1544 1545 1545 1547 1550 1554 1558 1559 1560 1562 1567 1570 1570 1570 1571 1571 1571 1572 1572 1572 1572 1572 1572 1572 1571 1570 1569 1569 1567 1565 1562 1560 1558 1556 1554 1551 1548 1547 1545 1542 1541 1541 1541 1541 1541 1541 1541 1544 1546 1548 1551 1553 1556 1556 1557 1558 1559 1561 1562 1562 1563 1563 1565 1566 1566 1567 1568 1568 1570 1571 1572 1572 1573 1574 1576 1577 1578 1578 1579 1579 1580 1581 1581 1581 1582 1582 1582 1581 1581 1581 1583 1587 1590 1591 1595 1599 1600 1605 1609 1612 1613 1617 1620 1621 1623 1623 1623 1623 1621 1620 1618 1618 1618 1619 1623 1627 1630 1630 1630 1630 1630 1630 1629 1628 1628 1627 1627 1627 1627 1627 1619 1611 1606 1604 1600 1596 1588 1580 1580 1577 1577
