1607 1613 1615 1620 1637 1653 1668 1676 1686 1706 1735 1760 1775 1785 1794 1809 1833 1867 1890 1901 1909 1922 1934 1949 1972 1980 1985 1988 1992 2007 2022 2046 2073 2095 2111 2132 2151 2166 2176 2188 2192 2193 2194 2208 2213 2214 2222 2239 2256 2274 2285 2298 2310 2321 2333 2341 2344 2347 2349 2354 2366 2380 2388 2393 2403 2418 2424 2427 2437 2452 2463 2475 2489 2503 2515 2519 2531 2536 2543 2548 2552 2554 2558 2563 2575 2590 2599 2601 2603 2609 2613 2613 2615 2617 2624 2635 2637 2637 2637 2637 2613 2613 2613 2621 2621 2628 2638 2642 2648 2671 2704 2721 2737 2742 2746 2748 2750 2758 2769 2779 2790 2801 2807 2811 2813 2813 2818 2825 2826 2826 2826 2820 2808 2777 2775 2775 2775 2780 2814 2850 2859 2865 2867 2872 2878 2887 2891 2891 2891 2891 2891 2892 2893 2894 2894 2894 2896 2897 2897 2897 2899 2902 2911 2920 2923 2923 2923 2923 2923 2923 2931 2934 2935 2935 2935 2931 2930 2930 2930 2935 2943 2952 2960 2964 2967 2974 2978 2982 2986 2990 2991 2996 2999 3003 3010 3010 3010 3008 3004 3004 3004 3011 3021 3029 3033 3033 3033 3031 3031 3031 3034 3046 3054 3054 3054 3052 3047 3041 3041 3041 3046 3049 3049 3049 3047 3042 3042 3042 3046 3054 3060 3070 3074 3079 3085 3087 3087 3087 3084 3083 3083 3083 3093 3099 3099 3099 3093 3089 3089 3089 3089 3088 3085 3085 3084 3084 3083 3081 3079 3078 3074 3070 3069 3065 3062 3059 3058 3056 3055 3053 3051 3049 3046 3044 3043 3043 3041 3038 3037 3035 3033 3031 3027 3027 3027 3026 3026 3025 3020 3011 2987 2956 2891 2742 0 0 0 1983 1978 1977 1977 1976 1977 1977 1976 1976 1976 1976 1976 1976 1976 1976 1976 1975 1976 1975 1975 1975 1975 1975 1974 1974 1974 1973 1973 1973 1972 1972 1972 1973 1974 1975 1976 1978 1980 1981 1982 1983 1985 1986 1988 1990 1991 1991 1992 1992 1993 1993 1993 1993 1992 1990 1990 1988 1987 1985 1983 1982 1979 1977 1975 1975 1974 1971 1964 1956 1948 1936 1923 1913 1904 1899 1894 1888 1883 1877 1872 1867 1861 1854 1847 1839 1829 1820 1815 1811 1806 1798 1792 1786 1782 1778 1774 1770 1768 1765 1763 1761 1758 1756 1754 1751 1749 1746 1744 1741 1738 1737 1735 1733 1731 1729 1726 1724 1722 1722 1720 1718 1716 1713 1711 1708 1706 1704 1703 1701 1700 1697 1695 1692 1688 1682 1674 1665 1653 1647 1640 1622 1613 1603 1592 1582 1572 1561 1550 1549 1548 1545 1541 1539 1536 1535 1532 1529 1527 1524 1521 1519 1518 1515 1514 1512 1510 1509 1508 1507 1506 1506 1506 1506 1506 1507 1507 1508 1508 1510 1511 1513 1513 1513 1514 1514 1515 1515 1515 1517 1518 1518 1518 1518 1519 1519 1520 1520 1520 1519 1519 1519 1518 1518 1518 1517 1517 1517 1516 1515 1515 1514 1514 1514 1513 1512 1512 1511 1511 1510 1508 1508 1506 1505 1504 1502 1501 1499 1498 1497 1495 1493 1491 1490 1489 1488 1485 1484 1483 1481 1479 1478 1476 1474 1473 1473 1472 1470 1469 1466 1464 1462 1461 1460 1458 1457 1456 1454 1453 1452 1451 1451 1450 1450 1450 1450 1452 1454 1456 1460 1465 1467 1468 1470 1472 1474 1475 1476 1477 1478 1479 1479 1479 1478 1477 1476 1475 1474 1472 1471 1470 1468 1467 1464 1461 1458 1454 1451 1447 1444 1441 1438 1434 1432 1430 1429 1424 1419 1415 1410 1407 1400 1387 1378 1368 1360 1345 1339 1333 1318 1311 1304 1296 1294 1282 1277 1276 1272 1272 1272 1279 1280 1288 1291 1300 1305 1305 1305
1613 1617 1618 1623 1637 1657 1672 1683 1696 1717 1747 1772 1781 1798 1805 1811 1837 1867 1891 1903 1909 1913 1927 1949 1972 1980 1989 1999 2010 2022 2042 2060 2073 2095 2114 2137 2156 2168 2177 2188 2192 2193 2194 2208 2226 2237 2243 2253 2266 2277 2285 2300 2310 2322 2333 2341 2344 2347 2351 2357 2368 2381 2392 2404 2413 2418 2424 2428 2438 2452 2465 2475 2489 2503 2515 2527 2537 2544 2548 2550 2553 2561 2567 2575 2586 2601 2612 2614 2619 2621 2621 2621 2621 2621 2624 2635 2637 2639 2639 2639 2630 2621 2621 2621 2621 2628 2643 2643 2648 2679 2705 2723 2738 2744 2748 2749 2756 2764 2776 2786 2795 2801 2807 2811 2817 2817 2821 2825 2829 2832 2832 2832 2826 2810 2790 2786 2786 2786 2814 2841 2859 2870 2879 2881 2881 2887 2892 2892 2892 2893 2893 2895 2898 2900 2901 2901 2901 2901 2901 2902 2904 2906 2913 2921 2925 2925 2926 2926 2926 2926 2931 2934 2937 2937 2937 2933 2930 2930 2930 2935 2943 2951 2959 2964 2968 2978 2981 2982 2986 2988 2991 2996 2999 3002 3004 3007 3007 3007 3007 3007 3007 3013 3023 3029 3033 3033 3033 3033 3033 3033 3037 3051 3058 3058 3058 3052 3046 3035 3035 3035 3035 3047 3047 3047 3047 3044 3044 3044 3050 3057 3063 3070 3074 3079 3081 3084 3084 3084 3083 3083 3083 3084 3092 3092 3092 3092 3089 3089 3089 3089 3091 3091 3091 3089 3088 3085 3083 3081 3079 3076 3072 3069 3066 3063 3061 3059 3057 3055 3053 3051 3050 3049 3045 3043 3042 3042 3039 3034 3032 3031 3028 3026 3026 3026 3026 3031 3031 3031 3031 3017 2998 2956 2890 2741 0 0 0 1983 1978 1977 1977 1976 1977 1977 1976 1976 1976 1975 1975 1975 1975 1975 1975 1975 1975 1975 1975 1975 1975 1975 1974 1974 1974 1974 1973 1973 1973 1973 1973 1973 1974 1975 1977 1978 1980 1981 1982 1983 1985 1986 1988 1990 1991 1992 1992 1993 1993 1993 1993 1993 1992 1992 1991 1990 1988 1988 1984 1983 1980 1979 1977 1977 1975 1973 1966 1957 1946 1932 1920 1911 1902 1895 1891 1886 1883 1878 1872 1867 1862 1854 1848 1840 1830 1821 1815 1812 1806 1800 1792 1787 1782 1778 1775 1772 1769 1766 1764 1762 1759 1757 1754 1751 1749 1746 1744 1741 1738 1737 1735 1733 1731 1729 1726 1725 1723 1722 1720 1718 1716 1714 1712 1710 1708 1706 1704 1702 1700 1698 1695 1692 1689 1684 1680 1675 1669 1660 1651 1645 1629 1614 1603 1593 1583 1578 1570 1554 1548 1547 1545 1542 1538 1537 1535 1532 1529 1526 1524 1521 1519 1516 1514 1512 1510 1509 1507 1506 1505 1505 1505 1505 1505 1505 1505 1506 1507 1508 1508 1509 1510 1510 1511 1511 1511 1511 1512 1512 1513 1514 1515 1515 1516 1516 1517 1518 1518 1518 1517 1517 1517 1516 1516 1516 1516 1515 1515 1515 1514 1514 1514 1513 1512 1512 1511 1511 1510 1510 1508 1508 1507 1505 1504 1503 1501 1500 1499 1497 1496 1494 1492 1490 1490 1488 1487 1485 1484 1482 1481 1479 1477 1476 1475 1475 1473 1472 1470 1468 1466 1464 1463 1460 1460 1458 1457 1456 1455 1453 1453 1451 1451 1450 1449 1449 1449 1450 1452 1453 1457 1462 1467 1469 1470 1471 1473 1473 1476 1477 1478 1478 1478 1477 1476 1476 1475 1474 1472 1471 1470 1468 1467 1464 1461 1458 1454 1452 1448 1445 1442 1441 1438 1435 1432 1429 1425 1421 1417 1411 1407 1400 1388 1379 1370 1363 1350 1347 1343 1324 1312 1299 1291 1287 1282 1277 1276 1271 1267 1267 1267 1272 1280 1289 1290 1300 1305 1305
1616 1619 1621 1623 1638 1659 1680 1697 1716 1739 1767 1776 1796 1800 1809 1821 1849 1875 1893 1904 1909 1913 1927 1949 1966 1980 1994 2008 2021 2039 2055 2060 2073 2095 2114 2137 2156 2168 2177 2188 2192 2193 2194 2208 2226 2246 2257 2266 2273 2279 2287 2300 2310 2322 2333 2338 2343 2346 2351 2357 2369 2383 2393 2406 2413 2419 2424 2430 2441 2453 2465 2476 2489 2503 2515 2530 2545 2553 2556 2559 2563 2570 2580 2589 2599 2613 2620 2627 2631 2633 2637 2637 2637 2637 2637 2637 2637 2639 2640 2640 2640 2630 2630 2630 2638 2652 2659 2659 2674 2694 2710 2728 2738 2747 2750 2754 2757 2766 2776 2786 2796 2802 2807 2811 2817 2817 2821 2825 2829 2835 2837 2837 2837 2824 2807 2794 2794 2794 2816 2841 2859 2871 2880 2882 2882 2887 2892 2892 2892 2893 2893 2895 2898 2905 2907 2907 2907 2905 2905 2905 2907 2910 2916 2921 2925 2925 2926 2926 2926 2927 2931 2935 2939 2939 2939 2936 2930 2930 2930 2936 2941 2947 2954 2962 2968 2978 2981 2982 2984 2985 2987 2991 2995 2997 2997 2999 3004 3008 3008 3008 3009 3017 3024 3030 3033 3033 3033 3035 3035 3037 3047 3057 3058 3058 3058 3052 3040 3026 3025 3025 3025 3038 3046 3046 3046 3044 3044 3044 3051 3058 3063 3070 3071 3074 3077 3083 3083 3083 3085 3084 3084 3085 3088 3088 3088 3088 3088 3088 3092 3092 3092 3091 3091 3089 3088 3085 3083 3080 3077 3075 3072 3069 3066 3063 3059 3058 3057 3055 3052 3050 3048 3047 3045 3043 3042 3042 3037 3030 3027 3027 3025 3022 3022 3022 3026 3031 3031 3031 3031 3027 2999 2956 2889 2724 0 0 0 1983 1978 1977 1977 1976 1977 1977 1976 1976 1975 1975 1975 1975 1975 1974 1975 1975 1975 1975 1975 1975 1975 1975 1974 1974 1974 1974 1974 1973 1973 1973 1973 1974 1974 1975 1977 1978 1980 1981 1982 1983 1985 1986 1988 1990 1991 1992 1992 1993 1994 1994 1994 1994 1994 1993 1991 1991 1990 1988 1986 1984 1982 1981 1979 1977 1976 1973 1966 1952 1941 1930 1919 1909 1901 1893 1890 1885 1883 1878 1872 1866 1863 1856 1849 1842 1834 1826 1819 1812 1807 1801 1794 1789 1783 1779 1777 1775 1770 1767 1765 1763 1759 1758 1755 1752 1750 1747 1744 1742 1739 1738 1735 1733 1731 1729 1727 1725 1723 1722 1720 1718 1716 1714 1712 1710 1708 1706 1704 1702 1700 1698 1695 1692 1689 1686 1681 1677 1673 1668 1663 1657 1647 1632 1616 1602 1593 1590 1584 1573 1556 1549 1547 1544 1540 1540 1539 1536 1532 1529 1526 1523 1520 1517 1514 1512 1511 1509 1507 1506 1505 1504 1503 1503 1502 1502 1502 1502 1503 1504 1504 1505 1506 1507 1507 1508 1509 1509 1509 1509 1509 1510 1511 1512 1513 1513 1513 1515 1515 1515 1515 1515 1515 1515 1515 1514 1514 1514 1514 1514 1514 1513 1513 1513 1512 1512 1511 1511 1510 1510 1508 1508 1507 1506 1504 1503 1502 1501 1499 1498 1496 1495 1494 1491 1490 1490 1488 1485 1484 1483 1482 1480 1479 1478 1477 1476 1474 1473 1471 1470 1468 1466 1464 1462 1461 1459 1458 1456 1455 1455 1454 1452 1451 1450 1449 1448 1448 1448 1448 1449 1450 1454 1461 1466 1468 1469 1470 1472 1474 1475 1476 1476 1476 1476 1475 1475 1474 1474 1472 1470 1470 1468 1467 1464 1460 1457 1454 1452 1448 1445 1443 1441 1438 1436 1432 1429 1425 1421 1417 1411 1408 1400 1388 1379 1374 1368 1355 1354 1343 1330 1313 1299 1291 1287 1282 1277 1276 1271 1267 1263 1263 1263 1269 1278 1289 1293 1302 1302
1622 1626 1627 1629 1644 1666 1695 1720 1740 1761 1784 1788 1800 1813 1822 1837 1856 1875 1893 1904 1909 1913 1927 1955 1972 1984 1999 2012 2028 2039 2055 2060 2067 2089 2114 2137 2156 2168 2177 2182 2184 2186 2194 2207 2226 2246 2257 2267 2274 2279 2287 2300 2311 2322 2330 2333 2337 2346 2351 2361 2381 2394 2403 2411 2417 2422 2429 2437 2446 2456 2468 2480 2491 2499 2515 2530 2546 2557 2563 2567 2574 2582 2592 2602 2610 2617 2622 2629 2639 2644 2644 2644 2644 2642 2642 2642 2642 2642 2643 2647 2649 2650 2652 2665 2684 2697 2698 2700 2708 2718 2725 2731 2744 2750 2755 2756 2758 2766 2777 2787 2796 2803 2809 2811 2817 2818 2821 2822 2827 2835 2837 2837 2837 2824 2807 2798 2798 2798 2816 2841 2859 2872 2880 2883 2885 2886 2892 2892 2892 2893 2893 2895 2898 2905 2910 2910 2910 2910 2910 2910 2910 2914 2916 2921 2922 2922 2924 2925 2926 2928 2931 2935 2939 2939 2939 2936 2930 2930 2930 2936 2941 2947 2954 2960 2968 2978 2981 2982 2984 2985 2987 2990 2993 2993 2993 2996 3004 3007 3010 3012 3017 3022 3026 3030 3033 3033 3033 3033 3033 3042 3052 3058 3058 3058 3055 3046 3036 3026 3023 3023 3023 3032 3038 3043 3043 3044 3044 3044 3051 3058 3063 3068 3069 3072 3077 3082 3082 3082 3083 3083 3083 3083 3083 3083 3083 3083 3084 3088 3092 3092 3092 3091 3091 3089 3088 3085 3082 3079 3077 3075 3072 3069 3066 3063 3059 3058 3056 3054 3051 3050 3048 3047 3045 3043 3042 3042 3037 3029 3026 3024 3024 3022 3018 3018 3018 3021 3030 3030 3030 3027 2999 2956 2879 2673 0 0 0 1973 1973 1973 1974 1976 1976 1976 1976 1974 1974 1973 1973 1973 1973 1973 1974 1974 1974 1975 1975 1975 1974 1974 1974 1974 1974 1974 1974 1974 1973 1973 1973 1974 1974 1976 1977 1978 1980 1981 1982 1983 1984 1985 1988 1989 1990 1991 1992 1993 1994 1995 1995 1995 1994 1994 1993 1992 1991 1990 1987 1986 1984 1982 1980 1978 1976 1973 1966 1952 1940 1929 1918 1909 1901 1893 1889 1885 1882 1878 1872 1866 1863 1857 1852 1845 1839 1831 1825 1816 1809 1802 1797 1792 1786 1780 1778 1777 1774 1769 1766 1764 1761 1759 1755 1753 1750 1748 1745 1742 1739 1738 1736 1733 1731 1729 1727 1725 1723 1721 1720 1717 1716 1714 1712 1710 1708 1706 1704 1702 1700 1698 1695 1693 1690 1686 1682 1678 1676 1673 1671 1667 1659 1648 1638 1625 1609 1602 1594 1586 1576 1561 1554 1549 1544 1541 1540 1539 1535 1531 1528 1525 1520 1518 1515 1512 1511 1509 1507 1506 1505 1504 1503 1502 1501 1500 1500 1500 1500 1501 1502 1502 1503 1504 1505 1505 1505 1505 1505 1506 1506 1506 1506 1508 1510 1510 1511 1512 1512 1513 1513 1513 1513 1513 1513 1513 1513 1513 1513 1513 1513 1512 1512 1512 1512 1511 1511 1510 1509 1509 1508 1508 1507 1506 1505 1504 1502 1501 1500 1499 1498 1496 1494 1493 1491 1490 1488 1487 1485 1484 1483 1481 1480 1479 1477 1477 1476 1475 1473 1472 1470 1468 1466 1464 1462 1461 1459 1457 1456 1455 1454 1452 1451 1450 1449 1448 1447 1445 1445 1445 1447 1450 1453 1459 1460 1466 1468 1469 1472 1473 1474 1475 1475 1475 1475 1475 1474 1473 1472 1470 1468 1468 1466 1464 1460 1457 1454 1452 1448 1445 1443 1441 1438 1436 1432 1429 1425 1421 1417 1412 1408 1402 1389 1379 1376 1370 1361 1354 1343 1330 1313 1299 1291 1287 1283 1283 1282 1275 1267 1263 1263 1263 1269 1276 1284 1292 1300 1300
1632 1640 1642 1644 1659 1684 1720 1740 1759 1778 1786 1791 1811 1825 1834 1845 1856 1875 1893 1904 1909 1928 1946 1955 1973 1986 2001 2015 2028 2039 2053 2055 2059 2073 2104 2125 2140 2151 2160 2165 2176 2186 2194 2207 2224 2246 2259 2269 2276 2281 2287 2300 2311 2322 2330 2333 2337 2346 2356 2380 2408 2417 2419 2421 2422 2427 2438 2446 2454 2463 2470 2480 2491 2499 2516 2530 2547 2558 2566 2572 2578 2587 2598 2608 2616 2620 2624 2632 2641 2647 2648 2648 2648 2648 2648 2646 2646 2646 2646 2651 2656 2661 2662 2673 2691 2704 2712 2714 2722 2733 2740 2747 2753 2755 2755 2757 2758 2768 2777 2789 2796 2803 2809 2811 2816 2816 2816 2816 2816 2824 2837 2837 2837 2824 2807 2800 2800 2800 2822 2845 2859 2874 2881 2885 2885 2886 2892 2892 2892 2893 2893 2893 2897 2905 2911 2913 2913 2913 2913 2913 2914 2916 2919 2921 2922 2922 2923 2924 2926 2929 2932 2935 2939 2939 2939 2936 2932 2932 2932 2936 2941 2947 2954 2960 2968 2977 2980 2980 2982 2984 2986 2989 2992 2993 2993 2994 3003 3007 3010 3012 3017 3022 3026 3030 3032 3032 3033 3033 3036 3043 3052 3052 3052 3051 3045 3034 3027 3015 3015 3015 3022 3031 3037 3038 3040 3041 3042 3044 3051 3058 3062 3063 3065 3068 3073 3078 3080 3081 3082 3083 3083 3083 3077 3077 3077 3078 3084 3089 3092 3092 3092 3089 3088 3088 3085 3081 3079 3079 3077 3075 3072 3069 3067 3064 3059 3057 3055 3054 3051 3050 3048 3047 3045 3045 3045 3043 3037 3029 3024 3023 3022 3021 3017 3016 3016 3016 3026 3027 3027 3027 2999 2947 2844 2664 0 0 0 1971 1971 1971 1973 1974 1974 1974 1974 1974 1974 1973 1973 1973 1972 1972 1972 1972 1973 1974 1974 1974 1974 1974 1974 1974 1974 1974 1974 1974 1974 1974 1974 1974 1975 1976 1977 1978 1980 1981 1982 1983 1984 1985 1987 1989 1990 1991 1992 1993 1994 1995 1995 1995 1995 1995 1994 1993 1992 1990 1989 1987 1984 1983 1981 1978 1975 1972 1965 1952 1938 1928 1917 1909 1901 1893 1889 1885 1882 1878 1872 1866 1863 1857 1852 1846 1840 1835 1829 1820 1812 1806 1800 1794 1788 1784 1781 1778 1775 1770 1768 1765 1762 1759 1757 1753 1751 1749 1746 1742 1741 1738 1736 1734 1731 1729 1727 1725 1723 1721 1719 1717 1715 1714 1712 1710 1708 1706 1704 1702 1700 1698 1695 1693 1689 1687 1682 1680 1678 1676 1672 1669 1664 1656 1653 1646 1630 1613 1604 1594 1587 1580 1572 1562 1551 1547 1544 1540 1537 1534 1529 1526 1521 1518 1515 1513 1511 1509 1507 1506 1505 1504 1503 1502 1500 1500 1499 1499 1499 1499 1499 1500 1500 1500 1501 1502 1502 1502 1502 1503 1503 1503 1503 1505 1506 1507 1508 1509 1509 1510 1510 1510 1511 1511 1511 1511 1511 1511 1511 1511 1511 1511 1511 1511 1511 1510 1510 1510 1509 1508 1508 1507 1507 1506 1505 1504 1503 1502 1500 1500 1498 1496 1495 1493 1492 1491 1490 1488 1487 1485 1484 1483 1482 1480 1479 1478 1476 1475 1474 1472 1471 1469 1467 1466 1464 1462 1460 1458 1457 1456 1454 1453 1451 1450 1449 1448 1447 1445 1444 1444 1444 1447 1451 1455 1460 1461 1465 1468 1470 1471 1473 1473 1473 1474 1474 1474 1473 1472 1470 1469 1468 1467 1465 1463 1459 1457 1454 1452 1448 1445 1443 1441 1439 1436 1432 1429 1425 1421 1417 1412 1409 1403 1396 1388 1379 1371 1361 1354 1343 1330 1317 1306 1296 1294 1290 1289 1286 1280 1274 1268 1268 1268 1269 1276 1278 1287 1299 1299
1632 1660 1668 1674 1695 1716 1736 1756 1774 1781 1787 1799 1811 1825 1838 1845 1857 1874 1887 1904 1909 1928 1949 1958 1978 1991 2006 2017 2028 2047 2053 2056 2059 2073 2104 2125 2138 2150 2155 2165 2176 2186 2195 2207 2224 2246 2260 2269 2277 2281 2287 2304 2311 2322 2330 2333 2337 2346 2365 2386 2408 2420 2425 2428 2431 2432 2445 2456 2464 2476 2480 2488 2491 2499 2516 2532 2547 2558 2566 2573 2580 2589 2601 2613 2620 2627 2634 2638 2646 2652 2656 2656 2656 2653 2653 2652 2653 2653 2653 2661 2669 2672 2672 2680 2693 2708 2717 2723 2729 2739 2749 2755 2758 2758 2759 2760 2762 2769 2780 2791 2801 2807 2810 2815 2816 2816 2816 2816 2816 2817 2823 2823 2823 2821 2810 2810 2810 2826 2849 2861 2870 2880 2884 2885 2885 2886 2892 2892 2892 2893 2893 2893 2897 2905 2911 2917 2918 2918 2918 2918 2918 2918 2921 2921 2922 2922 2922 2923 2926 2929 2932 2937 2941 2941 2941 2937 2933 2933 2933 2938 2944 2950 2955 2960 2967 2973 2973 2974 2977 2984 2986 2988 2990 2990 2991 2994 3003 3006 3010 3012 3017 3022 3026 3030 3031 3031 3033 3033 3036 3046 3054 3054 3054 3045 3032 3021 3012 3012 3012 3012 3022 3030 3034 3034 3034 3034 3034 3039 3045 3053 3058 3060 3061 3061 3066 3070 3076 3079 3079 3079 3079 3077 3070 3070 3070 3076 3084 3092 3092 3092 3086 3081 3079 3077 3077 3077 3077 3077 3077 3075 3072 3069 3067 3065 3061 3057 3055 3054 3051 3050 3049 3049 3049 3048 3048 3046 3037 3029 3022 3021 3021 3021 3018 3015 3015 3015 3026 3026 3026 3016 2980 2926 2843 2657 0 0 1980 1971 1971 1970 1971 1971 1973 1974 1974 1974 1974 1973 1973 1973 1972 1972 1972 1972 1973 1974 1974 1974 1974 1974 1974 1974 1974 1974 1974 1974 1974 1974 1975 1975 1975 1976 1978 1978 1980 1981 1982 1983 1984 1985 1987 1988 1990 1991 1992 1993 1994 1995 1996 1996 1996 1995 1994 1994 1992 1991 1989 1988 1986 1984 1981 1978 1975 1971 1963 1950 1936 1927 1916 1908 1901 1893 1888 1885 1881 1878 1872 1866 1862 1857 1852 1846 1840 1835 1830 1823 1815 1809 1803 1796 1790 1786 1783 1779 1775 1772 1769 1767 1764 1761 1757 1755 1752 1749 1746 1744 1741 1739 1736 1734 1731 1729 1727 1725 1723 1721 1719 1717 1715 1714 1712 1710 1708 1706 1704 1702 1700 1698 1695 1693 1690 1687 1685 1682 1680 1676 1673 1669 1664 1659 1656 1654 1648 1638 1621 1607 1595 1586 1579 1574 1564 1554 1549 1545 1540 1536 1532 1528 1523 1520 1516 1513 1511 1509 1508 1506 1505 1504 1503 1501 1500 1499 1498 1498 1497 1497 1497 1497 1497 1498 1498 1499 1499 1499 1499 1499 1500 1500 1501 1502 1503 1503 1505 1505 1506 1507 1507 1508 1508 1509 1509 1509 1510 1510 1510 1510 1510 1510 1510 1510 1510 1510 1510 1509 1508 1508 1508 1507 1507 1506 1505 1504 1503 1502 1502 1500 1499 1497 1496 1495 1493 1492 1490 1489 1488 1486 1485 1484 1483 1481 1480 1478 1478 1477 1475 1474 1472 1470 1469 1467 1465 1464 1463 1460 1459 1457 1454 1454 1452 1450 1449 1448 1447 1445 1444 1444 1444 1444 1451 1453 1457 1457 1461 1464 1467 1469 1470 1471 1472 1473 1473 1473 1472 1471 1470 1469 1467 1466 1464 1461 1459 1456 1453 1450 1448 1445 1442 1441 1439 1435 1431 1429 1425 1421 1417 1413 1410 1405 1399 1391 1381 1371 1361 1350 1343 1330 1322 1311 1302 1295 1290 1289 1286 1280 1277 1273 1273 1273 1274 1276 1278 1283 1294 1294
1633 1668 1686 1702 1717 1735 1751 1759 1777 1790 1794 1799 1811 1829 1839 1846 1857 1860 1873 1889 1907 1929 1949 1962 1978 1998 2013 2019 2029 2047 2053 2056 2059 2073 2104 2125 2138 2150 2155 2165 2176 2190 2204 2211 2224 2246 2260 2269 2279 2285 2292 2305 2318 2331 2335 2345 2351 2359 2374 2390 2408 2420 2430 2431 2431 2437 2449 2464 2475 2483 2487 2492 2498 2508 2521 2537 2550 2559 2567 2574 2582 2593 2602 2613 2628 2639 2646 2649 2652 2657 2661 2664 2666 2666 2666 2666 2666 2666 2667 2677 2683 2685 2689 2693 2699 2710 2719 2726 2740 2751 2760 2765 2765 2765 2765 2765 2765 2772 2783 2795 2803 2809 2817 2821 2821 2821 2816 2816 2816 2817 2823 2823 2823 2821 2821 2821 2824 2853 2869 2879 2887 2887 2887 2890 2890 2892 2894 2894 2894 2894 2894 2894 2897 2905 2912 2919 2925 2925 2925 2921 2921 2921 2921 2922 2922 2922 2922 2923 2926 2929 2932 2937 2941 2941 2941 2937 2934 2934 2934 2939 2944 2950 2955 2960 2966 2966 2969 2969 2969 2976 2980 2983 2983 2983 2984 2991 3000 3000 3002 3002 3006 3017 3025 3030 3030 3030 3031 3033 3036 3046 3054 3054 3054 3040 3022 3009 3004 3004 3004 3008 3018 3027 3029 3029 3031 3031 3033 3038 3043 3049 3054 3057 3057 3058 3059 3063 3070 3073 3077 3077 3077 3074 3066 3066 3066 3075 3084 3091 3091 3091 3085 3080 3077 3073 3073 3073 3077 3077 3077 3075 3071 3068 3067 3065 3062 3057 3055 3053 3051 3050 3049 3049 3049 3048 3048 3046 3037 3029 3022 3021 3021 3021 3018 3015 3015 3015 3021 3021 3021 2998 2961 2915 2843 2649 0 0 1974 1970 1968 1968 1970 1970 1973 1974 1974 1974 1974 1973 1973 1973 1972 1972 1972 1972 1973 1973 1973 1974 1974 1974 1974 1974 1974 1974 1974 1974 1975 1975 1975 1976 1976 1976 1978 1979 1980 1981 1982 1983 1984 1985 1986 1988 1990 1991 1992 1993 1994 1995 1996 1996 1996 1996 1995 1994 1993 1991 1990 1989 1987 1985 1982 1978 1974 1969 1962 1949 1934 1921 1914 1906 1898 1891 1888 1885 1881 1878 1872 1866 1862 1857 1851 1846 1840 1836 1831 1825 1817 1811 1805 1799 1792 1789 1785 1782 1777 1774 1771 1768 1764 1761 1758 1756 1753 1750 1746 1744 1742 1739 1737 1734 1731 1729 1726 1725 1723 1721 1719 1717 1715 1714 1712 1710 1708 1706 1704 1702 1700 1698 1695 1693 1690 1688 1686 1683 1681 1677 1673 1670 1666 1661 1657 1657 1654 1648 1642 1627 1609 1595 1587 1581 1574 1566 1555 1548 1542 1540 1535 1531 1524 1520 1517 1514 1512 1511 1508 1507 1506 1505 1503 1502 1500 1499 1498 1496 1494 1494 1494 1494 1495 1496 1496 1496 1496 1496 1497 1497 1497 1497 1498 1499 1499 1500 1500 1502 1504 1505 1505 1505 1505 1506 1507 1508 1509 1509 1509 1509 1509 1509 1509 1509 1509 1509 1509 1508 1508 1507 1507 1507 1506 1506 1505 1504 1503 1502 1502 1500 1499 1498 1497 1496 1494 1492 1491 1490 1489 1488 1487 1485 1484 1482 1481 1480 1479 1478 1477 1476 1473 1471 1470 1468 1466 1464 1463 1461 1460 1458 1457 1454 1453 1451 1450 1448 1447 1445 1444 1444 1444 1444 1447 1450 1451 1452 1453 1456 1462 1466 1469 1471 1472 1472 1472 1472 1471 1470 1468 1468 1467 1465 1462 1460 1457 1455 1452 1450 1447 1444 1442 1441 1439 1435 1431 1429 1425 1420 1417 1413 1410 1405 1399 1391 1382 1372 1362 1350 1343 1330 1324 1314 1303 1296 1292 1289 1286 1280 1279 1279 1279 1279 1279 1279 1279 1279 1288 1288
1639 1668 1694 1715 1734 1737 1754 1771 1785 1791 1795 1799 1807 1830 1839 1851 1857 1860 1873 1886 1907 1934 1953 1968 1984 2004 2017 2026 2035 2047 2065 2079 2091 2100 2120 2131 2138 2150 2155 2168 2180 2197 2209 2223 2232 2251 2263 2282 2292 2297 2303 2311 2324 2336 2343 2356 2366 2373 2381 2392 2410 2426 2432 2433 2435 2438 2450 2467 2479 2486 2492 2500 2505 2516 2526 2541 2550 2559 2567 2574 2583 2593 2603 2613 2630 2644 2652 2657 2657 2660 2665 2671 2676 2679 2681 2683 2684 2687 2689 2692 2692 2697 2702 2708 2716 2725 2730 2746 2759 2765 2768 2775 2775 2775 2775 2775 2775 2778 2787 2797 2805 2809 2818 2825 2825 2825 2822 2817 2817 2817 2823 2823 2823 2823 2823 2823 2840 2853 2869 2879 2887 2887 2887 2890 2890 2892 2894 2898 2898 2900 2900 2901 2901 2906 2916 2924 2928 2928 2928 2924 2922 2922 2922 2922 2922 2922 2922 2924 2926 2927 2932 2937 2942 2942 2942 2937 2935 2935 2935 2940 2945 2950 2955 2960 2962 2962 2962 2962 2962 2965 2968 2973 2975 2977 2981 2988 2997 2997 2997 2997 2997 3005 3017 3025 3027 3027 3031 3033 3034 3046 3052 3052 3052 3034 3013 3000 2999 2999 2999 3004 3012 3020 3026 3027 3028 3028 3032 3037 3043 3048 3051 3053 3054 3055 3056 3059 3065 3070 3073 3073 3073 3071 3063 3063 3063 3074 3084 3087 3087 3087 3084 3080 3075 3070 3070 3070 3073 3073 3073 3073 3069 3068 3068 3068 3063 3059 3055 3053 3051 3050 3049 3049 3049 3048 3048 3046 3036 3027 3022 3021 3021 3021 3019 3017 3016 3016 3013 3011 3009 2983 2948 2900 2827 2649 0 0 1970 1970 1968 1968 1970 1970 1973 1975 1975 1975 1974 1974 1973 1973 1972 1972 1972 1972 1973 1973 1973 1974 1974 1974 1974 1975 1975 1975 1975 1975 1975 1975 1976 1976 1977 1977 1978 1979 1980 1981 1982 1983 1984 1985 1986 1987 1989 1990 1992 1993 1994 1995 1996 1996 1996 1996 1995 1994 1993 1993 1991 1990 1988 1985 1982 1979 1974 1969 1954 1948 1932 1917 1903 1902 1896 1890 1887 1884 1880 1877 1872 1866 1862 1856 1850 1845 1840 1836 1831 1825 1820 1813 1807 1800 1794 1790 1788 1784 1780 1776 1772 1769 1765 1762 1759 1757 1753 1750 1746 1744 1742 1740 1737 1735 1731 1729 1726 1725 1723 1721 1719 1717 1715 1714 1712 1710 1708 1706 1704 1702 1700 1698 1695 1693 1691 1688 1686 1683 1681 1678 1674 1672 1667 1663 1659 1657 1657 1652 1649 1643 1630 1614 1602 1592 1586 1579 1569 1557 1549 1542 1535 1532 1528 1522 1520 1517 1515 1512 1509 1507 1506 1505 1503 1502 1500 1499 1497 1496 1494 1493 1493 1493 1493 1493 1493 1493 1493 1493 1493 1493 1494 1496 1496 1496 1496 1497 1497 1499 1500 1501 1502 1502 1504 1504 1505 1505 1508 1508 1508 1508 1508 1508 1508 1508 1508 1508 1508 1508 1507 1507 1507 1506 1506 1505 1504 1504 1503 1503 1502 1501 1499 1498 1497 1496 1495 1493 1492 1491 1490 1488 1487 1487 1485 1483 1482 1481 1480 1478 1478 1476 1475 1473 1471 1470 1467 1466 1464 1462 1461 1459 1457 1456 1455 1452 1450 1449 1447 1445 1445 1444 1444 1444 1444 1444 1444 1446 1446 1447 1455 1463 1467 1468 1470 1470 1470 1470 1470 1470 1468 1467 1465 1464 1461 1458 1456 1453 1451 1449 1446 1444 1442 1441 1439 1435 1431 1429 1425 1420 1417 1413 1410 1405 1399 1391 1382 1372 1362 1350 1345 1342 1325 1317 1304 1297 1293 1291 1286 1280 1280 1280 1283 1283 1283 1282 1278 1278 1276 1276
1640 1669 1696 1719 1736 1754 1772 1784 1789 1794 1795 1799 1807 1830 1852 1860 1862 1870 1873 1886 1907 1934 1963 1977 2001 2018 2033 2044 2055 2075 2095 2108 2122 2139 2150 2150 2155 2159 2166 2177 2189 2204 2234 2235 2248 2256 2275 2290 2303 2311 2315 2321 2332 2339 2354 2370 2381 2387 2392 2398 2410 2426 2434 2437 2438 2443 2454 2468 2482 2489 2494 2500 2507 2518 2532 2544 2553 2560 2568 2577 2587 2594 2603 2615 2630 2645 2653 2659 2661 2664 2667 2674 2678 2682 2684 2689 2697 2705 2706 2708 2708 2708 2713 2720 2728 2739 2752 2761 2763 2765 2768 2775 2778 2780 2781 2782 2786 2790 2793 2799 2807 2810 2818 2825 2826 2826 2826 2825 2825 2825 2832 2838 2838 2838 2840 2840 2840 2854 2869 2879 2887 2887 2887 2890 2890 2892 2894 2898 2900 2901 2903 2906 2906 2913 2920 2927 2928 2928 2928 2925 2925 2924 2924 2924 2923 2923 2923 2924 2926 2926 2930 2937 2943 2945 2945 2945 2943 2942 2942 2942 2946 2949 2952 2957 2957 2957 2957 2957 2957 2959 2964 2969 2975 2977 2981 2988 2997 2997 2997 2997 2997 3004 3012 3017 3021 3021 3022 3022 3026 3038 3039 3039 3039 3022 3005 2994 2994 2994 2994 3000 3005 3015 3022 3027 3028 3028 3031 3037 3043 3047 3050 3051 3051 3054 3054 3058 3064 3066 3069 3069 3069 3068 3063 3063 3063 3068 3076 3076 3077 3078 3077 3076 3074 3069 3066 3066 3066 3066 3066 3066 3066 3067 3067 3067 3064 3059 3055 3051 3050 3047 3045 3045 3045 3045 3044 3042 3035 3026 3020 3020 3020 3020 3020 3019 3014 3006 3005 3004 2997 2977 2937 2885 2793 2604 0 0 1965 1965 1965 1968 1968 1971 1975 1975 1975 1975 1974 1974 1974 1973 1973 1973 1973 1973 1973 1973 1973 1974 1974 1974 1975 1975 1975 1975 1975 1975 1976 1976 1976 1976 1977 1978 1978 1979 1980 1981 1982 1983 1984 1985 1986 1987 1989 1990 1992 1992 1994 1995 1996 1996 1996 1996 1995 1995 1993 1993 1992 1990 1988 1985 1982 1979 1974 1969 1952 1935 1930 1916 1902 1901 1894 1887 1884 1881 1877 1874 1872 1866 1861 1856 1850 1844 1840 1835 1831 1825 1820 1814 1808 1800 1795 1792 1789 1786 1782 1778 1773 1769 1766 1762 1759 1757 1754 1751 1747 1745 1742 1740 1737 1735 1731 1729 1726 1725 1724 1721 1719 1717 1715 1713 1712 1710 1708 1706 1704 1702 1700 1698 1695 1693 1691 1688 1686 1684 1681 1679 1675 1672 1670 1666 1662 1660 1659 1658 1655 1650 1644 1637 1623 1608 1597 1588 1581 1572 1561 1550 1538 1535 1530 1526 1522 1520 1518 1514 1511 1507 1507 1506 1504 1502 1500 1499 1496 1494 1493 1493 1492 1491 1491 1491 1491 1490 1490 1490 1490 1490 1490 1492 1493 1494 1494 1494 1495 1496 1497 1498 1498 1499 1502 1503 1503 1503 1505 1507 1507 1507 1507 1506 1506 1506 1507 1507 1507 1507 1507 1506 1505 1505 1505 1505 1504 1504 1503 1503 1502 1501 1499 1499 1498 1497 1495 1494 1492 1492 1490 1489 1488 1487 1485 1484 1483 1481 1480 1479 1478 1477 1476 1473 1472 1471 1469 1467 1466 1464 1461 1461 1459 1458 1456 1454 1452 1450 1449 1447 1445 1444 1444 1444 1443 1443 1443 1443 1443 1443 1448 1456 1462 1466 1468 1469 1469 1469 1469 1469 1468 1466 1464 1462 1460 1458 1455 1452 1450 1448 1446 1444 1442 1441 1439 1435 1432 1429 1425 1420 1417 1413 1408 1404 1397 1390 1383 1374 1363 1352 1349 1345 1335 1317 1306 1300 1294 1291 1286 1284 1284 1284 1285 1285 1285 1282 1279 1278 1276 1276
1644 1672 1698 1719 1737 1761 1781 1793 1795 1796 1799 1799 1807 1841 1878 1892 1892 1892 1892 1893 1915 1958 1972 1997 2019 2034 2047 2058 2069 2086 2112 2133 2143 2159 2167 2167 2167 2172 2176 2185 2204 2248 2251 2264 2264 2275 2284 2302 2322 2327 2330 2331 2339 2344 2370 2385 2394 2400 2403 2406 2417 2428 2439 2446 2448 2453 2463 2478 2486 2489 2497 2500 2507 2518 2533 2546 2556 2566 2572 2582 2591 2598 2605 2616 2630 2646 2655 2659 2665 2666 2670 2675 2678 2682 2688 2692 2697 2705 2709 2716 2720 2722 2727 2736 2744 2750 2757 2761 2763 2765 2771 2777 2778 2781 2784 2790 2797 2803 2803 2803 2807 2811 2818 2825 2830 2830 2830 2832 2833 2840 2844 2846 2846 2846 2841 2841 2841 2856 2865 2873 2878 2879 2881 2881 2885 2890 2892 2898 2900 2903 2906 2910 2915 2919 2924 2927 2928 2928 2928 2925 2925 2924 2924 2924 2923 2923 2923 2925 2926 2926 2928 2937 2943 2947 2948 2950 2950 2951 2951 2951 2949 2949 2949 2950 2952 2952 2952 2952 2954 2958 2963 2969 2974 2977 2981 2988 2997 2997 2997 2997 2997 3003 3011 3013 3013 3015 3015 3018 3022 3022 3022 3022 3021 3012 3000 2994 2994 2994 2994 2999 3005 3014 3022 3026 3027 3028 3030 3037 3041 3045 3048 3050 3050 3052 3052 3055 3061 3062 3063 3065 3065 3065 3062 3062 3062 3066 3066 3066 3067 3068 3072 3072 3072 3069 3065 3061 3059 3059 3059 3060 3064 3067 3067 3067 3064 3059 3055 3050 3046 3044 3043 3043 3043 3043 3042 3039 3032 3025 3020 3020 3020 3020 3020 3019 3014 3005 3000 2999 2996 2975 2934 2880 2767 2504 0 0 1964 1964 1964 1968 1972 1974 1976 1976 1976 1976 1976 1976 1976 1975 1974 1973 1973 1973 1974 1974 1974 1974 1974 1975 1975 1975 1975 1976 1976 1976 1976 1976 1977 1978 1978 1978 1978 1980 1980 1981 1982 1983 1984 1985 1986 1986 1988 1989 1991 1992 1994 1994 1994 1996 1996 1996 1995 1995 1993 1993 1992 1991 1988 1985 1982 1979 1976 1969 1952 1934 1928 1914 1900 1898 1892 1887 1884 1880 1877 1873 1868 1866 1861 1855 1850 1844 1839 1835 1831 1825 1821 1815 1809 1802 1797 1795 1791 1786 1782 1778 1774 1770 1768 1764 1761 1758 1755 1752 1748 1746 1744 1741 1738 1735 1731 1729 1727 1725 1724 1722 1719 1717 1715 1713 1712 1709 1708 1706 1704 1702 1700 1697 1695 1693 1691 1688 1686 1684 1681 1679 1677 1674 1672 1668 1664 1661 1660 1658 1655 1651 1647 1642 1635 1624 1614 1600 1592 1585 1579 1571 1553 1538 1531 1528 1525 1523 1518 1514 1511 1508 1507 1507 1505 1502 1500 1499 1496 1494 1493 1491 1491 1491 1490 1490 1489 1489 1489 1488 1488 1487 1487 1488 1488 1490 1490 1491 1493 1493 1494 1494 1494 1494 1496 1499 1501 1501 1502 1504 1505 1505 1505 1504 1504 1504 1505 1505 1505 1505 1505 1505 1505 1505 1504 1504 1504 1504 1503 1503 1502 1501 1500 1499 1499 1497 1496 1495 1493 1492 1491 1490 1489 1488 1486 1485 1484 1482 1481 1480 1479 1478 1476 1474 1473 1471 1470 1468 1467 1465 1464 1462 1460 1459 1458 1455 1453 1452 1450 1447 1446 1444 1443 1442 1442 1442 1441 1441 1441 1442 1445 1449 1455 1461 1465 1467 1467 1469 1469 1469 1468 1465 1463 1461 1460 1457 1455 1452 1450 1448 1446 1444 1442 1441 1439 1435 1432 1429 1425 1420 1417 1413 1407 1403 1397 1390 1383 1376 1371 1361 1352 1345 1336 1318 1306 1300 1296 1292 1290 1287 1285 1285 1285 1285 1285 1282 1279 1278 1276 1276
1650 1674 1698 1719 1737 1761 1781 1796 1798 1801 1802 1804 1822 1852 1882 1897 1907 1908 1913 1922 1942 1959 1978 2009 2030 2045 2056 2067 2078 2099 2115 2136 2151 2165 2171 2171 2171 2175 2179 2190 2223 2264 2267 2276 2281 2286 2293 2313 2332 2346 2350 2356 2361 2374 2392 2402 2409 2411 2412 2417 2432 2448 2457 2461 2464 2473 2482 2487 2489 2490 2497 2501 2511 2522 2533 2549 2564 2577 2585 2589 2597 2605 2612 2623 2637 2647 2656 2661 2666 2668 2671 2676 2679 2684 2692 2695 2697 2705 2709 2716 2723 2727 2734 2741 2748 2755 2757 2761 2763 2768 2771 2777 2779 2782 2785 2791 2800 2809 2809 2810 2811 2812 2818 2824 2830 2832 2834 2834 2836 2844 2851 2851 2851 2848 2848 2848 2848 2856 2865 2873 2878 2879 2880 2881 2885 2887 2889 2892 2898 2903 2906 2910 2915 2919 2924 2926 2926 2926 2926 2925 2925 2924 2924 2924 2923 2923 2923 2925 2925 2925 2928 2934 2943 2947 2948 2950 2952 2952 2952 2951 2949 2949 2949 2947 2947 2947 2947 2951 2954 2957 2962 2967 2973 2977 2984 2993 2997 2997 2997 2997 2997 3002 3009 3009 3009 3009 3009 3010 3010 3010 3008 3008 3007 3005 2999 2994 2991 2991 2991 2994 3004 3014 3021 3025 3027 3028 3030 3035 3039 3043 3046 3049 3050 3051 3052 3052 3056 3057 3057 3057 3057 3057 3058 3058 3059 3059 3059 3059 3059 3062 3065 3069 3069 3069 3065 3060 3058 3055 3055 3055 3060 3062 3064 3064 3064 3059 3053 3048 3044 3042 3042 3040 3039 3038 3035 3031 3027 3022 3019 3019 3019 3019 3019 3019 3013 3000 2995 2995 2995 2972 2933 2871 2740 0 0 0 1964 1964 1964 1968 1976 1977 1978 1979 1979 1979 1979 1979 1978 1976 1975 1975 1975 1975 1975 1976 1976 1976 1976 1976 1976 1976 1976 1976 1976 1976 1976 1977 1977 1978 1978 1978 1979 1980 1980 1981 1983 1983 1984 1984 1985 1986 1987 1989 1990 1991 1993 1994 1994 1996 1996 1996 1995 1995 1993 1993 1992 1991 1989 1985 1982 1979 1976 1966 1947 1930 1915 1901 1898 1895 1890 1887 1883 1879 1876 1872 1868 1864 1861 1855 1849 1844 1839 1835 1831 1826 1821 1815 1810 1804 1801 1797 1792 1787 1783 1779 1775 1771 1768 1765 1763 1759 1755 1753 1750 1747 1744 1741 1739 1736 1732 1730 1728 1725 1724 1722 1719 1717 1715 1713 1711 1709 1708 1705 1703 1701 1699 1697 1695 1693 1691 1688 1685 1683 1681 1679 1677 1675 1672 1668 1665 1662 1660 1658 1655 1653 1647 1644 1639 1637 1627 1618 1606 1595 1590 1582 1574 1558 1540 1532 1526 1523 1520 1516 1512 1511 1510 1508 1506 1503 1501 1499 1496 1494 1493 1491 1491 1490 1490 1489 1488 1488 1488 1486 1486 1486 1485 1485 1486 1486 1486 1487 1488 1490 1490 1491 1491 1491 1491 1494 1496 1498 1499 1500 1500 1501 1503 1503 1503 1504 1504 1504 1504 1504 1504 1504 1504 1503 1503 1503 1503 1503 1503 1502 1501 1501 1500 1499 1499 1497 1496 1495 1494 1493 1492 1490 1489 1488 1487 1485 1484 1484 1482 1481 1480 1479 1477 1476 1474 1473 1471 1470 1468 1467 1465 1463 1462 1461 1459 1457 1455 1453 1450 1449 1446 1444 1443 1441 1440 1439 1439 1439 1439 1439 1441 1446 1449 1453 1461 1465 1466 1467 1467 1467 1467 1464 1462 1461 1459 1457 1455 1452 1450 1448 1446 1444 1442 1441 1439 1435 1432 1429 1425 1423 1417 1413 1407 1401 1396 1390 1384 1379 1372 1363 1353 1346 1337 1318 1309 1301 1297 1295 1290 1288 1285 1285 1285 1285 1285 1282 1280 1278 1277 1277
1650 1674 1698 1717 1737 1761 1782 1796 1801 1808 1813 1823 1838 1862 1885 1901 1911 1919 1926 1936 1951 1964 1979 2009 2030 2050 2062 2074 2090 2105 2121 2138 2154 2167 2172 2173 2174 2176 2182 2200 2226 2267 2279 2287 2293 2296 2303 2319 2335 2353 2366 2371 2382 2393 2405 2411 2416 2419 2423 2429 2437 2448 2464 2472 2477 2485 2492 2494 2494 2495 2499 2503 2513 2522 2533 2551 2568 2583 2591 2597 2603 2610 2620 2632 2645 2650 2657 2663 2668 2673 2676 2679 2681 2685 2692 2695 2698 2705 2711 2719 2723 2730 2739 2744 2751 2755 2757 2761 2763 2768 2771 2777 2779 2782 2786 2792 2801 2809 2812 2814 2814 2815 2818 2824 2830 2833 2834 2835 2836 2844 2851 2851 2851 2851 2851 2851 2854 2859 2865 2873 2878 2879 2880 2881 2885 2886 2887 2891 2895 2898 2904 2910 2915 2919 2924 2924 2924 2924 2924 2924 2924 2924 2923 2923 2923 2923 2923 2924 2925 2925 2927 2933 2940 2947 2949 2951 2953 2953 2953 2951 2949 2948 2948 2946 2946 2946 2947 2951 2954 2955 2957 2963 2973 2977 2984 2993 2997 2997 2997 2996 2996 2996 3001 3001 3002 3003 3003 3003 3003 3001 2998 2998 2998 2998 2998 2994 2991 2991 2991 2993 3003 3012 3018 3023 3027 3028 3030 3035 3038 3040 3042 3047 3047 3049 3049 3049 3050 3050 3050 3050 3050 3053 3054 3054 3054 3054 3053 3053 3053 3054 3059 3062 3063 3063 3063 3057 3054 3052 3052 3052 3055 3057 3057 3057 3057 3053 3049 3045 3042 3037 3034 3031 3031 3028 3028 3025 3021 3016 3015 3015 3015 3015 3015 3012 3007 2998 2994 2988 2987 2972 2925 2853 2713 0 0 0 1965 1965 1965 1974 1976 1978 1981 1981 1982 1982 1981 1981 1981 1979 1978 1978 1978 1978 1978 1978 1978 1978 1978 1978 1977 1976 1976 1976 1976 1977 1977 1977 1978 1978 1978 1978 1979 1980 1981 1981 1983 1983 1984 1985 1985 1986 1987 1988 1990 1991 1992 1993 1994 1995 1995 1995 1995 1995 1994 1993 1992 1991 1988 1985 1982 1979 1976 1965 1945 1927 1912 1900 1897 1892 1890 1886 1883 1879 1876 1872 1867 1864 1859 1854 1849 1844 1839 1835 1831 1826 1821 1817 1812 1806 1802 1798 1794 1787 1784 1780 1777 1772 1769 1767 1764 1760 1756 1753 1750 1747 1744 1742 1739 1736 1733 1730 1728 1725 1723 1722 1719 1717 1715 1713 1710 1708 1706 1705 1703 1701 1699 1697 1694 1692 1689 1688 1685 1683 1680 1679 1677 1675 1672 1669 1666 1663 1660 1658 1656 1653 1648 1645 1641 1638 1634 1629 1623 1612 1601 1592 1583 1571 1555 1543 1534 1529 1526 1524 1518 1513 1511 1509 1507 1505 1501 1499 1496 1494 1493 1491 1491 1490 1489 1487 1486 1485 1485 1484 1483 1483 1483 1483 1483 1483 1483 1483 1484 1487 1487 1488 1489 1489 1489 1491 1493 1494 1496 1497 1498 1498 1498 1500 1500 1501 1501 1502 1502 1502 1502 1502 1502 1502 1502 1503 1503 1502 1502 1502 1501 1501 1499 1499 1499 1497 1496 1495 1494 1493 1492 1490 1490 1488 1488 1487 1485 1484 1483 1482 1481 1479 1479 1477 1475 1473 1472 1471 1470 1468 1467 1464 1463 1461 1460 1457 1456 1454 1452 1450 1447 1445 1443 1441 1440 1439 1439 1438 1438 1438 1438 1441 1443 1447 1454 1460 1465 1467 1467 1467 1466 1464 1462 1460 1458 1457 1455 1453 1451 1448 1447 1445 1442 1441 1439 1435 1432 1429 1425 1424 1420 1413 1407 1401 1395 1390 1384 1381 1374 1363 1353 1346 1337 1321 1309 1301 1298 1295 1290 1288 1284 1284 1284 1284 1284 1282 1280 1279 1278 1278
1650 1674 1695 1717 1735 1756 1782 1796 1802 1817 1831 1841 1854 1868 1885 1901 1911 1926 1936 1944 1955 1974 1981 2009 2030 2050 2062 2076 2093 2112 2129 2146 2155 2168 2172 2174 2177 2177 2182 2202 2236 2267 2284 2290 2296 2304 2312 2324 2341 2354 2366 2371 2382 2393 2405 2411 2420 2428 2431 2434 2437 2448 2464 2472 2477 2485 2495 2501 2503 2506 2508 2509 2513 2523 2537 2552 2570 2585 2593 2602 2609 2613 2624 2639 2647 2652 2657 2663 2672 2678 2679 2683 2684 2685 2692 2696 2698 2705 2711 2719 2724 2734 2744 2751 2754 2757 2760 2761 2763 2768 2771 2777 2779 2782 2786 2793 2802 2809 2812 2815 2816 2816 2818 2824 2830 2833 2834 2835 2836 2844 2851 2852 2853 2853 2854 2857 2864 2870 2873 2878 2880 2881 2881 2884 2886 2886 2887 2887 2891 2895 2902 2908 2912 2915 2921 2922 2923 2923 2924 2924 2924 2922 2920 2920 2919 2919 2919 2921 2923 2924 2927 2932 2939 2946 2949 2951 2951 2951 2951 2948 2946 2945 2945 2945 2945 2946 2947 2951 2954 2955 2957 2960 2968 2976 2984 2993 2996 2996 2996 2992 2992 2992 2992 2994 2995 2995 2996 2996 2996 2996 2993 2993 2993 2993 2991 2991 2991 2989 2989 2989 2998 3006 3013 3020 3026 3028 3030 3033 3036 3038 3039 3042 3043 3043 3043 3043 3043 3043 3043 3043 3045 3046 3046 3047 3048 3050 3050 3051 3051 3051 3054 3054 3057 3057 3057 3053 3049 3049 3048 3048 3048 3048 3047 3047 3046 3043 3041 3041 3040 3034 3028 3023 3023 3022 3021 3017 3013 3011 3010 3010 3010 3011 3011 3011 3002 2987 2982 2976 2971 2965 2913 2836 2682 0 0 0 1975 1975 1975 1975 1978 1980 1984 1984 1984 1983 1982 1982 1982 1982 1982 1981 1981 1981 1980 1980 1979 1979 1979 1978 1978 1977 1977 1977 1977 1977 1977 1978 1978 1978 1979 1979 1980 1980 1982 1982 1983 1984 1984 1985 1985 1986 1987 1988 1989 1990 1991 1993 1993 1995 1995 1995 1995 1995 1994 1993 1992 1991 1988 1985 1982 1979 1976 1965 1941 1923 1907 1900 1896 1892 1889 1886 1882 1877 1874 1871 1867 1863 1857 1852 1848 1844 1839 1835 1831 1827 1823 1817 1812 1807 1803 1799 1794 1788 1785 1781 1777 1773 1770 1767 1764 1761 1757 1754 1751 1748 1745 1742 1739 1736 1733 1730 1728 1725 1723 1721 1719 1716 1714 1712 1710 1708 1706 1705 1702 1700 1698 1695 1694 1691 1689 1687 1684 1682 1680 1678 1676 1675 1672 1669 1666 1663 1661 1658 1655 1653 1649 1645 1642 1638 1635 1633 1630 1626 1618 1604 1589 1578 1570 1562 1552 1539 1530 1526 1522 1517 1513 1510 1508 1505 1502 1500 1497 1494 1493 1492 1491 1490 1489 1487 1486 1485 1484 1482 1482 1481 1480 1480 1480 1480 1480 1480 1480 1481 1483 1484 1485 1485 1487 1489 1490 1490 1492 1495 1495 1495 1495 1495 1496 1497 1498 1500 1500 1500 1500 1501 1501 1501 1501 1501 1501 1501 1501 1501 1500 1499 1499 1498 1497 1497 1496 1495 1494 1493 1492 1490 1490 1489 1488 1487 1486 1485 1484 1483 1482 1480 1479 1477 1475 1475 1473 1472 1470 1469 1468 1466 1464 1463 1461 1459 1456 1455 1453 1451 1449 1447 1445 1441 1440 1439 1439 1438 1438 1437 1437 1437 1440 1443 1446 1454 1461 1464 1464 1464 1464 1462 1460 1460 1458 1457 1455 1453 1451 1449 1447 1445 1444 1441 1439 1436 1432 1430 1427 1426 1421 1414 1407 1401 1395 1390 1384 1381 1374 1364 1354 1348 1338 1321 1309 1304 1300 1296 1292 1289 1284 1284 1284 1284 1284 1284 1281 1280 1280 1280
1650 1676 1695 1710 1729 1753 1782 1796 1809 1831 1845 1856 1862 1869 1885 1901 1911 1928 1944 1951 1960 1978 1982 2009 2032 2050 2064 2079 2094 2113 2137 2168 2186 2190 2190 2186 2186 2186 2186 2207 2250 2276 2289 2291 2298 2310 2323 2332 2347 2357 2366 2371 2382 2393 2405 2411 2420 2428 2431 2434 2437 2447 2464 2472 2477 2485 2496 2510 2515 2519 2520 2521 2524 2533 2547 2558 2572 2586 2599 2611 2617 2623 2626 2642 2654 2657 2657 2664 2672 2678 2682 2684 2685 2685 2692 2697 2702 2708 2711 2719 2727 2741 2745 2751 2757 2761 2771 2779 2780 2780 2780 2780 2780 2782 2787 2793 2802 2809 2812 2816 2816 2817 2819 2825 2829 2834 2835 2836 2836 2841 2845 2848 2854 2855 2861 2869 2873 2874 2877 2882 2885 2886 2886 2887 2887 2887 2888 2888 2889 2894 2901 2906 2911 2913 2915 2917 2920 2922 2923 2923 2923 2921 2920 2919 2917 2917 2917 2919 2922 2924 2927 2931 2939 2945 2948 2951 2951 2951 2946 2942 2942 2942 2942 2943 2944 2947 2953 2955 2955 2957 2957 2960 2967 2971 2977 2987 2993 2993 2993 2987 2984 2984 2984 2985 2987 2990 2991 2991 2991 2990 2989 2987 2985 2985 2985 2985 2985 2984 2984 2984 2991 2999 3009 3017 3023 3026 3027 3028 3031 3032 3034 3036 3039 3039 3039 3037 3036 3036 3036 3036 3039 3041 3044 3047 3048 3050 3050 3050 3048 3048 3048 3049 3049 3049 3049 3045 3045 3045 3045 3045 3044 3041 3039 3036 3033 3033 3033 3032 3032 3029 3022 3018 3017 3017 3014 3009 3007 3006 3006 3006 3006 3011 3011 3011 3000 2978 2964 2963 2958 2945 2900 2813 2664 0 0 1980 1975 1975 1975 1976 1979 1984 1985 1985 1985 1985 1985 1985 1985 1985 1985 1985 1984 1984 1983 1983 1982 1982 1980 1980 1980 1979 1979 1979 1979 1979 1979 1979 1979 1980 1980 1981 1981 1981 1982 1982 1983 1984 1984 1985 1985 1986 1986 1987 1989 1990 1991 1992 1993 1994 1995 1995 1995 1994 1994 1993 1992 1991 1989 1986 1983 1979 1976 1965 1941 1923 1907 1899 1896 1891 1887 1884 1880 1877 1873 1869 1866 1861 1855 1850 1846 1843 1839 1835 1831 1827 1823 1818 1813 1807 1803 1799 1795 1790 1786 1781 1778 1774 1770 1767 1764 1762 1758 1754 1751 1748 1745 1742 1739 1736 1733 1730 1728 1725 1723 1720 1718 1716 1713 1711 1709 1707 1705 1704 1702 1699 1697 1695 1693 1690 1688 1686 1684 1682 1680 1678 1676 1674 1672 1669 1666 1663 1661 1658 1655 1653 1649 1645 1642 1639 1636 1634 1631 1629 1623 1614 1600 1587 1578 1573 1565 1555 1543 1532 1527 1521 1515 1512 1510 1506 1503 1501 1499 1497 1495 1494 1491 1491 1489 1487 1486 1485 1483 1481 1481 1480 1479 1478 1478 1478 1478 1478 1478 1478 1479 1480 1482 1483 1485 1486 1486 1486 1486 1488 1490 1491 1491 1492 1493 1493 1494 1496 1498 1499 1499 1499 1499 1499 1499 1500 1500 1500 1499 1499 1499 1499 1498 1498 1497 1497 1496 1495 1494 1493 1492 1491 1490 1489 1488 1487 1486 1486 1484 1483 1482 1480 1479 1478 1477 1476 1474 1473 1472 1470 1469 1467 1466 1465 1463 1461 1459 1457 1456 1452 1451 1448 1446 1443 1441 1440 1439 1439 1439 1437 1437 1437 1437 1439 1443 1447 1453 1459 1461 1461 1461 1460 1459 1459 1458 1456 1455 1453 1451 1449 1447 1446 1444 1442 1439 1437 1434 1431 1429 1427 1421 1414 1407 1399 1395 1387 1383 1381 1374 1365 1357 1349 1338 1326 1313 1308 1304 1298 1292 1289 1284 1284 1284 1284 1284 1284 1281 1281 1281 1281
1650 1676 1695 1710 1729 1753 1782 1792 1812 1834 1846 1857 1864 1870 1884 1896 1914 1928 1948 1964 1975 1982 1996 2009 2032 2050 2065 2080 2094 2113 2145 2178 2196 2202 2202 2202 2193 2193 2193 2231 2267 2285 2289 2293 2300 2316 2329 2342 2351 2358 2364 2367 2369 2375 2390 2405 2420 2428 2431 2432 2434 2440 2457 2468 2473 2483 2496 2515 2523 2529 2532 2532 2535 2543 2553 2565 2576 2589 2606 2618 2624 2625 2634 2648 2658 2658 2661 2664 2672 2678 2682 2685 2686 2687 2692 2698 2709 2717 2721 2727 2734 2741 2746 2751 2757 2764 2774 2779 2789 2789 2789 2788 2788 2788 2791 2797 2803 2809 2812 2815 2816 2818 2821 2825 2829 2835 2836 2836 2836 2841 2845 2848 2854 2855 2862 2869 2873 2874 2878 2883 2886 2886 2886 2888 2889 2889 2889 2889 2889 2894 2901 2906 2909 2912 2912 2915 2917 2921 2921 2921 2921 2921 2920 2917 2917 2917 2917 2919 2922 2924 2927 2931 2938 2945 2948 2950 2950 2950 2944 2940 2940 2940 2942 2943 2944 2947 2953 2955 2957 2959 2959 2960 2967 2971 2977 2985 2991 2991 2991 2984 2978 2978 2978 2980 2982 2985 2985 2985 2984 2984 2983 2981 2980 2980 2980 2977 2977 2977 2977 2980 2988 2998 3008 3015 3018 3020 3020 3021 3024 3027 3028 3032 3034 3034 3034 3032 3030 3030 3030 3031 3035 3037 3041 3046 3047 3048 3048 3048 3047 3047 3047 3045 3044 3043 3040 3039 3039 3039 3039 3039 3038 3035 3035 3030 3025 3025 3025 3025 3025 3021 3014 3011 3011 3009 3005 3005 3005 3003 3003 3002 3002 3002 3000 3000 2995 2978 2960 2949 2941 2921 2867 2745 2662 0 0 1975 1974 1974 1975 1977 1984 1985 1986 1987 1987 1987 1987 1987 1988 1988 1988 1988 1987 1987 1986 1986 1984 1984 1984 1984 1984 1982 1982 1982 1982 1981 1981 1981 1981 1981 1981 1982 1982 1982 1983 1983 1984 1984 1984 1985 1985 1985 1986 1987 1988 1989 1990 1992 1992 1994 1994 1994 1994 1994 1994 1993 1992 1991 1989 1987 1984 1982 1979 1967 1941 1923 1907 1899 1895 1889 1885 1881 1878 1875 1872 1868 1863 1857 1852 1848 1843 1841 1839 1835 1831 1827 1823 1818 1813 1807 1804 1800 1795 1790 1786 1781 1778 1774 1770 1767 1764 1762 1758 1754 1751 1748 1745 1742 1739 1736 1733 1730 1728 1725 1722 1720 1718 1715 1713 1711 1709 1707 1705 1703 1701 1699 1696 1694 1691 1690 1687 1686 1684 1682 1679 1677 1674 1673 1671 1669 1666 1663 1661 1658 1655 1652 1649 1645 1642 1639 1637 1634 1632 1629 1626 1622 1613 1604 1592 1583 1573 1566 1557 1547 1539 1531 1523 1518 1514 1512 1508 1503 1500 1499 1498 1496 1494 1491 1489 1487 1486 1485 1483 1481 1480 1478 1478 1477 1476 1475 1475 1475 1475 1475 1475 1475 1477 1479 1482 1483 1483 1483 1483 1484 1484 1486 1487 1489 1491 1491 1492 1492 1495 1495 1497 1497 1497 1498 1498 1498 1498 1498 1498 1498 1498 1497 1497 1497 1496 1496 1495 1495 1494 1493 1492 1491 1490 1489 1488 1487 1486 1486 1485 1484 1482 1482 1480 1480 1479 1478 1476 1474 1473 1471 1470 1469 1468 1466 1465 1463 1461 1459 1458 1454 1452 1449 1447 1445 1443 1443 1441 1440 1439 1437 1437 1437 1437 1437 1439 1442 1444 1449 1456 1458 1458 1458 1458 1457 1457 1456 1454 1453 1451 1449 1447 1446 1445 1444 1441 1438 1436 1434 1432 1429 1422 1415 1407 1399 1392 1387 1383 1382 1376 1367 1360 1353 1348 1332 1317 1313 1309 1301 1294 1292 1286 1286 1286 1284 1284 1284 1284 1282 1282 1282
1659 1676 1696 1710 1729 1753 1782 1788 1812 1834 1846 1857 1865 1871 1884 1896 1916 1931 1948 1964 1975 1986 2015 2024 2032 2050 2068 2093 2110 2129 2158 2178 2198 2209 2209 2209 2209 2209 2210 2248 2276 2289 2290 2293 2301 2316 2329 2347 2356 2358 2364 2364 2365 2365 2376 2389 2409 2418 2420 2423 2432 2440 2457 2468 2473 2483 2496 2515 2523 2536 2542 2544 2545 2550 2561 2572 2587 2599 2609 2618 2625 2628 2636 2648 2658 2661 2662 2666 2673 2680 2682 2686 2689 2690 2695 2704 2717 2726 2732 2734 2737 2743 2749 2753 2758 2765 2774 2779 2789 2793 2793 2793 2793 2793 2797 2802 2805 2809 2812 2815 2816 2818 2822 2826 2829 2835 2837 2839 2839 2841 2845 2848 2854 2855 2863 2869 2873 2874 2878 2886 2887 2887 2889 2889 2893 2893 2893 2894 2894 2894 2901 2905 2908 2909 2911 2912 2914 2919 2920 2920 2920 2920 2917 2916 2916 2916 2916 2918 2921 2924 2925 2927 2933 2937 2939 2940 2940 2940 2940 2940 2940 2940 2942 2942 2943 2947 2953 2955 2957 2960 2965 2966 2967 2971 2976 2984 2988 2988 2988 2982 2978 2975 2975 2975 2975 2977 2981 2981 2981 2981 2980 2980 2979 2979 2975 2973 2973 2973 2975 2980 2987 2995 3003 3009 3012 3012 3014 3015 3017 3019 3024 3027 3028 3028 3028 3027 3027 3027 3028 3028 3031 3036 3040 3041 3045 3048 3048 3048 3046 3041 3040 3039 3037 3035 3033 3033 3033 3033 3034 3034 3034 3032 3031 3027 3019 3014 3014 3013 3010 3009 3004 3002 3001 2998 2998 2998 2999 3002 3002 3002 2998 2998 2997 2995 2988 2974 2958 2943 2928 2903 2837 2696 2545 0 0 1978 1976 1976 1978 1982 1987 1988 1989 1989 1990 1991 1991 1992 1992 1992 1992 1992 1992 1990 1990 1988 1988 1988 1988 1987 1987 1986 1985 1985 1984 1984 1984 1983 1982 1982 1982 1983 1983 1984 1984 1984 1984 1984 1984 1985 1985 1985 1986 1986 1988 1989 1990 1991 1992 1993 1993 1994 1994 1994 1993 1993 1992 1991 1989 1987 1984 1982 1980 1967 1941 1923 1907 1899 1894 1886 1881 1879 1877 1873 1870 1865 1861 1857 1851 1846 1841 1839 1837 1834 1831 1826 1823 1818 1813 1808 1804 1800 1795 1790 1786 1782 1779 1774 1770 1767 1764 1762 1758 1754 1750 1748 1745 1742 1739 1736 1733 1730 1728 1725 1722 1720 1717 1715 1712 1711 1709 1707 1705 1703 1701 1698 1696 1694 1691 1688 1687 1685 1684 1682 1679 1676 1674 1672 1670 1667 1665 1662 1659 1656 1653 1651 1648 1645 1642 1639 1637 1634 1632 1630 1627 1623 1618 1612 1608 1600 1586 1576 1568 1560 1553 1544 1538 1525 1519 1517 1513 1507 1503 1501 1500 1497 1495 1492 1489 1488 1487 1485 1483 1481 1479 1478 1477 1475 1474 1473 1473 1473 1472 1472 1472 1472 1473 1474 1476 1477 1479 1479 1480 1480 1480 1481 1483 1485 1486 1489 1489 1490 1490 1491 1494 1495 1495 1495 1496 1496 1496 1496 1497 1497 1497 1497 1497 1497 1496 1495 1495 1495 1494 1493 1492 1490 1490 1489 1488 1487 1487 1486 1485 1484 1483 1482 1481 1481 1479 1478 1477 1476 1475 1473 1472 1471 1469 1468 1466 1465 1463 1461 1459 1457 1453 1450 1448 1446 1446 1444 1442 1441 1440 1439 1437 1436 1436 1436 1436 1437 1439 1442 1447 1454 1456 1456 1456 1456 1455 1454 1453 1451 1450 1449 1447 1447 1446 1444 1443 1440 1438 1435 1434 1432 1424 1416 1408 1399 1392 1387 1383 1382 1378 1367 1361 1357 1353 1342 1322 1314 1309 1302 1297 1293 1289 1286 1286 1285 1284 1284 1284 1282 1282 1282
1672 1687 1706 1720 1734 1753 1781 1786 1812 1834 1849 1859 1865 1873 1884 1896 1916 1932 1948 1964 1975 1986 2015 2038 2050 2064 2087 2112 2130 2147 2163 2179 2198 2209 2209 2209 2209 2209 2210 2248 2276 2289 2290 2294 2302 2316 2329 2349 2358 2363 2364 2364 2365 2365 2376 2389 2409 2418 2420 2423 2432 2440 2457 2468 2473 2483 2496 2515 2523 2536 2542 2554 2557 2562 2572 2581 2594 2601 2609 2619 2625 2631 2636 2648 2658 2661 2664 2667 2674 2680 2682 2688 2694 2700 2704 2711 2725 2733 2738 2738 2739 2743 2749 2753 2759 2766 2774 2779 2789 2796 2796 2797 2797 2797 2800 2803 2806 2809 2811 2813 2815 2818 2822 2827 2830 2835 2838 2840 2843 2846 2849 2853 2854 2857 2863 2868 2872 2874 2878 2886 2887 2887 2889 2889 2893 2895 2895 2895 2895 2895 2900 2904 2907 2908 2908 2908 2909 2914 2915 2918 2918 2918 2914 2914 2914 2914 2915 2915 2916 2917 2918 2919 2925 2929 2930 2930 2931 2934 2937 2939 2940 2942 2942 2942 2944 2946 2946 2950 2955 2961 2969 2971 2973 2976 2976 2977 2979 2981 2981 2981 2977 2975 2973 2971 2971 2971 2975 2979 2979 2979 2979 2978 2977 2977 2975 2971 2971 2971 2974 2980 2986 2991 2996 3001 3005 3005 3006 3007 3009 3011 3014 3023 3023 3023 3023 3023 3023 3026 3027 3027 3028 3032 3038 3041 3041 3041 3041 3039 3038 3037 3035 3030 3024 3022 3022 3022 3023 3027 3028 3028 3028 3027 3026 3025 3018 3011 3008 3008 3003 2997 2993 2992 2990 2986 2986 2986 2996 3000 3000 3000 2997 2994 2990 2984 2978 2971 2958 2942 2924 2894 2823 2692 0 0 0 1981 1981 1981 1986 1987 1988 1990 1991 1991 1992 1994 1994 1994 1994 1994 1994 1994 1994 1994 1993 1993 1993 1993 1993 1993 1992 1990 1989 1988 1987 1985 1985 1985 1985 1984 1984 1984 1984 1984 1984 1985 1985 1984 1985 1985 1985 1985 1986 1986 1988 1988 1990 1991 1991 1992 1993 1993 1993 1993 1993 1993 1992 1991 1989 1987 1985 1983 1980 1968 1944 1925 1908 1898 1893 1883 1878 1875 1875 1872 1867 1864 1860 1856 1850 1845 1840 1836 1834 1832 1829 1825 1821 1817 1813 1808 1804 1800 1794 1789 1785 1782 1779 1775 1771 1767 1764 1761 1757 1754 1750 1747 1745 1742 1739 1736 1733 1730 1728 1725 1722 1719 1717 1715 1712 1710 1708 1707 1704 1703 1700 1698 1696 1692 1690 1688 1686 1684 1682 1680 1678 1675 1673 1671 1668 1666 1663 1660 1657 1654 1652 1648 1646 1643 1642 1639 1637 1634 1632 1630 1627 1623 1619 1614 1611 1607 1602 1585 1576 1568 1561 1557 1551 1538 1526 1519 1517 1512 1507 1505 1502 1499 1496 1493 1490 1488 1487 1485 1483 1481 1479 1477 1476 1475 1473 1472 1472 1471 1470 1470 1470 1470 1470 1470 1471 1471 1472 1475 1475 1477 1477 1477 1478 1479 1480 1483 1484 1485 1486 1488 1490 1491 1492 1492 1493 1494 1494 1494 1495 1495 1495 1495 1495 1495 1495 1495 1494 1494 1493 1492 1492 1490 1490 1489 1488 1487 1487 1486 1485 1484 1483 1482 1482 1481 1481 1479 1478 1477 1476 1475 1474 1473 1472 1470 1469 1467 1465 1462 1461 1458 1455 1452 1450 1448 1446 1445 1444 1443 1440 1440 1438 1436 1436 1435 1435 1435 1437 1438 1441 1449 1452 1454 1454 1454 1452 1452 1451 1450 1449 1449 1448 1447 1446 1445 1443 1441 1438 1437 1435 1432 1424 1418 1409 1399 1392 1387 1384 1382 1379 1369 1363 1358 1353 1343 1325 1316 1310 1303 1297 1293 1291 1286 1284 1284 1284 1283 1283 1282 1282 1282
1676 1690 1706 1720 1734 1753 1761 1786 1809 1834 1849 1859 1865 1873 1884 1900 1919 1933 1948 1959 1963 1986 2015 2038 2064 2086 2100 2112 2130 2149 2168 2180 2196 2206 2206 2206 2209 2209 2210 2248 2276 2289 2290 2294 2305 2320 2334 2352 2363 2369 2369 2369 2371 2371 2376 2389 2409 2418 2420 2423 2433 2445 2457 2468 2475 2484 2496 2503 2516 2536 2542 2554 2560 2572 2580 2589 2596 2604 2612 2620 2625 2631 2637 2645 2655 2661 2664 2670 2674 2679 2682 2688 2697 2706 2713 2721 2729 2737 2741 2742 2743 2749 2755 2760 2767 2769 2774 2779 2787 2793 2796 2797 2798 2798 2800 2803 2806 2809 2811 2813 2815 2818 2822 2827 2831 2835 2839 2841 2845 2849 2853 2857 2858 2859 2862 2868 2870 2873 2878 2886 2887 2887 2889 2889 2893 2895 2895 2895 2895 2895 2900 2903 2903 2903 2903 2902 2902 2902 2906 2911 2914 2914 2914 2913 2912 2911 2911 2912 2912 2913 2914 2916 2919 2919 2919 2919 2919 2927 2937 2941 2943 2943 2943 2942 2940 2940 2940 2943 2954 2961 2969 2971 2973 2973 2971 2971 2974 2977 2977 2977 2977 2973 2972 2969 2969 2969 2969 2975 2977 2977 2977 2977 2977 2975 2973 2967 2967 2967 2973 2980 2983 2983 2986 2992 2998 2999 2999 3000 3001 3002 3008 3016 3016 3016 3019 3019 3020 3022 3022 3022 3022 3022 3027 3027 3027 3027 3027 3027 3027 3027 3027 3020 3014 3008 3008 3008 3012 3016 3023 3023 3023 3022 3021 3019 3015 3008 3003 2998 2990 2986 2983 2980 2980 2980 2980 2981 2992 2999 2999 2999 2994 2989 2982 2973 2968 2967 2957 2942 2923 2891 2819 2686 0 0 0 1982 1982 1982 1987 1989 1990 1991 1993 1994 1994 1994 1994 1995 1995 1995 1996 1996 1996 1996 1996 1996 1996 1995 1996 1996 1995 1995 1995 1992 1988 1987 1987 1987 1987 1985 1985 1985 1985 1985 1985 1985 1985 1985 1984 1984 1984 1984 1985 1986 1986 1987 1989 1990 1991 1992 1992 1993 1993 1993 1993 1993 1992 1991 1989 1987 1986 1983 1980 1969 1944 1925 1908 1897 1888 1880 1877 1874 1872 1868 1864 1862 1857 1853 1849 1844 1839 1835 1833 1830 1827 1824 1820 1817 1812 1808 1802 1798 1794 1789 1785 1782 1779 1776 1771 1767 1763 1760 1757 1753 1750 1747 1745 1742 1739 1736 1733 1730 1727 1724 1722 1719 1717 1714 1711 1709 1708 1706 1703 1702 1700 1697 1695 1691 1689 1687 1685 1683 1681 1679 1676 1674 1672 1669 1666 1663 1662 1659 1655 1653 1650 1647 1644 1642 1639 1638 1636 1634 1632 1629 1627 1623 1619 1615 1611 1608 1604 1601 1592 1579 1570 1565 1559 1551 1540 1528 1520 1518 1514 1508 1503 1500 1496 1494 1491 1489 1487 1486 1484 1481 1479 1477 1476 1474 1471 1470 1470 1469 1469 1468 1468 1468 1468 1468 1468 1468 1469 1470 1471 1472 1473 1474 1475 1476 1476 1477 1478 1480 1482 1484 1486 1488 1489 1490 1491 1491 1492 1493 1493 1493 1494 1494 1494 1494 1494 1494 1494 1493 1492 1492 1491 1490 1489 1488 1487 1487 1486 1486 1485 1484 1484 1482 1482 1481 1481 1479 1478 1477 1477 1476 1476 1474 1473 1471 1470 1468 1466 1464 1462 1460 1458 1455 1452 1450 1447 1446 1445 1443 1440 1440 1439 1438 1436 1435 1434 1434 1434 1437 1438 1441 1447 1450 1452 1452 1452 1451 1450 1449 1449 1449 1448 1447 1446 1445 1443 1441 1439 1438 1435 1433 1427 1421 1414 1404 1394 1392 1390 1390 1384 1375 1364 1359 1353 1343 1329 1320 1311 1303 1298 1295 1291 1288 1284 1281 1280 1279 1278 1278 1277 1277
1676 1690 1706 1720 1734 1755 1761 1786 1809 1834 1846 1857 1865 1873 1884 1902 1920 1934 1948 1959 1963 1974 1998 2038 2064 2086 2100 2112 2130 2149 2168 2180 2190 2193 2194 2195 2197 2201 2215 2238 2258 2279 2289 2295 2305 2320 2334 2352 2363 2369 2370 2371 2372 2372 2383 2396 2414 2421 2434 2439 2446 2455 2466 2477 2484 2487 2496 2503 2516 2524 2540 2554 2560 2572 2583 2592 2598 2607 2613 2621 2628 2632 2638 2644 2653 2660 2664 2670 2674 2679 2682 2688 2697 2706 2713 2721 2731 2739 2744 2745 2748 2752 2768 2770 2772 2772 2774 2779 2787 2793 2796 2797 2798 2798 2801 2803 2806 2809 2811 2813 2815 2818 2822 2829 2834 2838 2841 2843 2846 2851 2856 2858 2859 2861 2861 2865 2869 2872 2877 2884 2887 2887 2888 2888 2892 2895 2895 2895 2895 2893 2893 2893 2894 2897 2898 2899 2900 2901 2906 2907 2910 2911 2911 2911 2908 2908 2905 2905 2905 2907 2911 2913 2913 2913 2910 2910 2910 2923 2937 2943 2944 2944 2943 2941 2937 2936 2936 2936 2945 2961 2969 2969 2969 2967 2961 2961 2961 2972 2977 2977 2977 2973 2972 2960 2960 2960 2962 2968 2972 2972 2972 2971 2971 2968 2967 2967 2967 2967 2973 2978 2978 2980 2981 2983 2991 2992 2992 2993 2993 2994 3001 3010 3010 3010 3013 3013 3013 3018 3018 3018 3013 3012 3007 3007 3004 3004 3004 3006 3006 3012 3012 3012 3006 2996 2996 2996 2997 3007 3014 3017 3017 3017 3015 3012 3007 3002 2991 2985 2980 2978 2978 2976 2976 2978 2979 2979 2986 2994 2994 2994 2988 2980 2974 2967 2966 2963 2957 2941 2919 2880 2800 2679 0 0 0 1986 1986 1986 1987 1990 1991 1993 1994 1994 1994 1995 1996 1996 1996 1996 1996 1997 1998 1998 1998 1998 1998 1998 1998 1998 1997 1997 1996 1993 1991 1990 1989 1988 1987 1987 1986 1985 1985 1985 1985 1985 1985 1985 1984 1984 1984 1984 1985 1986 1986 1986 1988 1989 1991 1992 1992 1992 1993 1993 1993 1992 1992 1991 1989 1987 1986 1984 1980 1969 1948 1925 1908 1895 1886 1877 1874 1872 1869 1864 1861 1857 1854 1850 1848 1843 1838 1834 1831 1828 1826 1823 1820 1816 1811 1805 1802 1798 1794 1789 1785 1782 1779 1776 1771 1767 1763 1760 1756 1753 1750 1747 1745 1742 1739 1736 1733 1730 1727 1724 1721 1719 1716 1714 1711 1709 1706 1704 1703 1701 1699 1697 1694 1690 1688 1685 1683 1682 1680 1677 1675 1672 1670 1667 1665 1662 1660 1657 1654 1652 1649 1646 1643 1641 1638 1635 1635 1632 1631 1629 1627 1623 1619 1615 1611 1608 1605 1602 1598 1592 1584 1574 1565 1561 1552 1542 1531 1521 1518 1513 1507 1503 1499 1495 1492 1490 1488 1486 1484 1481 1479 1477 1475 1473 1471 1470 1468 1467 1466 1466 1465 1465 1465 1465 1465 1465 1466 1467 1467 1468 1469 1470 1471 1472 1473 1473 1474 1476 1478 1480 1482 1484 1485 1487 1488 1489 1489 1490 1491 1492 1493 1493 1493 1493 1493 1492 1492 1492 1492 1491 1491 1489 1488 1487 1487 1486 1486 1485 1485 1484 1484 1483 1482 1482 1481 1480 1479 1478 1477 1477 1476 1475 1474 1472 1471 1469 1467 1466 1463 1462 1460 1457 1454 1452 1449 1448 1447 1444 1441 1440 1439 1438 1437 1435 1433 1433 1433 1433 1436 1437 1440 1444 1449 1450 1450 1450 1449 1449 1449 1449 1448 1447 1447 1446 1444 1443 1441 1439 1435 1433 1430 1425 1420 1411 1404 1399 1395 1391 1389 1382 1372 1359 1353 1344 1336 1328 1320 1310 1303 1300 1298 1295 1285 1281 1279 1276 1276 1276 1276 1276
1676 1690 1702 1719 1735 1753 1761 1786 1809 1832 1846 1856 1860 1870 1886 1902 1925 1946 1955 1959 1963 1966 1984 2022 2064 2086 2100 2107 2121 2149 2168 2179 2190 2193 2194 2195 2197 2201 2215 2238 2258 2279 2289 2295 2308 2320 2334 2353 2363 2369 2370 2372 2373 2375 2387 2402 2415 2427 2434 2442 2450 2462 2473 2483 2488 2495 2499 2503 2516 2524 2536 2547 2560 2572 2583 2592 2599 2608 2616 2623 2630 2633 2637 2644 2653 2659 2664 2670 2674 2679 2682 2688 2697 2706 2713 2721 2731 2740 2745 2746 2748 2752 2768 2772 2772 2775 2775 2782 2787 2793 2795 2796 2798 2798 2800 2802 2806 2810 2814 2814 2815 2819 2825 2833 2836 2839 2844 2848 2852 2856 2859 2859 2859 2858 2858 2858 2868 2870 2871 2876 2876 2877 2879 2886 2891 2895 2895 2895 2891 2888 2888 2888 2893 2895 2897 2898 2899 2901 2906 2907 2908 2908 2908 2907 2906 2904 2904 2902 2902 2902 2902 2903 2903 2902 2903 2903 2903 2920 2935 2943 2943 2943 2936 2930 2930 2930 2932 2936 2938 2948 2958 2958 2958 2949 2949 2949 2958 2967 2970 2970 2970 2970 2964 2953 2953 2953 2954 2961 2963 2966 2966 2966 2965 2961 2961 2961 2963 2967 2972 2977 2977 2977 2977 2977 2984 2984 2984 2988 2988 2988 2994 3000 3000 3001 3001 3002 3008 3014 3014 3014 3009 3003 2997 2989 2981 2981 2981 2982 2989 2998 2998 2998 2993 2983 2983 2983 2984 2991 2996 3003 3007 3007 3007 3002 2994 2985 2979 2973 2971 2971 2971 2974 2975 2975 2976 2976 2981 2983 2983 2983 2983 2972 2968 2966 2963 2963 2956 2937 2907 2866 2786 2652 0 0 1992 1986 1986 1986 1987 1991 1994 1994 1994 1994 1994 1994 1996 1996 1997 1997 1997 1997 1998 1998 1998 1998 1998 1998 1998 1998 1997 1997 1996 1995 1993 1992 1992 1990 1989 1988 1988 1987 1987 1986 1985 1985 1985 1985 1984 1984 1984 1984 1985 1985 1986 1986 1988 1988 1990 1991 1992 1992 1992 1992 1992 1992 1992 1991 1988 1987 1986 1984 1980 1971 1952 1925 1906 1892 1880 1873 1869 1868 1864 1861 1857 1854 1851 1848 1845 1841 1836 1832 1829 1826 1824 1822 1819 1815 1810 1805 1802 1798 1794 1789 1785 1782 1779 1776 1771 1767 1763 1759 1756 1753 1750 1747 1745 1742 1739 1736 1733 1729 1727 1724 1721 1717 1716 1713 1711 1708 1706 1704 1702 1699 1698 1694 1692 1690 1687 1684 1682 1680 1678 1676 1673 1671 1669 1666 1663 1661 1657 1655 1652 1650 1647 1645 1642 1639 1637 1634 1633 1632 1630 1628 1626 1623 1619 1615 1611 1608 1605 1602 1598 1594 1589 1586 1575 1565 1559 1551 1542 1530 1520 1515 1513 1509 1503 1500 1495 1492 1489 1487 1484 1481 1479 1477 1475 1473 1471 1470 1468 1466 1465 1465 1464 1463 1463 1463 1463 1463 1463 1463 1464 1465 1465 1467 1467 1467 1468 1470 1471 1472 1474 1476 1479 1480 1480 1482 1484 1485 1485 1487 1488 1490 1491 1491 1491 1491 1491 1491 1491 1491 1491 1490 1489 1489 1488 1487 1487 1486 1486 1485 1485 1484 1484 1483 1482 1481 1481 1480 1479 1478 1478 1477 1477 1475 1474 1473 1472 1470 1469 1466 1465 1464 1461 1459 1456 1455 1452 1450 1448 1445 1443 1441 1439 1438 1437 1437 1436 1433 1433 1433 1434 1435 1436 1438 1441 1448 1449 1449 1449 1449 1449 1449 1449 1449 1448 1447 1446 1444 1443 1440 1437 1436 1433 1429 1424 1418 1411 1408 1404 1397 1391 1385 1377 1364 1353 1344 1339 1328 1323 1320 1309 1306 1303 1299 1289 1281 1279 1276 1275 1275 1275 1275
1671 1686 1702 1719 1737 1752 1771 1793 1813 1832 1845 1850 1856 1870 1886 1906 1930 1948 1955 1960 1964 1966 1977 2007 2050 2083 2098 2101 2121 2141 2161 2179 2186 2193 2194 2195 2197 2205 2217 2238 2258 2279 2289 2299 2310 2321 2338 2353 2360 2367 2370 2371 2372 2375 2387 2402 2417 2427 2434 2442 2450 2462 2473 2483 2491 2495 2508 2510 2516 2524 2536 2543 2552 2572 2583 2592 2599 2609 2618 2623 2630 2633 2637 2643 2652 2659 2663 2665 2667 2670 2678 2686 2693 2701 2708 2720 2731 2740 2745 2746 2748 2752 2768 2772 2772 2775 2783 2787 2790 2793 2794 2796 2797 2798 2800 2802 2806 2810 2814 2816 2817 2819 2825 2833 2836 2839 2844 2848 2853 2856 2857 2857 2857 2857 2857 2857 2860 2864 2865 2865 2866 2868 2873 2883 2891 2895 2895 2895 2890 2885 2885 2885 2889 2894 2896 2897 2898 2898 2905 2907 2907 2907 2905 2904 2903 2903 2903 2901 2896 2890 2890 2890 2890 2890 2890 2890 2890 2906 2925 2927 2927 2927 2920 2920 2920 2926 2932 2936 2938 2938 2938 2938 2938 2938 2939 2942 2956 2961 2961 2961 2960 2959 2954 2946 2946 2946 2952 2957 2958 2960 2960 2960 2959 2955 2954 2954 2954 2959 2968 2976 2976 2976 2976 2976 2982 2984 2984 2984 2984 2984 2985 2989 2991 2992 2994 3000 3006 3006 3006 3006 3004 2999 2992 2980 2967 2967 2967 2968 2975 2985 2985 2985 2977 2965 2965 2965 2968 2974 2977 2983 2988 2992 2992 2992 2985 2976 2966 2965 2965 2965 2971 2974 2974 2974 2972 2972 2972 2972 2975 2975 2975 2970 2967 2964 2963 2954 2948 2930 2894 2849 2785 2636 0 0 1992 1986 1985 1985 1986 1991 1994 1994 1994 1994 1994 1994 1996 1996 1997 1997 1997 1997 1998 1998 1998 1998 1998 1998 1998 1998 1997 1997 1996 1995 1994 1994 1994 1992 1992 1991 1989 1988 1987 1987 1986 1985 1985 1985 1984 1984 1984 1984 1984 1984 1985 1985 1987 1988 1990 1990 1990 1990 1991 1991 1991 1991 1990 1989 1988 1987 1985 1984 1980 1973 1956 1926 1906 1889 1876 1868 1864 1862 1859 1854 1852 1850 1847 1844 1840 1837 1835 1831 1827 1824 1822 1820 1817 1812 1809 1805 1801 1797 1794 1789 1785 1782 1779 1776 1771 1767 1763 1759 1756 1752 1749 1747 1744 1741 1739 1735 1732 1729 1727 1724 1720 1717 1715 1713 1710 1708 1705 1703 1701 1698 1696 1693 1691 1688 1685 1684 1682 1680 1678 1675 1673 1670 1667 1664 1661 1658 1656 1652 1650 1647 1645 1643 1641 1638 1636 1633 1631 1629 1628 1626 1625 1622 1619 1615 1611 1608 1604 1602 1598 1594 1590 1587 1582 1573 1565 1557 1548 1540 1531 1523 1517 1511 1506 1502 1499 1495 1492 1489 1486 1482 1480 1478 1475 1473 1471 1470 1468 1466 1465 1464 1464 1463 1462 1462 1462 1462 1462 1462 1462 1463 1464 1464 1464 1464 1465 1467 1467 1469 1471 1472 1474 1476 1477 1478 1480 1481 1482 1484 1485 1486 1487 1488 1489 1489 1489 1489 1489 1489 1489 1488 1488 1487 1487 1486 1486 1486 1485 1484 1484 1484 1483 1483 1482 1481 1481 1480 1479 1479 1479 1477 1477 1476 1474 1473 1472 1471 1469 1467 1466 1465 1463 1460 1459 1456 1454 1452 1450 1447 1445 1443 1442 1441 1440 1438 1437 1436 1434 1434 1434 1434 1435 1435 1438 1443 1449 1449 1449 1449 1449 1449 1449 1449 1449 1447 1446 1445 1443 1440 1439 1437 1435 1433 1428 1421 1415 1411 1408 1401 1395 1387 1382 1370 1359 1349 1343 1331 1325 1320 1313 1308 1303 1299 1292 1285 1279 1275 1274 1274 1274 1274
1671 1686 1702 1719 1740 1754 1774 1797 1813 1823 1829 1835 1856 1870 1888 1912 1932 1948 1955 1960 1964 1966 1977 1999 2034 2064 2098 2101 2112 2131 2154 2179 2181 2193 2202 2204 2206 2216 2238 2253 2268 2283 2294 2303 2310 2325 2338 2353 2360 2367 2371 2372 2372 2375 2388 2404 2417 2427 2434 2442 2450 2462 2473 2483 2491 2495 2508 2510 2516 2529 2536 2543 2551 2561 2573 2587 2599 2610 2618 2623 2630 2633 2637 2640 2645 2652 2653 2653 2653 2656 2663 2681 2690 2701 2707 2717 2728 2740 2741 2741 2745 2745 2746 2760 2772 2775 2784 2796 2796 2796 2795 2795 2795 2797 2800 2802 2806 2811 2814 2816 2817 2819 2825 2833 2836 2839 2844 2848 2853 2856 2857 2857 2857 2857 2857 2857 2860 2861 2862 2863 2865 2868 2868 2876 2884 2891 2891 2891 2888 2879 2877 2877 2877 2883 2885 2885 2896 2898 2905 2906 2906 2906 2904 2903 2902 2902 2902 2901 2895 2884 2882 2882 2882 2882 2882 2882 2882 2882 2902 2905 2905 2907 2907 2907 2917 2922 2930 2931 2931 2931 2925 2922 2922 2922 2931 2940 2944 2944 2946 2946 2946 2946 2946 2946 2946 2946 2952 2957 2958 2958 2958 2957 2957 2955 2952 2952 2952 2955 2962 2971 2971 2972 2972 2972 2979 2984 2984 2984 2984 2983 2983 2984 2984 2987 2992 2999 3003 3003 3003 3002 3001 2998 2991 2979 2961 2958 2958 2958 2969 2971 2971 2971 2957 2951 2951 2951 2956 2959 2961 2962 2965 2971 2975 2975 2975 2968 2958 2958 2958 2961 2969 2974 2974 2974 2970 2968 2965 2965 2965 2965 2966 2966 2965 2960 2958 2949 2939 2920 2884 2840 2775 2635 0 0 1992 1984 1984 1984 1984 1991 1993 1993 1993 1993 1993 1994 1996 1996 1997 1997 1997 1997 1996 1995 1995 1995 1995 1995 1996 1996 1996 1995 1995 1994 1994 1994 1994 1993 1993 1992 1992 1991 1990 1988 1987 1986 1985 1985 1984 1983 1983 1983 1983 1983 1984 1985 1986 1987 1988 1989 1989 1989 1989 1990 1990 1990 1990 1989 1988 1987 1985 1984 1980 1976 1963 1929 1905 1889 1874 1867 1862 1859 1853 1850 1847 1845 1843 1841 1837 1834 1832 1828 1827 1823 1820 1817 1814 1810 1807 1804 1801 1797 1794 1789 1785 1782 1779 1775 1771 1766 1762 1759 1755 1751 1748 1745 1743 1740 1738 1734 1731 1728 1726 1723 1720 1717 1714 1713 1710 1708 1705 1702 1699 1697 1694 1693 1690 1686 1685 1682 1681 1680 1676 1674 1670 1668 1665 1662 1658 1655 1653 1650 1647 1645 1643 1641 1639 1636 1634 1631 1629 1628 1625 1624 1622 1620 1617 1614 1611 1607 1604 1600 1598 1594 1590 1587 1584 1579 1571 1561 1553 1545 1538 1532 1525 1516 1510 1504 1501 1498 1495 1492 1488 1485 1481 1479 1476 1473 1471 1470 1468 1466 1465 1464 1463 1462 1461 1461 1461 1460 1460 1460 1460 1461 1462 1462 1462 1462 1462 1463 1466 1466 1467 1468 1471 1472 1474 1476 1477 1478 1479 1481 1482 1484 1484 1485 1486 1486 1487 1487 1487 1487 1487 1487 1487 1486 1485 1485 1484 1484 1484 1484 1483 1483 1482 1482 1481 1481 1481 1480 1480 1479 1479 1479 1477 1477 1476 1474 1473 1472 1471 1469 1467 1466 1464 1462 1460 1458 1456 1454 1452 1450 1448 1446 1444 1443 1441 1439 1439 1438 1437 1435 1435 1435 1435 1435 1437 1440 1445 1447 1448 1448 1448 1450 1450 1450 1449 1448 1447 1446 1444 1441 1440 1437 1435 1434 1432 1427 1420 1412 1408 1404 1399 1392 1384 1372 1367 1358 1344 1332 1326 1321 1315 1308 1303 1299 1293 1287 1280 1274 1274 1274 1274 1274
1671 1686 1706 1724 1744 1754 1774 1797 1813 1820 1829 1835 1856 1875 1897 1918 1932 1948 1952 1960 1964 1969 1977 1996 2018 2063 2087 2100 2112 2123 2144 2165 2170 2193 2202 2205 2219 2239 2256 2268 2278 2291 2294 2303 2310 2326 2339 2354 2360 2367 2371 2372 2372 2382 2397 2409 2415 2421 2430 2442 2450 2462 2474 2481 2491 2494 2508 2510 2516 2530 2540 2543 2550 2554 2563 2579 2599 2611 2618 2623 2627 2629 2634 2635 2639 2640 2640 2640 2638 2638 2638 2663 2680 2694 2702 2712 2722 2733 2733 2733 2732 2732 2732 2743 2763 2775 2784 2796 2796 2796 2795 2795 2795 2796 2801 2802 2806 2813 2814 2816 2817 2817 2823 2831 2832 2832 2835 2848 2853 2854 2855 2855 2855 2855 2856 2857 2860 2861 2862 2863 2865 2866 2868 2870 2874 2879 2883 2883 2883 2872 2862 2860 2860 2860 2861 2870 2877 2897 2905 2906 2906 2906 2904 2903 2900 2900 2899 2899 2887 2876 2876 2876 2877 2877 2877 2875 2875 2875 2884 2891 2892 2894 2895 2901 2908 2915 2918 2918 2918 2918 2916 2907 2907 2907 2921 2932 2932 2933 2933 2933 2937 2940 2940 2941 2942 2942 2952 2956 2956 2956 2956 2956 2956 2955 2952 2952 2952 2955 2958 2963 2964 2964 2965 2968 2973 2980 2981 2981 2981 2981 2981 2981 2983 2987 2991 2998 2998 2998 2997 2997 2996 2994 2989 2977 2960 2955 2955 2955 2965 2965 2965 2962 2953 2951 2949 2948 2948 2948 2948 2951 2954 2958 2960 2960 2960 2959 2949 2949 2949 2956 2959 2961 2963 2967 2967 2967 2965 2961 2956 2956 2956 2955 2954 2952 2949 2943 2933 2914 2880 2832 2762 2633 0 0 1993 1984 1983 1983 1983 1991 1992 1992 1992 1992 1993 1994 1995 1995 1996 1996 1996 1996 1994 1994 1994 1994 1994 1994 1993 1992 1992 1992 1992 1993 1994 1994 1994 1993 1993 1993 1993 1992 1992 1992 1989 1987 1987 1985 1984 1982 1982 1982 1982 1983 1983 1985 1986 1986 1987 1987 1987 1987 1987 1987 1988 1988 1988 1988 1988 1987 1985 1983 1980 1976 1965 1937 1905 1886 1870 1861 1858 1852 1847 1845 1844 1842 1840 1838 1835 1832 1829 1826 1823 1820 1817 1814 1811 1807 1805 1802 1798 1795 1792 1789 1784 1781 1778 1774 1769 1765 1761 1757 1753 1750 1747 1743 1741 1738 1736 1732 1730 1727 1725 1722 1718 1716 1714 1712 1709 1706 1703 1701 1698 1696 1693 1690 1688 1686 1684 1681 1679 1677 1674 1671 1668 1665 1662 1659 1655 1653 1650 1647 1645 1643 1640 1638 1637 1635 1632 1630 1628 1625 1623 1622 1619 1617 1616 1612 1610 1607 1603 1600 1596 1593 1590 1587 1584 1579 1575 1570 1560 1551 1544 1539 1533 1527 1517 1509 1503 1500 1498 1495 1490 1485 1482 1479 1476 1473 1471 1470 1468 1466 1465 1464 1463 1462 1461 1460 1459 1459 1458 1458 1458 1458 1458 1459 1459 1459 1459 1459 1461 1463 1463 1465 1466 1469 1471 1474 1475 1476 1476 1476 1479 1480 1480 1480 1482 1483 1484 1485 1485 1485 1485 1485 1485 1485 1484 1484 1483 1483 1483 1483 1482 1482 1482 1481 1481 1481 1480 1480 1480 1479 1479 1479 1478 1477 1477 1476 1474 1473 1472 1470 1468 1467 1466 1464 1461 1460 1458 1456 1453 1451 1449 1448 1446 1445 1443 1441 1440 1439 1439 1438 1436 1435 1435 1435 1437 1439 1442 1445 1446 1447 1448 1450 1450 1450 1449 1448 1447 1446 1444 1443 1440 1438 1436 1435 1433 1429 1424 1416 1410 1406 1404 1395 1388 1378 1368 1362 1347 1332 1326 1323 1315 1308 1303 1299 1294 1288 1281 1275 1274 1274 1274 1274
1688 1703 1723 1736 1746 1754 1774 1797 1811 1817 1829 1835 1865 1888 1907 1918 1932 1935 1946 1956 1964 1974 1983 1996 2018 2055 2076 2098 2110 2123 2144 2158 2170 2189 2202 2205 2221 2248 2268 2285 2292 2293 2294 2303 2310 2326 2345 2355 2368 2379 2379 2380 2382 2385 2397 2409 2415 2421 2430 2442 2450 2462 2474 2481 2488 2490 2495 2503 2516 2530 2540 2545 2550 2554 2563 2579 2599 2613 2618 2622 2625 2626 2628 2629 2632 2635 2635 2635 2625 2625 2625 2652 2676 2687 2695 2706 2717 2724 2724 2724 2715 2715 2715 2731 2754 2770 2784 2796 2796 2796 2794 2794 2794 2795 2799 2809 2811 2813 2813 2813 2814 2817 2823 2828 2829 2831 2831 2839 2846 2848 2851 2853 2853 2853 2853 2855 2860 2861 2861 2861 2861 2860 2860 2859 2859 2859 2866 2866 2866 2861 2850 2838 2837 2837 2838 2848 2864 2873 2894 2896 2897 2897 2897 2897 2896 2894 2894 2885 2874 2868 2868 2868 2870 2875 2875 2875 2871 2871 2871 2877 2878 2879 2880 2880 2887 2888 2888 2888 2891 2893 2893 2893 2893 2893 2905 2917 2919 2921 2926 2932 2934 2935 2936 2936 2938 2942 2952 2955 2955 2955 2955 2955 2954 2951 2949 2949 2949 2952 2957 2959 2961 2962 2962 2964 2968 2972 2978 2978 2980 2980 2980 2980 2981 2984 2985 2985 2985 2981 2981 2981 2981 2981 2980 2971 2959 2951 2951 2951 2959 2959 2959 2959 2953 2948 2948 2947 2945 2946 2946 2946 2948 2948 2948 2948 2948 2947 2940 2940 2940 2949 2949 2950 2951 2951 2962 2962 2962 2960 2953 2947 2945 2940 2940 2939 2939 2938 2930 2914 2878 2827 2756 2633 0 0 1996 1982 1982 1982 1982 1990 1990 1990 1991 1991 1991 1991 1993 1994 1994 1994 1994 1994 1993 1993 1993 1992 1992 1992 1992 1991 1991 1990 1990 1990 1991 1993 1993 1993 1993 1993 1994 1994 1994 1993 1992 1990 1987 1985 1984 1982 1982 1982 1982 1982 1983 1984 1984 1985 1987 1987 1987 1987 1987 1987 1988 1988 1988 1988 1988 1987 1985 1982 1980 1976 1965 1945 1906 1875 1864 1857 1854 1849 1846 1841 1841 1839 1837 1834 1832 1829 1825 1821 1819 1816 1814 1811 1807 1804 1803 1800 1797 1792 1790 1788 1783 1780 1778 1773 1769 1765 1760 1756 1752 1749 1745 1742 1740 1737 1735 1732 1730 1727 1724 1721 1718 1716 1713 1710 1708 1705 1701 1697 1695 1693 1691 1689 1686 1685 1682 1680 1677 1674 1672 1669 1666 1663 1660 1657 1653 1651 1648 1646 1643 1640 1638 1637 1635 1633 1631 1628 1627 1624 1623 1619 1617 1615 1613 1610 1607 1604 1602 1599 1596 1593 1590 1587 1584 1579 1575 1573 1568 1561 1552 1545 1538 1534 1527 1517 1509 1503 1498 1496 1492 1486 1483 1479 1476 1473 1471 1470 1468 1466 1465 1464 1463 1462 1461 1460 1459 1458 1458 1457 1457 1457 1457 1457 1457 1457 1457 1458 1458 1459 1460 1462 1462 1465 1467 1470 1472 1472 1472 1472 1474 1477 1478 1478 1479 1480 1482 1482 1482 1482 1482 1482 1482 1482 1482 1482 1482 1482 1482 1481 1481 1481 1481 1481 1481 1480 1480 1480 1480 1479 1479 1479 1479 1478 1477 1476 1476 1474 1473 1471 1469 1468 1467 1465 1463 1462 1461 1458 1455 1453 1452 1450 1448 1446 1445 1443 1442 1440 1439 1439 1439 1436 1434 1434 1434 1439 1442 1443 1444 1444 1447 1449 1449 1449 1449 1449 1447 1446 1444 1443 1441 1439 1437 1437 1433 1430 1424 1419 1414 1410 1407 1397 1389 1379 1372 1364 1349 1340 1331 1326 1315 1308 1303 1299 1295 1291 1282 1275 1273 1273 1273 1273
1688 1703 1723 1736 1746 1754 1774 1792 1807 1817 1831 1855 1875 1890 1907 1918 1927 1935 1946 1956 1965 1977 1983 1995 2014 2054 2076 2091 2104 2123 2144 2158 2170 2189 2202 2210 2221 2248 2268 2285 2292 2293 2294 2297 2308 2327 2345 2358 2374 2384 2386 2386 2388 2388 2397 2409 2417 2421 2430 2442 2456 2467 2477 2481 2488 2490 2491 2499 2515 2530 2540 2546 2550 2554 2563 2579 2599 2613 2618 2622 2625 2625 2626 2626 2627 2629 2629 2629 2624 2624 2624 2652 2674 2686 2695 2703 2715 2715 2715 2711 2693 2693 2693 2727 2745 2761 2771 2785 2794 2794 2794 2794 2794 2795 2799 2809 2811 2811 2811 2811 2811 2812 2823 2823 2823 2829 2829 2832 2842 2845 2845 2847 2847 2848 2853 2855 2858 2860 2860 2860 2860 2860 2859 2845 2838 2834 2834 2824 2822 2821 2820 2814 2813 2813 2813 2814 2831 2855 2871 2873 2879 2882 2882 2882 2881 2877 2877 2872 2865 2860 2860 2860 2863 2869 2869 2869 2859 2845 2832 2823 2818 2814 2813 2810 2810 2810 2816 2823 2831 2841 2859 2865 2866 2871 2883 2899 2908 2920 2925 2928 2928 2928 2931 2931 2932 2942 2952 2952 2952 2953 2952 2952 2952 2951 2949 2949 2949 2952 2957 2959 2960 2961 2961 2961 2961 2962 2969 2976 2976 2976 2973 2972 2972 2973 2973 2972 2972 2964 2960 2960 2959 2959 2959 2953 2944 2944 2944 2946 2952 2957 2957 2957 2948 2948 2946 2943 2943 2940 2940 2940 2940 2940 2939 2939 2936 2935 2935 2935 2935 2938 2940 2941 2941 2946 2957 2957 2957 2955 2944 2934 2932 2932 2932 2932 2932 2928 2919 2903 2872 2823 2756 2620 0 0 1996 1981 1981 1981 1982 1989 1989 1989 1990 1990 1990 1991 1992 1993 1993 1993 1993 1992 1992 1992 1991 1991 1991 1990 1990 1990 1989 1989 1989 1989 1990 1990 1990 1990 1990 1993 1994 1994 1994 1994 1993 1993 1989 1987 1985 1982 1982 1982 1982 1982 1983 1983 1984 1984 1985 1985 1986 1986 1986 1987 1987 1987 1988 1988 1988 1987 1985 1982 1979 1973 1965 1948 1908 1875 1857 1853 1849 1846 1841 1836 1834 1833 1833 1831 1828 1827 1822 1819 1817 1814 1812 1809 1805 1801 1799 1798 1792 1790 1789 1786 1783 1779 1775 1773 1769 1764 1759 1756 1752 1749 1744 1741 1739 1737 1735 1732 1730 1727 1724 1721 1718 1714 1711 1709 1705 1701 1698 1696 1694 1692 1690 1688 1685 1683 1681 1677 1676 1672 1669 1667 1664 1661 1658 1655 1652 1649 1647 1644 1642 1639 1637 1634 1633 1631 1629 1627 1626 1623 1622 1618 1615 1613 1610 1608 1605 1602 1599 1596 1594 1593 1590 1586 1582 1579 1575 1574 1571 1565 1559 1552 1544 1538 1531 1524 1518 1511 1502 1498 1492 1487 1483 1480 1477 1473 1471 1470 1468 1467 1465 1464 1463 1462 1461 1459 1458 1458 1457 1456 1456 1455 1455 1455 1455 1454 1454 1454 1454 1455 1457 1458 1459 1460 1462 1465 1465 1466 1466 1467 1469 1471 1473 1474 1475 1478 1478 1478 1478 1478 1478 1479 1479 1479 1479 1479 1479 1480 1480 1481 1481 1481 1480 1480 1479 1480 1480 1479 1479 1479 1479 1479 1479 1478 1477 1476 1476 1474 1473 1472 1470 1469 1468 1466 1464 1462 1461 1460 1457 1455 1454 1452 1450 1449 1446 1445 1443 1442 1440 1439 1439 1437 1435 1435 1435 1435 1440 1441 1441 1442 1446 1448 1449 1449 1449 1449 1447 1446 1444 1443 1442 1441 1440 1437 1435 1430 1425 1419 1415 1414 1409 1405 1393 1383 1375 1367 1356 1341 1335 1326 1313 1306 1302 1298 1295 1291 1282 1275 1273 1273 1273 1273
1688 1703 1723 1736 1746 1754 1771 1785 1801 1817 1837 1856 1875 1890 1907 1914 1927 1933 1946 1956 1967 1977 1983 1995 2013 2051 2072 2088 2101 2123 2145 2158 2174 2189 2202 2210 2226 2248 2268 2286 2294 2294 2295 2295 2307 2326 2345 2358 2374 2384 2387 2387 2388 2388 2397 2409 2419 2426 2436 2449 2466 2479 2485 2485 2488 2490 2490 2498 2510 2524 2537 2547 2552 2559 2571 2584 2599 2613 2617 2622 2625 2625 2626 2626 2627 2629 2629 2629 2621 2621 2621 2649 2672 2686 2690 2703 2712 2712 2712 2703 2663 2663 2663 2721 2742 2754 2762 2766 2782 2783 2785 2788 2788 2788 2799 2809 2809 2809 2807 2807 2807 2810 2821 2821 2821 2816 2816 2816 2842 2842 2842 2841 2841 2841 2846 2855 2858 2858 2858 2858 2854 2852 2836 2823 2807 2794 2787 2762 2725 2703 2703 2703 2716 2751 2764 2770 2776 2811 2855 2860 2860 2860 2860 2860 2859 2859 2859 2859 2854 2854 2854 2854 2854 2854 2852 2837 2826 2795 2769 2736 2714 2694 2658 2658 2658 2672 2679 2694 2716 2736 2743 2766 2796 2823 2852 2883 2894 2913 2921 2923 2923 2923 2920 2920 2920 2926 2938 2938 2938 2939 2939 2939 2941 2941 2946 2946 2949 2952 2957 2958 2959 2959 2959 2952 2952 2952 2953 2958 2958 2958 2955 2953 2953 2955 2956 2956 2956 2953 2941 2934 2928 2928 2927 2927 2928 2929 2929 2937 2944 2949 2949 2949 2948 2948 2943 2942 2942 2928 2928 2928 2927 2927 2929 2929 2924 2925 2927 2927 2927 2928 2928 2930 2932 2939 2950 2950 2950 2950 2933 2921 2921 2921 2921 2921 2920 2914 2904 2887 2861 2821 2753 2613 0 0 1996 1977 1977 1977 1982 1988 1988 1988 1988 1988 1990 1991 1991 1991 1991 1992 1992 1992 1992 1992 1991 1990 1989 1989 1989 1989 1988 1988 1988 1988 1988 1988 1988 1988 1988 1989 1993 1993 1994 1994 1994 1993 1993 1993 1990 1986 1982 1982 1982 1982 1982 1983 1983 1983 1983 1984 1984 1984 1986 1986 1986 1986 1987 1987 1987 1986 1984 1981 1978 1972 1965 1949 1911 1875 1857 1851 1849 1842 1838 1834 1830 1827 1826 1826 1823 1821 1819 1816 1814 1811 1810 1808 1805 1799 1796 1795 1791 1788 1786 1785 1781 1776 1774 1771 1769 1764 1759 1755 1751 1747 1744 1741 1739 1737 1735 1732 1730 1727 1724 1720 1717 1713 1710 1707 1703 1700 1697 1695 1694 1692 1689 1687 1685 1683 1679 1677 1674 1670 1667 1664 1662 1659 1656 1653 1651 1649 1646 1643 1641 1639 1636 1633 1631 1630 1627 1626 1625 1623 1621 1617 1613 1611 1609 1606 1603 1600 1597 1594 1592 1589 1587 1585 1581 1579 1575 1574 1571 1565 1562 1558 1555 1545 1536 1528 1523 1519 1510 1500 1493 1488 1483 1480 1477 1473 1471 1470 1468 1466 1465 1464 1463 1462 1461 1459 1458 1457 1456 1455 1454 1453 1453 1453 1452 1452 1451 1451 1452 1453 1454 1455 1455 1456 1457 1459 1460 1461 1461 1461 1462 1466 1468 1469 1471 1474 1475 1476 1476 1476 1476 1476 1476 1476 1476 1476 1476 1476 1476 1478 1478 1478 1478 1479 1479 1478 1479 1479 1479 1479 1479 1479 1478 1478 1477 1476 1476 1475 1473 1472 1470 1469 1468 1467 1465 1464 1463 1461 1459 1457 1456 1454 1452 1450 1447 1445 1443 1443 1441 1439 1439 1438 1436 1435 1435 1435 1436 1439 1439 1439 1441 1447 1449 1449 1449 1449 1447 1446 1444 1443 1442 1441 1440 1439 1437 1431 1425 1420 1418 1414 1411 1408 1401 1389 1377 1369 1359 1344 1337 1326 1312 1300 1299 1297 1295 1291 1282 1275 1273 1273 1272 1272
1684 1696 1715 1731 1734 1747 1763 1779 1800 1817 1837 1856 1877 1892 1903 1914 1924 1933 1947 1957 1968 1977 1983 1993 2013 2051 2072 2088 2101 2121 2145 2158 2188 2199 2205 2210 2226 2246 2263 2285 2294 2294 2295 2295 2304 2326 2332 2358 2374 2384 2388 2388 2388 2390 2397 2409 2423 2431 2440 2449 2466 2479 2487 2488 2488 2490 2493 2497 2506 2521 2536 2547 2555 2563 2571 2584 2599 2611 2617 2622 2626 2626 2626 2627 2627 2626 2626 2622 2619 2619 2619 2649 2671 2685 2690 2700 2711 2711 2711 2692 2655 2655 2655 2710 2742 2754 2757 2766 2768 2769 2770 2770 2770 2771 2773 2805 2805 2805 2802 2802 2802 2810 2821 2821 2821 2811 2811 2811 2832 2840 2840 2840 2839 2839 2839 2844 2844 2844 2841 2829 2825 2823 2806 2789 2767 2754 2712 2516 0 0 0 0 0 0 2505 2581 2595 2677 2677 2760 2800 2841 2843 2844 2845 2845 2845 2844 2839 2839 2839 2839 2839 2827 2806 2777 2706 2611 0 0 0 0 0 0 0 0 0 0 0 2523 2523 2574 2574 2574 2759 2832 2854 2898 2914 2914 2914 2907 2901 2901 2901 2905 2920 2922 2922 2922 2922 2922 2921 2920 2920 2920 2924 2943 2953 2957 2957 2957 2950 2939 2930 2930 2930 2935 2935 2935 2934 2931 2931 2931 2936 2939 2939 2939 2927 2912 2903 2902 2902 2902 2908 2912 2914 2919 2925 2933 2933 2933 2932 2932 2932 2928 2927 2924 2920 2919 2915 2915 2915 2915 2923 2923 2923 2919 2916 2916 2916 2918 2920 2926 2933 2934 2934 2934 2920 2912 2909 2907 2906 2906 2905 2900 2888 2871 2847 2809 2745 2613 0 0 1991 1978 1978 1978 1982 1986 1988 1988 1988 1988 1990 1990 1990 1990 1990 1990 1991 1992 1992 1992 1991 1990 1989 1989 1989 1987 1987 1987 1986 1986 1986 1985 1984 1984 1984 1986 1987 1989 1989 1993 1993 1993 1994 1994 1994 1993 1993 1987 1986 1986 1985 1983 1980 1979 1979 1979 1981 1982 1983 1985 1986 1986 1985 1985 1985 1985 1984 1981 1977 1972 1965 1950 1919 1881 1857 1847 1838 1835 1832 1829 1824 1821 1819 1819 1816 1814 1813 1812 1812 1809 1806 1804 1802 1796 1793 1792 1789 1785 1783 1782 1778 1773 1771 1769 1767 1764 1759 1754 1749 1745 1742 1740 1739 1737 1735 1732 1730 1727 1724 1720 1717 1712 1709 1706 1701 1698 1696 1694 1693 1691 1688 1686 1683 1680 1678 1676 1673 1669 1665 1663 1660 1658 1655 1651 1648 1644 1644 1641 1639 1636 1634 1630 1628 1627 1625 1624 1622 1619 1617 1613 1611 1610 1607 1604 1601 1598 1594 1591 1589 1588 1586 1583 1580 1578 1575 1574 1571 1565 1562 1558 1556 1552 1546 1542 1531 1525 1519 1511 1500 1491 1484 1480 1477 1474 1472 1470 1468 1466 1465 1464 1463 1462 1460 1459 1457 1457 1455 1454 1452 1452 1451 1451 1451 1450 1450 1450 1450 1450 1450 1451 1452 1452 1452 1453 1454 1455 1455 1457 1460 1462 1463 1465 1468 1469 1469 1472 1472 1472 1472 1472 1472 1472 1473 1473 1473 1474 1474 1474 1475 1476 1477 1477 1478 1478 1478 1478 1478 1478 1478 1477 1477 1477 1477 1476 1476 1475 1473 1472 1471 1469 1468 1468 1467 1466 1464 1463 1461 1459 1458 1456 1454 1451 1448 1446 1444 1443 1442 1440 1439 1438 1437 1436 1436 1436 1436 1437 1437 1437 1438 1441 1448 1448 1448 1447 1445 1444 1443 1443 1442 1441 1441 1439 1437 1433 1429 1424 1420 1416 1412 1408 1403 1393 1378 1369 1360 1351 1338 1326 1312 1300 1297 1297 1295 1292 1284 1278 1273 1273 1272 1272
1668 1683 1703 1707 1722 1735 1754 1775 1798 1817 1837 1856 1875 1892 1902 1914 1921 1933 1948 1963 1968 1977 1983 1993 2014 2049 2072 2088 2101 2121 2145 2151 2188 2208 2215 2217 2224 2242 2262 2282 2294 2294 2296 2298 2304 2321 2327 2352 2369 2380 2386 2389 2390 2393 2398 2412 2424 2435 2442 2451 2466 2479 2487 2489 2490 2492 2494 2497 2506 2519 2534 2547 2555 2563 2571 2584 2592 2599 2614 2622 2626 2627 2628 2628 2629 2629 2629 2616 2612 2612 2612 2648 2670 2681 2688 2700 2700 2700 2696 2684 2651 2651 2651 2701 2740 2752 2756 2761 2761 2762 2761 2759 2755 2755 2755 2773 2799 2799 2801 2802 2802 2807 2807 2807 2806 2801 2801 2801 2821 2834 2836 2836 2836 2833 2833 2833 2833 2833 2832 2814 2804 2795 2780 2752 2702 2506 0 0 0 0 0 0 0 0 0 0 0 0 0 0 2529 2737 2823 2836 2837 2837 2837 2831 2818 2812 2807 2806 2786 2762 2742 2688 2566 0 0 0 0 0 0 0 0 0 0 0 0 0 0 0 0 0 0 0 2676 2827 2895 2895 2895 2893 2889 2889 2889 2890 2900 2908 2914 2914 2914 2908 2903 2896 2896 2896 2903 2920 2938 2943 2943 2943 2928 2912 2898 2898 2898 2902 2903 2904 2908 2909 2909 2910 2919 2925 2925 2925 2910 2896 2883 2882 2882 2882 2889 2891 2891 2894 2902 2913 2914 2914 2914 2912 2912 2912 2919 2919 2919 2914 2904 2904 2904 2905 2918 2918 2918 2905 2902 2899 2899 2899 2899 2901 2908 2918 2918 2918 2908 2898 2890 2890 2890 2888 2887 2885 2868 2844 2825 2788 2717 2577 0 0 1991 1978 1978 1978 1982 1984 1988 1988 1988 1988 1989 1989 1990 1990 1990 1990 1991 1993 1993 1993 1991 1990 1989 1989 1989 1987 1986 1986 1986 1986 1985 1981 1978 1978 1978 1979 1981 1981 1982 1983 1987 1991 1993 1994 1995 1996 1996 1995 1993 1990 1987 1984 1980 1977 1977 1977 1977 1978 1979 1979 1980 1980 1980 1980 1980 1981 1981 1981 1977 1972 1965 1954 1927 1889 1859 1840 1826 1823 1822 1820 1817 1814 1812 1812 1808 1807 1805 1805 1805 1804 1801 1799 1794 1793 1789 1787 1784 1782 1781 1780 1776 1771 1767 1766 1764 1761 1756 1751 1747 1743 1739 1738 1736 1735 1733 1731 1728 1723 1719 1717 1715 1712 1707 1703 1697 1695 1694 1692 1690 1686 1683 1682 1679 1677 1675 1672 1670 1667 1663 1661 1658 1654 1650 1646 1643 1641 1640 1639 1636 1632 1629 1627 1624 1623 1622 1620 1619 1615 1613 1609 1608 1607 1605 1602 1599 1595 1591 1589 1588 1586 1583 1581 1578 1575 1572 1571 1567 1565 1562 1558 1556 1552 1546 1542 1536 1530 1524 1517 1510 1504 1492 1481 1478 1475 1472 1470 1468 1467 1465 1464 1463 1461 1460 1458 1456 1455 1455 1454 1452 1452 1450 1450 1450 1450 1449 1448 1447 1447 1447 1447 1447 1448 1448 1449 1449 1451 1452 1453 1456 1457 1459 1460 1463 1464 1464 1466 1467 1467 1468 1469 1469 1469 1470 1470 1471 1472 1472 1472 1473 1474 1475 1475 1476 1476 1476 1476 1476 1476 1477 1476 1476 1476 1476 1475 1475 1474 1473 1472 1471 1470 1469 1468 1467 1466 1466 1464 1462 1461 1460 1457 1456 1453 1450 1448 1446 1445 1443 1440 1440 1438 1437 1437 1437 1437 1436 1436 1436 1436 1436 1437 1443 1446 1446 1446 1444 1444 1443 1442 1442 1441 1441 1439 1437 1435 1430 1427 1424 1419 1414 1410 1404 1394 1380 1370 1361 1351 1338 1328 1312 1300 1297 1297 1295 1292 1287 1280 1273 1273 1272 1272
1668 1683 1703 1707 1722 1735 1754 1770 1785 1814 1835 1856 1875 1892 1902 1914 1920 1933 1953 1969 1976 1977 1983 1993 2016 2048 2072 2095 2103 2122 2137 2147 2188 2208 2215 2217 2224 2239 2261 2281 2296 2298 2302 2304 2304 2319 2325 2343 2361 2374 2386 2393 2394 2396 2400 2414 2425 2435 2442 2454 2457 2471 2487 2492 2493 2496 2497 2497 2506 2519 2529 2545 2555 2563 2568 2575 2582 2593 2610 2620 2626 2627 2628 2628 2629 2629 2629 2616 2612 2612 2612 2644 2656 2671 2680 2686 2686 2686 2658 2646 2637 2637 2637 2637 2699 2736 2754 2754 2754 2753 2753 2750 2741 2741 2741 2753 2788 2796 2797 2799 2801 2804 2806 2806 2806 2801 2801 2801 2817 2830 2832 2832 2832 2826 2826 2826 2827 2827 2827 2807 2787 2770 2742 2677 2586 2179 0 0 0 0 0 0 0 0 0 0 0 0 0 0 0 2314 2517 2752 2813 2813 2813 2806 2788 2777 2767 2738 2705 2668 2613 2502 2174 0 0 0 0 0 0 0 0 0 0 0 0 0 0 0 0 0 0 0 2161 2538 2733 2872 2884 2884 2884 2884 2884 2885 2885 2895 2910 2910 2910 2906 2895 2887 2886 2886 2886 2896 2911 2916 2916 2916 2902 2885 2870 2867 2867 2867 2869 2878 2879 2881 2884 2884 2894 2903 2903 2903 2900 2887 2875 2861 2861 2861 2869 2871 2871 2872 2883 2892 2896 2899 2899 2899 2901 2901 2904 2904 2904 2901 2891 2883 2883 2883 2894 2894 2894 2892 2878 2878 2878 2877 2877 2877 2883 2888 2890 2890 2890 2879 2874 2872 2872 2872 2872 2872 2851 2820 2793 2755 2682 2534 0 0 1982 1978 1978 1978 1982 1984 1985 1985 1986 1987 1987 1988 1988 1989 1990 1990 1994 1997 1997 1997 1995 1993 1991 1991 1989 1987 1986 1986 1986 1984 1984 1981 1978 1975 1973 1973 1973 1974 1975 1978 1979 1980 1984 1992 1995 1996 1996 1995 1993 1990 1987 1985 1980 1977 1977 1976 1976 1974 1974 1974 1974 1973 1973 1973 1973 1975 1975 1975 1975 1972 1968 1958 1934 1900 1864 1831 1817 1811 1809 1808 1807 1802 1802 1801 1798 1797 1797 1797 1797 1797 1796 1792 1786 1783 1781 1781 1778 1777 1775 1773 1770 1768 1764 1761 1759 1756 1750 1747 1743 1740 1739 1736 1733 1731 1727 1727 1723 1719 1716 1714 1712 1709 1704 1699 1696 1694 1692 1689 1686 1681 1679 1677 1674 1672 1670 1668 1665 1663 1659 1658 1655 1651 1646 1641 1639 1639 1638 1635 1633 1628 1626 1623 1619 1617 1616 1615 1613 1610 1606 1604 1603 1602 1601 1598 1594 1591 1588 1585 1582 1581 1579 1576 1576 1573 1571 1567 1563 1561 1560 1558 1556 1552 1546 1542 1536 1531 1524 1520 1515 1509 1501 1491 1480 1476 1473 1471 1468 1468 1465 1464 1463 1461 1460 1458 1456 1455 1455 1454 1452 1451 1449 1449 1449 1449 1449 1448 1445 1445 1445 1446 1446 1446 1446 1446 1446 1446 1446 1448 1451 1453 1455 1457 1458 1460 1461 1461 1462 1463 1464 1466 1466 1467 1467 1467 1468 1469 1469 1469 1470 1471 1472 1473 1473 1474 1474 1474 1474 1474 1474 1474 1475 1475 1475 1475 1475 1474 1473 1472 1471 1470 1469 1468 1468 1467 1466 1465 1464 1462 1461 1459 1457 1454 1452 1449 1449 1447 1445 1443 1441 1439 1439 1437 1437 1437 1436 1436 1436 1434 1434 1434 1439 1442 1443 1443 1443 1442 1441 1441 1441 1441 1440 1439 1437 1435 1432 1428 1425 1420 1414 1410 1406 1395 1381 1370 1361 1352 1344 1329 1319 1307 1297 1297 1297 1292 1289 1282 1274 1274 1272 1272
1668 1683 1703 1707 1722 1735 1754 1770 1785 1814 1835 1856 1875 1892 1902 1914 1920 1933 1953 1969 1980 1980 1985 1997 2017 2047 2072 2095 2111 2122 2137 2147 2171 2208 2215 2217 2224 2239 2260 2277 2296 2304 2307 2309 2310 2317 2322 2340 2358 2372 2385 2393 2402 2406 2407 2415 2427 2437 2445 2454 2456 2466 2487 2492 2501 2507 2509 2511 2514 2521 2529 2540 2547 2557 2561 2569 2579 2593 2609 2620 2624 2624 2627 2628 2632 2632 2632 2616 2612 2612 2612 2644 2656 2671 2680 2686 2686 2686 2658 2646 2637 2637 2637 2637 2673 2687 2695 2728 2735 2735 2735 2735 2723 2717 2717 2717 2763 2780 2787 2790 2795 2797 2803 2803 2803 2800 2800 2800 2817 2821 2821 2822 2822 2822 2823 2823 2822 2822 2822 2803 2774 2749 2714 2475 2201 1940 0 0 0 0 0 0 0 0 0 0 0 0 0 0 0 1642 1677 2033 2460 2749 2749 2749 2726 2693 2663 2603 2541 2476 2392 2149 1964 0 0 0 0 0 0 0 0 0 0 0 0 0 0 0 0 0 0 0 1608 2011 2382 2694 2869 2874 2874 2874 2874 2874 2876 2885 2895 2898 2898 2898 2889 2878 2875 2874 2874 2875 2874 2874 2873 2873 2870 2855 2840 2837 2837 2837 2843 2843 2845 2849 2849 2853 2864 2874 2882 2882 2882 2881 2862 2848 2845 2845 2845 2849 2853 2859 2863 2867 2867 2876 2888 2890 2890 2892 2894 2894 2894 2883 2875 2871 2869 2869 2869 2869 2869 2865 2857 2855 2853 2850 2850 2850 2851 2852 2856 2856 2856 2855 2845 2842 2842 2842 2842 2842 2842 2802 2776 2732 2670 2533 0 0 1978 1974 1974 1974 1977 1978 1980 1981 1981 1984 1985 1987 1988 1988 1988 1990 1994 1997 2000 2000 2000 2000 1997 1992 1991 1990 1986 1986 1986 1984 1983 1981 1977 1973 1969 1969 1969 1969 1970 1971 1974 1974 1975 1978 1987 1995 1995 1995 1993 1990 1987 1985 1980 1977 1976 1974 1974 1971 1969 1968 1968 1968 1968 1968 1968 1968 1974 1974 1974 1972 1968 1958 1934 1902 1864 1822 1806 1796 1793 1792 1790 1790 1789 1788 1786 1785 1785 1785 1787 1787 1787 1782 1776 1775 1774 1773 1771 1768 1763 1763 1763 1761 1761 1759 1754 1748 1746 1742 1738 1734 1731 1730 1729 1726 1724 1722 1719 1717 1713 1711 1709 1702 1700 1697 1695 1692 1690 1686 1682 1676 1671 1668 1666 1666 1666 1665 1662 1658 1655 1652 1648 1643 1638 1638 1637 1637 1634 1630 1627 1625 1622 1620 1616 1614 1610 1608 1607 1603 1598 1597 1597 1595 1594 1591 1588 1586 1584 1577 1574 1574 1573 1572 1572 1570 1567 1563 1560 1558 1557 1556 1553 1550 1545 1539 1536 1531 1524 1520 1515 1511 1505 1497 1493 1488 1479 1471 1468 1468 1465 1464 1463 1461 1458 1457 1456 1455 1454 1453 1452 1450 1449 1449 1449 1449 1449 1447 1444 1444 1444 1444 1445 1445 1445 1443 1443 1443 1444 1445 1446 1448 1449 1454 1456 1457 1458 1458 1458 1460 1462 1463 1463 1463 1463 1463 1464 1464 1464 1465 1466 1467 1468 1469 1470 1472 1472 1472 1473 1473 1473 1473 1473 1473 1473 1473 1473 1472 1472 1472 1470 1470 1469 1468 1468 1467 1467 1466 1464 1463 1462 1461 1458 1456 1454 1453 1450 1449 1447 1444 1443 1441 1439 1438 1437 1437 1436 1436 1435 1434 1433 1433 1433 1435 1440 1441 1441 1441 1441 1441 1440 1440 1440 1439 1437 1435 1432 1429 1425 1421 1417 1413 1411 1397 1382 1371 1362 1352 1345 1331 1322 1313 1304 1300 1297 1294 1290 1284 1277 1277 1274 1274
