2083 2083 2129 2171 2205 2207 2209 2223 2244 2254 2267 2267 2273 2291 2301 2314 2339 2363 2370 2383 2384 2388 2408 2434 2457 2470 2483 2496 2509 2534 2552 2555 2562 2563 2567 2570 2571 2585 2603 2626 2643 2652 2661 2672 2678 2686 2697 2703 2712 2726 2741 2752 2761 2771 2786 2800 2808 2814 2815 2815 2819 2830 2839 2843 2848 2855 2857 2858 2865 2876 2884 2898 2912 2918 2925 2937 2947 2952 2961 2965 2973 2980 2983 2986 2995 3009 3015 3015 3015 3015 3015 3018 3026 3031 3046 3057 3064 3068 3068 3071 3079 3087 3101 3107 3116 3116 3116 3113 3113 3113 3127 3136 3143 3146 3148 3150 3153 3153 3153 3151 3146 3146 3146 3150 3157 3166 3173 3176 3176 3176 3173 3170 3169 3169 3170 3172 3179 3188 3193 3193 3193 3193 3193 3195 3201 3201 3201 3182 3169 3158 3134 3117 3093 2686 0 0 0 0 0 0 0 0 0 0 0 0 0 0 0 0 0 0 0 0 0 0 0 0 0 0 0 0 0 0 1321 1321 1316 1312 1309 1308 1304 1302 1301 1296 1296 1288 1285 1266 1266 1265 1262 1262 1257 1249 1244 1243 1243 1243 1240 1239 1238 1238 1238 1238 1239 1247 1253 1255 1261 1263 1263 1263 0 0 0 0 1068 1050 1048 1048 1043 1039 1038 1038 1038 1035 1033 1030 1029 1027 1026 1025 1023 1023 1022 1020 1020 1019 1018 1017 1016 1015 1014 1013 1012 1011 1011 1009 1008 1007 1006 1006 1005 1004 1003 1002 1000 1000 999 998 997 997 996 994 993 993 990 989 989 988 988 988 988 987 986 985 984 982 979 978 976 975 972 971 970 969 968 967 965 964 963 963 963 962 960 959 959 959 959 959 958 957 957 956 955 954 953 952 952 951 950 948 947 947 946 946 945 944 944 943 943 943 943 943 943 943 943 941 941 940 940 939 939 937 936 936 935 934 933 932 931 929 929 927 925 923 922 920 918 917 916 915 913 912 910 910 909 907 907 905 905 903 903 902 901 901 900 899 898 897 897 897 897 896 896 896 896 896 896 896 897 898 899 900 900 903 906 907 908 914 922 926 926 929 937 0 0 0 0 0 0 1674 1694 1696 1696 1695 1695 1695 1695 1695 1693 1693 1691 1689 1689 1688 1686 1685 1684 1684 1682 1679 1678 1678 1677 1675 1670 1666 1661 1655 1650 1646 1642 1639 1636 1633 1630 1628 1622 1617 1613 1609 1606 1605 1603 1602 1600 1598 1597 1595 1593 1591 1591 1590 1589 1587 1585 1585 1585 1585 1585 1587 1591 1594 1595 1598 1604 1611 1617 1617 1619 1621 1623 1623 1623 1622 1621 1621 1622 1622 1622 1622 1620 1619 1618 1618 1617 1617 1616 1615 1613 1611 1609 1607 1605 1602 1599 1597 1593 1590 1587 1584 1582 1579 1577 1577 1574 1574 1574 1574 1574 1574 1574 1574 1579 1587 1592 1594 1597 1600 1603 1603 1604 1605 1609 1611 1612 1614 1614 1614 1614 1615 1616 1617 1618 1619 1620 1621 1622 1622 1623 1624 1624 1624 1624 1624 1624 1625 1626 1627 1628 1629 1631 1631 1631 1633 1636 1642 1653 1664 1670 1675 1678 1681 1682 1685 1688 1690 1691 1693 1695 1697 1698 1700 1701 1703 1703 1705 1707 1707 1708 1708 1709 1711 1714 1716 1719 1722 1723 1723 1724 1724 1726 1726 1726 1726 1726 1726 1724 1721 1714 1707 1700 1692 1684 1675 1666 1663 1659 1645 1628 1618 1612 1606 1603 1594 1585 1575 1569 1563 1560 1555 1548 1544 1537 1534 1531 1529 1528 1528
2102 2102 2156 2206 2219 2226 2240 2258 2265 2269 2271 2271 2277 2289 2301 2314 2339 2363 2370 2383 2384 2396 2423 2452 2460 2471 2483 2498 2515 2536 2552 2560 2560 2563 2563 2565 2571 2585 2606 2639 2656 2659 2661 2672 2680 2688 2697 2703 2719 2735 2747 2755 2765 2777 2787 2794 2803 2811 2816 2820 2830 2841 2846 2848 2861 2874 2877 2881 2885 2889 2898 2909 2919 2919 2925 2937 2947 2958 2966 2976 2980 2988 2993 2994 2999 3009 3013 3013 3015 3015 3017 3021 3027 3034 3046 3057 3065 3066 3069 3069 3072 3087 3101 3107 3116 3116 3116 3120 3121 3121 3134 3141 3145 3148 3150 3151 3153 3153 3153 3153 3147 3147 3147 3150 3158 3170 3177 3180 3180 3180 3180 3180 3179 3180 3180 3182 3187 3193 3193 3193 3193 3194 3194 3195 3201 3201 3201 3182 3169 3150 3046 2923 2589 0 0 0 0 0 0 0 0 0 0 0 0 0 0 0 0 0 0 0 0 0 0 0 0 0 0 0 0 1324 1319 1319 1319 1319 1316 1306 1304 1304 1303 1303 1301 1296 1287 1287 1280 1266 1261 1259 1259 1256 1250 1242 1240 1237 1235 1233 1233 1233 1233 1233 1233 1233 1233 1234 1240 1243 1252 1252 1252 0 0 0 0 1075 1059 1049 1047 1046 1042 1040 1040 1038 1038 1035 1033 1031 1029 1028 1027 1027 1025 1025 1024 1022 1021 1021 1019 1019 1018 1016 1015 1014 1013 1012 1011 1010 1009 1008 1007 1006 1006 1004 1004 1003 1002 1001 1000 1000 998 998 996 996 994 994 993 992 991 991 990 989 988 988 988 987 985 982 980 978 976 975 972 971 970 969 969 967 966 965 964 964 963 962 960 960 960 960 961 961 961 958 958 958 957 957 956 954 953 952 950 950 949 948 947 946 946 945 945 945 943 943 943 943 943 943 943 942 942 941 940 939 939 938 937 936 936 934 933 932 931 930 929 927 926 924 922 920 920 918 917 915 914 913 911 910 910 908 907 907 905 905 904 904 902 902 901 900 899 898 898 897 897 896 896 896 896 896 896 896 896 898 898 900 900 903 903 905 907 909 914 926 926 926 926 0 0 0 0 0 0 0 1675 1678 1693 1693 1693 1692 1692 1692 1693 1693 1693 1692 1691 1689 1687 1686 1684 1684 1682 1680 1679 1678 1678 1675 1673 1671 1668 1662 1658 1653 1649 1645 1641 1638 1635 1632 1628 1623 1619 1614 1611 1609 1608 1605 1603 1601 1599 1597 1596 1594 1593 1591 1589 1587 1585 1584 1584 1584 1583 1583 1584 1587 1591 1595 1596 1599 1603 1607 1611 1615 1620 1620 1620 1619 1619 1619 1620 1620 1620 1620 1619 1619 1618 1618 1617 1617 1616 1615 1614 1611 1610 1608 1607 1605 1601 1598 1594 1592 1590 1587 1584 1581 1580 1577 1575 1575 1575 1574 1574 1574 1573 1573 1573 1578 1583 1585 1592 1594 1598 1599 1599 1601 1604 1607 1609 1612 1613 1613 1613 1615 1615 1616 1617 1618 1619 1621 1622 1622 1622 1623 1623 1624 1624 1624 1624 1624 1626 1626 1628 1628 1629 1630 1630 1632 1633 1637 1648 1659 1666 1670 1673 1676 1680 1682 1685 1688 1690 1691 1694 1696 1696 1698 1700 1700 1701 1702 1703 1705 1706 1707 1707 1709 1711 1714 1715 1718 1720 1720 1721 1722 1725 1726 1726 1726 1726 1726 1723 1720 1713 1703 1693 1687 1679 1672 1662 1660 1657 1642 1622 1608 1605 1601 1597 1591 1583 1575 1568 1562 1560 1555 1548 1544 1538 1533 1529 1525 1518 1518
2125 2125 2173 2215 2225 2241 2251 2261 2274 2274 2276 2276 2281 2291 2301 2314 2339 2363 2370 2390 2401 2420 2425 2456 2468 2478 2486 2499 2521 2539 2553 2562 2562 2563 2565 2565 2571 2592 2616 2639 2656 2664 2665 2673 2680 2688 2697 2703 2721 2737 2747 2759 2765 2777 2787 2794 2803 2811 2816 2826 2833 2844 2852 2862 2873 2880 2891 2893 2894 2897 2903 2910 2919 2922 2928 2938 2948 2958 2967 2976 2981 2989 2994 2998 3001 3009 3013 3013 3015 3017 3020 3024 3029 3038 3047 3060 3065 3066 3069 3069 3072 3087 3092 3108 3120 3120 3120 3122 3122 3124 3135 3149 3152 3152 3155 3155 3154 3154 3154 3153 3147 3147 3147 3154 3164 3174 3182 3182 3183 3185 3184 3185 3187 3187 3189 3190 3198 3199 3199 3199 3196 3194 3194 3194 3201 3201 3201 3176 3142 2966 2584 0 0 0 0 0 0 0 0 0 0 0 0 1254 1254 1254 1262 1274 1282 0 0 0 0 0 0 0 0 0 0 0 1307 1307 1307 1308 1309 1309 1309 1304 1304 1303 1301 1301 1300 1296 1287 1283 1273 1265 1259 1257 1255 1248 1243 1238 1236 1232 1227 1226 1226 1225 1225 1225 1225 1226 1226 1227 1232 1235 1235 1235 1224 0 0 0 1077 1062 1053 1049 1044 1044 1042 1041 1040 1039 1038 1036 1033 1032 1031 1029 1029 1028 1027 1026 1025 1024 1022 1021 1021 1020 1019 1018 1016 1015 1014 1013 1012 1012 1010 1009 1008 1007 1007 1005 1005 1005 1003 1002 1002 1000 1000 999 998 998 996 995 995 994 992 992 991 991 990 989 988 987 985 982 980 978 976 975 972 971 970 969 969 968 966 966 965 965 964 962 962 962 962 963 964 964 964 962 960 960 959 958 956 954 953 952 951 950 949 948 947 947 946 945 945 945 944 944 944 944 944 944 943 943 942 941 940 940 940 938 938 937 936 935 934 932 932 931 930 928 926 925 924 923 921 920 919 917 917 914 913 913 911 910 908 907 907 906 905 904 903 902 901 901 900 899 898 898 897 896 896 896 896 896 896 896 896 897 898 899 900 901 903 904 907 909 912 918 926 926 926 933 0 0 0 0 0 0 0 1674 1683 1690 1690 1690 1690 1690 1692 1693 1693 1693 1691 1689 1688 1687 1686 1685 1684 1683 1681 1679 1679 1677 1675 1673 1670 1667 1663 1661 1658 1654 1649 1643 1640 1638 1635 1630 1626 1622 1619 1616 1613 1610 1607 1605 1603 1601 1599 1597 1595 1593 1591 1587 1586 1585 1584 1583 1581 1581 1581 1583 1584 1585 1590 1594 1594 1595 1601 1607 1613 1617 1617 1617 1618 1618 1618 1618 1618 1618 1618 1618 1617 1617 1617 1617 1616 1615 1614 1612 1610 1608 1607 1607 1604 1601 1598 1594 1592 1590 1587 1583 1582 1580 1577 1575 1575 1575 1575 1574 1573 1573 1573 1574 1577 1582 1583 1590 1593 1595 1596 1598 1600 1604 1607 1610 1611 1611 1612 1613 1614 1614 1615 1616 1618 1620 1621 1621 1621 1622 1622 1623 1623 1623 1623 1624 1624 1626 1626 1627 1627 1629 1630 1631 1632 1636 1642 1654 1660 1664 1668 1671 1676 1677 1681 1684 1687 1690 1692 1694 1695 1696 1697 1698 1698 1699 1701 1702 1703 1704 1705 1706 1709 1711 1712 1714 1716 1717 1719 1721 1724 1724 1726 1726 1726 1725 1722 1719 1709 1698 1689 1682 1677 1667 1657 1655 1650 1638 1622 1608 1599 1596 1591 1587 1578 1572 1568 1562 1557 1553 1548 1544 1538 1533 1527 1521 1516 1516
2146 2146 2188 2218 2225 2243 2253 2270 2276 2279 2279 2282 2283 2292 2304 2330 2353 2377 2388 2408 2423 2423 2450 2479 2487 2499 2500 2503 2524 2548 2564 2564 2564 2565 2565 2565 2580 2600 2618 2639 2656 2666 2671 2677 2682 2690 2697 2706 2722 2737 2752 2759 2765 2777 2787 2794 2803 2811 2818 2826 2837 2847 2854 2863 2875 2881 2891 2894 2899 2899 2904 2913 2920 2929 2931 2938 2949 2959 2967 2976 2983 2990 2996 2999 3002 3009 3013 3013 3016 3024 3024 3025 3032 3041 3051 3060 3068 3068 3069 3069 3072 3087 3092 3109 3120 3120 3120 3122 3122 3125 3136 3149 3157 3157 3158 3158 3159 3159 3159 3155 3153 3153 3153 3160 3169 3176 3182 3185 3187 3188 3190 3192 3192 3193 3195 3198 3203 3203 3203 3202 3196 3192 3181 3177 3175 3173 3164 3128 2948 2563 0 0 0 0 0 0 0 0 0 1246 1247 1247 1243 1243 1242 1242 1243 1259 1261 1261 1280 1280 1280 1274 1250 1250 1250 1268 1293 1293 1294 1294 1302 1302 1302 1303 1302 1302 1302 1302 1301 1301 1300 1295 1287 1282 1273 1265 1260 1257 1253 1245 1242 1237 1234 1231 1226 1221 1221 1220 1220 1220 1219 1219 1219 1223 1225 1225 1225 1216 0 0 0 1064 1062 1059 1050 1047 1044 1044 1043 1042 1041 1039 1039 1036 1034 1034 1031 1031 1030 1029 1028 1028 1026 1025 1024 1024 1023 1021 1021 1019 1018 1017 1016 1015 1014 1013 1012 1011 1009 1008 1008 1006 1006 1005 1005 1003 1003 1002 1001 1001 1000 999 998 997 996 996 995 995 994 991 990 989 989 987 985 982 980 978 976 974 972 971 970 969 969 968 968 967 966 966 964 962 962 962 963 965 965 965 965 963 961 960 960 959 957 954 954 953 953 952 950 949 947 947 946 946 946 945 944 944 944 944 944 944 944 943 942 942 941 940 940 939 938 937 936 936 934 933 933 931 930 929 927 926 926 924 923 921 919 919 918 915 915 914 912 911 910 909 907 906 906 905 904 903 902 901 900 900 899 898 897 897 896 896 896 896 896 896 896 897 898 898 900 901 902 903 905 908 910 915 923 926 926 932 937 0 0 0 0 0 0 0 1674 1688 1688 1688 1688 1688 1692 1693 1693 1693 1691 1690 1688 1687 1687 1686 1686 1685 1683 1681 1680 1678 1676 1674 1672 1670 1667 1665 1661 1660 1656 1650 1647 1645 1642 1638 1634 1630 1626 1623 1620 1617 1612 1609 1607 1605 1603 1600 1599 1596 1593 1589 1587 1585 1584 1583 1581 1581 1580 1580 1580 1580 1582 1587 1588 1590 1592 1595 1600 1608 1610 1613 1614 1614 1615 1615 1615 1615 1615 1616 1616 1616 1616 1616 1615 1614 1614 1612 1610 1610 1608 1607 1605 1603 1600 1596 1595 1592 1589 1587 1584 1582 1579 1577 1575 1575 1575 1575 1573 1573 1573 1574 1574 1575 1577 1581 1588 1591 1593 1594 1598 1603 1606 1608 1608 1608 1610 1611 1612 1613 1614 1615 1617 1619 1620 1620 1620 1621 1621 1621 1622 1622 1622 1623 1624 1624 1625 1626 1626 1628 1630 1630 1631 1632 1637 1641 1650 1659 1663 1666 1671 1675 1676 1679 1682 1685 1688 1691 1693 1693 1694 1695 1696 1697 1698 1699 1700 1701 1703 1705 1706 1707 1708 1709 1712 1713 1715 1718 1722 1724 1726 1726 1726 1725 1722 1711 1707 1694 1684 1677 1672 1657 1649 1646 1643 1633 1621 1606 1598 1591 1583 1579 1572 1568 1564 1559 1552 1546 1544 1542 1537 1532 1525 1520 1516 1516
2146 2146 2188 2218 2223 2248 2262 2270 2276 2285 2286 2289 2292 2301 2323 2343 2371 2382 2406 2411 2427 2447 2470 2498 2501 2507 2513 2514 2527 2548 2564 2568 2568 2568 2568 2582 2599 2609 2619 2635 2651 2666 2677 2681 2688 2695 2701 2710 2724 2738 2760 2771 2780 2788 2794 2805 2816 2821 2824 2830 2838 2849 2855 2864 2875 2887 2892 2899 2900 2901 2905 2915 2920 2929 2936 2940 2950 2959 2969 2977 2983 2991 2996 2999 3003 3009 3014 3015 3028 3028 3033 3034 3034 3044 3055 3069 3077 3081 3083 3085 3086 3091 3092 3109 3117 3120 3120 3120 3122 3125 3137 3149 3158 3158 3160 3162 3164 3167 3167 3167 3164 3164 3164 3165 3174 3181 3184 3187 3188 3190 3194 3196 3196 3198 3198 3198 3206 3208 3208 3208 3201 3192 3181 3174 3150 3146 3122 2993 2667 0 0 0 0 0 0 0 0 1237 1240 1240 1236 1236 1236 1236 1238 1239 1239 1258 1259 1261 1261 1259 1257 1250 1249 1249 1250 1265 1285 1294 1296 1296 1298 1301 1301 1299 1298 1298 1298 1299 1298 1298 1296 1294 1287 1281 1273 1266 1260 1256 1249 1245 1236 1234 1233 1229 1222 1217 1217 1217 1217 1217 1217 1218 1218 1219 1219 1219 1211 1191 0 0 1073 1063 1061 1057 1049 1045 1044 1044 1043 1043 1043 1042 1039 1037 1036 1035 1033 1032 1031 1031 1030 1030 1028 1027 1026 1025 1025 1023 1022 1020 1020 1018 1017 1016 1015 1013 1012 1011 1011 1010 1009 1008 1007 1006 1006 1005 1004 1003 1003 1002 1001 1000 1000 999 998 997 997 996 994 991 991 990 989 988 986 982 980 978 976 974 972 971 970 969 969 969 969 968 968 967 967 964 963 963 963 966 966 966 966 965 964 962 961 959 958 957 955 955 953 953 950 949 948 947 946 946 946 946 945 944 944 944 944 944 944 944 943 942 941 940 940 939 939 938 936 936 935 934 933 931 931 930 929 927 927 926 923 922 920 919 918 917 917 915 914 912 911 909 909 908 906 905 905 904 903 902 901 900 899 899 899 898 897 896 896 896 896 896 896 897 897 898 899 901 902 902 903 908 910 911 916 923 924 927 930 947 0 0 0 0 0 0 1653 1681 1685 1688 1688 1688 1689 1691 1691 1691 1691 1690 1688 1687 1687 1686 1686 1685 1684 1682 1681 1679 1676 1675 1674 1672 1670 1668 1665 1663 1662 1659 1655 1653 1649 1647 1641 1636 1633 1631 1627 1622 1618 1614 1614 1612 1608 1606 1602 1598 1595 1592 1590 1587 1586 1585 1581 1581 1580 1580 1579 1578 1578 1578 1579 1581 1588 1590 1590 1592 1598 1606 1609 1611 1611 1611 1612 1613 1613 1614 1614 1614 1614 1614 1613 1613 1613 1612 1610 1610 1608 1608 1607 1605 1602 1600 1597 1594 1592 1590 1587 1585 1581 1578 1576 1576 1576 1576 1574 1574 1574 1574 1574 1574 1574 1575 1579 1586 1589 1592 1593 1599 1604 1605 1606 1606 1607 1609 1610 1612 1612 1614 1616 1617 1617 1619 1619 1620 1620 1620 1620 1621 1622 1622 1622 1623 1623 1624 1625 1626 1629 1630 1630 1630 1633 1637 1641 1649 1655 1661 1666 1671 1672 1676 1678 1682 1685 1688 1689 1690 1691 1692 1693 1693 1695 1696 1697 1699 1701 1703 1705 1705 1707 1707 1709 1710 1713 1717 1721 1721 1725 1725 1725 1725 1719 1709 1704 1694 1682 1674 1661 1647 1640 1638 1636 1631 1618 1604 1595 1584 1573 1570 1563 1560 1559 1555 1547 1541 1539 1538 1535 1531 1524 1519 1516 1516
2146 2146 2188 2218 2219 2248 2275 2286 2291 2301 2310 2318 2324 2328 2343 2360 2388 2392 2409 2431 2450 2466 2487 2509 2511 2512 2518 2518 2527 2548 2564 2568 2568 2570 2581 2601 2617 2618 2623 2635 2651 2666 2677 2684 2690 2697 2706 2717 2730 2749 2770 2787 2794 2794 2801 2814 2823 2826 2830 2834 2845 2851 2855 2865 2875 2889 2899 2906 2911 2912 2912 2919 2925 2936 2946 2951 2953 2961 2973 2977 2983 2990 2994 2998 3003 3009 3018 3023 3033 3033 3036 3041 3041 3047 3062 3076 3086 3090 3097 3103 3103 3110 3113 3115 3117 3119 3120 3120 3120 3124 3137 3151 3159 3160 3161 3163 3166 3172 3172 3172 3171 3171 3171 3173 3177 3183 3188 3191 3193 3196 3201 3201 3201 3203 3204 3204 3213 3218 3218 3218 3208 3193 3181 3171 3149 3108 3036 2841 0 0 0 0 0 0 0 1231 1227 1227 1231 1231 1231 1231 1231 1236 1237 1238 1239 1243 1246 1246 1245 1245 1246 1245 1249 1253 1255 1265 1288 1289 1290 1291 1294 1293 1294 1294 1294 1294 1295 1295 1294 1294 1291 1290 1287 1281 1271 1266 1260 1255 1248 1240 1232 1230 1228 1226 1220 1216 1216 1215 1215 1215 1215 1215 1215 1215 1215 1208 1190 1165 1136 1102 1069 1061 1058 1052 1049 1045 1045 1045 1044 1043 1043 1042 1040 1038 1037 1036 1035 1034 1034 1033 1031 1031 1030 1029 1027 1027 1026 1024 1023 1022 1021 1019 1018 1017 1015 1015 1014 1013 1012 1011 1010 1009 1009 1008 1007 1006 1005 1005 1004 1004 1003 1003 1001 999 998 998 997 997 995 994 993 991 989 988 986 982 980 978 976 974 974 974 972 972 971 971 971 971 970 969 969 966 965 965 965 967 967 967 967 965 964 963 961 961 960 958 957 956 954 954 953 952 949 948 948 948 947 946 946 945 945 944 944 944 944 944 943 942 942 941 941 939 939 938 937 937 935 934 933 931 931 930 929 928 928 927 926 923 922 920 920 920 919 917 915 914 913 911 910 909 908 906 906 905 904 902 902 901 901 899 899 898 898 897 897 896 896 896 896 897 897 898 899 900 901 901 902 903 905 907 911 918 924 925 927 932 959 0 0 0 0 0 0 1666 1673 1684 1684 1686 1686 1689 1691 1691 1691 1690 1688 1687 1687 1686 1686 1685 1684 1682 1681 1679 1678 1676 1674 1673 1672 1671 1669 1667 1665 1662 1660 1658 1655 1653 1649 1643 1639 1637 1633 1630 1626 1622 1619 1618 1615 1610 1606 1602 1599 1596 1594 1592 1590 1588 1585 1583 1580 1580 1578 1578 1578 1574 1574 1574 1577 1584 1586 1586 1588 1593 1599 1602 1603 1605 1607 1608 1609 1610 1611 1612 1612 1612 1612 1612 1612 1611 1610 1610 1609 1608 1607 1605 1603 1601 1600 1598 1595 1593 1590 1588 1585 1581 1578 1576 1576 1576 1575 1574 1574 1574 1574 1572 1572 1572 1573 1577 1584 1588 1590 1593 1600 1601 1602 1602 1603 1606 1608 1610 1611 1613 1613 1615 1616 1617 1619 1619 1619 1619 1620 1621 1621 1621 1621 1622 1622 1622 1623 1625 1626 1627 1627 1629 1631 1637 1639 1642 1650 1656 1662 1667 1669 1673 1676 1679 1681 1683 1686 1687 1688 1689 1690 1691 1693 1694 1694 1697 1699 1701 1702 1704 1704 1705 1706 1709 1711 1715 1716 1719 1721 1722 1722 1722 1714 1703 1699 1685 1672 1663 1650 1635 1627 1626 1626 1624 1616 1604 1590 1578 1569 1566 1563 1560 1558 1554 1546 1539 1536 1534 1531 1526 1520 1518 1515 1515
2140 2140 2174 2209 2212 2248 2275 2292 2304 2320 2322 2333 2349 2358 2364 2382 2390 2396 2427 2455 2473 2486 2498 2509 2515 2516 2522 2522 2527 2544 2549 2561 2568 2576 2590 2612 2625 2628 2631 2635 2651 2666 2677 2688 2697 2707 2717 2731 2743 2758 2777 2799 2809 2810 2810 2821 2833 2839 2843 2847 2850 2855 2858 2865 2876 2895 2915 2924 2924 2924 2924 2924 2934 2942 2950 2957 2962 2970 2976 2981 2983 2990 2994 2996 3003 3009 3018 3027 3036 3042 3042 3043 3045 3052 3066 3078 3086 3093 3103 3112 3113 3117 3120 3120 3120 3117 3120 3120 3120 3124 3138 3151 3159 3163 3163 3165 3169 3173 3173 3173 3175 3175 3175 3177 3180 3184 3190 3194 3195 3199 3202 3202 3202 3203 3205 3208 3219 3229 3229 3229 3213 3201 3186 3171 3147 3105 3032 0 0 0 0 0 0 0 1229 1229 1227 1222 1218 1220 1220 1217 1220 1220 1227 1230 1231 1233 1238 1242 1243 1244 1245 1248 1249 1250 1251 1265 1277 1285 1290 1291 1291 1291 1291 1291 1291 1292 1292 1292 1288 1287 1286 1285 1285 1278 1269 1265 1260 1255 1244 1232 1228 1224 1221 1219 1216 1213 1212 1212 1213 1212 1212 1213 1212 1211 1202 1193 1177 1159 1115 1096 1064 1059 1058 1050 1049 1046 1045 1045 1045 1045 1044 1043 1042 1040 1039 1038 1037 1036 1035 1034 1032 1032 1031 1030 1029 1028 1028 1027 1025 1024 1022 1021 1019 1018 1017 1016 1015 1014 1013 1012 1012 1010 1010 1009 1008 1007 1007 1006 1005 1005 1004 1004 1002 1000 999 999 999 997 996 995 995 992 989 987 986 984 981 979 977 976 976 975 975 975 975 975 974 972 972 970 969 968 968 968 968 967 967 967 967 966 965 963 963 962 961 960 958 956 956 955 954 953 952 950 950 950 949 947 947 946 945 944 944 944 944 944 944 943 942 941 941 940 939 938 938 938 936 934 933 932 931 931 930 930 929 929 927 925 923 922 922 920 919 918 916 915 914 913 911 910 908 907 906 905 905 903 903 901 901 901 900 899 898 897 897 897 897 897 897 897 897 898 899 900 901 901 901 903 904 907 910 913 919 923 927 932 935 0 0 0 0 0 0 0 1670 1676 1676 1681 1686 1686 1687 1687 1687 1687 1687 1686 1685 1685 1685 1684 1684 1683 1681 1679 1678 1677 1676 1674 1673 1671 1670 1667 1665 1663 1661 1659 1658 1655 1652 1648 1646 1644 1642 1639 1634 1632 1625 1623 1620 1616 1612 1607 1604 1600 1598 1596 1594 1591 1588 1585 1585 1583 1581 1578 1578 1574 1574 1574 1574 1574 1575 1579 1581 1583 1586 1590 1594 1599 1602 1603 1604 1606 1607 1609 1610 1610 1610 1610 1610 1610 1610 1609 1609 1608 1607 1606 1604 1602 1601 1601 1598 1596 1593 1590 1587 1584 1581 1579 1577 1576 1575 1575 1574 1574 1574 1572 1570 1570 1570 1572 1577 1581 1586 1590 1592 1597 1597 1598 1600 1603 1606 1608 1610 1610 1610 1612 1614 1616 1616 1617 1618 1619 1619 1619 1619 1620 1620 1620 1621 1621 1622 1622 1624 1624 1625 1626 1627 1633 1638 1641 1644 1654 1660 1663 1668 1669 1673 1676 1677 1680 1681 1683 1684 1686 1687 1690 1691 1692 1692 1693 1696 1699 1701 1701 1702 1704 1705 1708 1710 1713 1715 1718 1718 1718 1718 1718 1711 1700 1682 1678 1664 1652 1638 1625 1619 1617 1616 1616 1608 1597 1586 1575 1569 1564 1561 1560 1558 1552 1546 1538 1534 1531 1530 1525 1519 1516 1514 1514
2124 2124 2156 2160 2194 2241 2275 2292 2304 2320 2322 2335 2351 2370 2379 2384 2390 2415 2455 2489 2498 2501 2502 2512 2519 2519 2522 2522 2522 2536 2540 2556 2566 2580 2597 2620 2640 2644 2645 2648 2656 2665 2672 2691 2697 2714 2732 2747 2759 2770 2783 2799 2811 2814 2817 2824 2839 2851 2851 2853 2855 2856 2858 2866 2880 2897 2915 2927 2928 2931 2933 2933 2939 2950 2957 2960 2964 2973 2978 2981 2984 2991 2994 2996 3003 3011 3018 3027 3039 3045 3048 3052 3059 3061 3073 3078 3086 3095 3106 3112 3120 3125 3125 3125 3121 3120 3120 3120 3120 3126 3138 3151 3159 3163 3165 3170 3176 3176 3176 3176 3177 3177 3177 3180 3183 3188 3191 3194 3198 3202 3204 3204 3202 3205 3205 3208 3219 3229 3229 3229 3213 3201 3186 3171 3145 3096 2608 0 0 0 0 0 0 1229 1224 1220 1218 1207 1207 1207 1214 1216 1217 1218 1224 1226 1229 1230 1238 1240 1241 1243 1244 1244 1246 1249 1251 1259 1264 1277 1288 1288 1288 1288 1291 1291 1291 1291 1288 1284 1284 1284 1284 1284 1281 1277 1267 1257 1254 1248 1234 1227 1221 1220 1218 1213 1210 1207 1207 1205 1205 1203 1203 1203 1203 1203 1192 1173 1153 1129 1099 1077 1068 1058 1055 1050 1049 1048 1048 1047 1047 1046 1044 1043 1042 1041 1040 1039 1038 1037 1036 1035 1034 1034 1032 1031 1030 1030 1028 1027 1026 1025 1023 1022 1020 1019 1018 1017 1016 1015 1014 1013 1012 1011 1011 1010 1009 1008 1008 1007 1007 1006 1005 1004 1003 1002 1001 1000 1000 999 998 997 996 993 990 988 987 985 983 980 979 978 978 977 977 977 977 977 976 974 974 972 972 971 970 970 969 968 968 968 967 966 965 964 964 963 963 961 959 958 956 955 955 953 952 952 952 950 950 948 947 946 945 944 944 944 944 944 944 944 943 942 942 941 940 940 940 939 938 934 933 932 932 931 931 930 930 929 928 927 925 924 923 922 920 918 916 916 914 914 912 910 909 908 907 906 905 904 904 903 902 901 900 899 899 899 898 898 897 897 897 897 897 898 899 899 900 901 901 903 904 907 909 911 917 923 925 932 935 952 0 0 0 0 0 0 1652 1664 1670 1671 1677 1681 1682 1684 1686 1686 1686 1685 1685 1684 1684 1684 1683 1682 1680 1679 1678 1677 1676 1674 1673 1671 1670 1668 1666 1663 1662 1659 1658 1657 1655 1652 1649 1647 1645 1643 1640 1640 1636 1632 1630 1626 1622 1615 1610 1607 1603 1600 1598 1595 1592 1588 1587 1585 1583 1582 1578 1574 1574 1574 1573 1573 1573 1573 1573 1578 1580 1584 1585 1587 1588 1594 1598 1599 1603 1604 1604 1606 1607 1608 1609 1609 1609 1609 1608 1608 1607 1606 1605 1604 1603 1603 1602 1598 1594 1591 1589 1587 1584 1581 1579 1577 1575 1575 1574 1574 1574 1572 1570 1570 1570 1570 1573 1578 1581 1585 1589 1592 1593 1594 1597 1599 1604 1606 1607 1607 1608 1609 1612 1613 1615 1617 1617 1618 1618 1618 1619 1619 1619 1619 1619 1620 1620 1622 1623 1624 1624 1625 1626 1628 1635 1639 1641 1650 1657 1661 1664 1666 1668 1672 1674 1676 1679 1680 1681 1682 1685 1687 1689 1689 1690 1691 1693 1696 1697 1698 1698 1700 1703 1704 1705 1710 1715 1715 1715 1715 1713 1708 1700 1691 1675 1671 1655 1642 1631 1619 1612 1611 1611 1609 1602 1589 1580 1573 1567 1564 1560 1558 1556 1552 1546 1538 1533 1531 1527 1524 1519 1514 1514 1514
2092 2092 2129 2131 2169 2208 2257 2292 2304 2320 2322 2335 2351 2371 2380 2386 2400 2416 2455 2489 2501 2505 2506 2514 2519 2519 2520 2520 2520 2524 2533 2549 2566 2585 2606 2628 2645 2658 2662 2662 2663 2665 2672 2691 2699 2724 2746 2762 2763 2771 2785 2799 2811 2817 2820 2828 2841 2851 2853 2853 2855 2856 2859 2866 2882 2899 2916 2927 2934 2935 2937 2938 2947 2957 2961 2964 2969 2974 2979 2982 2986 2991 2994 2996 3003 3011 3019 3028 3040 3046 3053 3061 3071 3077 3080 3081 3087 3096 3107 3112 3121 3126 3126 3126 3126 3121 3120 3120 3120 3126 3140 3156 3163 3163 3167 3177 3184 3184 3184 3182 3181 3181 3181 3181 3184 3188 3191 3194 3200 3205 3205 3205 3205 3205 3205 3210 3219 3229 3229 3229 3213 3201 3186 3170 3143 3010 0 0 0 0 0 0 1245 1226 1224 1220 1208 1207 1207 1207 1214 1215 1215 1217 1219 1220 1224 1228 1231 1239 1239 1239 1240 1240 1246 1249 1251 1259 1263 1267 1270 1270 1279 1282 1284 1285 1285 1285 1285 1282 1282 1282 1281 1281 1280 1276 1267 1257 1247 1238 1229 1224 1219 1216 1211 1205 1202 1199 1199 1199 1199 1199 1199 1199 1198 1198 1177 1150 1129 1108 1086 1073 1064 1057 1053 1053 1051 1050 1049 1049 1049 1047 1045 1044 1043 1042 1041 1040 1040 1038 1037 1036 1036 1034 1033 1032 1031 1030 1029 1028 1028 1026 1025 1023 1022 1021 1019 1019 1017 1016 1015 1014 1013 1013 1012 1011 1010 1010 1009 1008 1007 1007 1006 1006 1004 1004 1002 1001 1000 1000 999 998 996 994 991 988 987 986 985 983 982 981 981 980 980 980 980 980 980 977 975 973 973 973 972 971 970 969 968 968 967 966 965 965 965 965 963 962 960 958 958 956 956 956 954 953 953 951 950 949 948 947 945 944 944 944 944 944 944 944 943 943 942 942 942 941 941 940 938 936 933 932 932 932 932 931 931 930 929 928 927 925 925 923 921 920 918 916 915 915 914 912 910 909 908 907 907 906 905 904 902 902 901 900 900 899 899 898 898 897 897 897 898 898 898 899 900 901 901 903 904 905 908 910 912 917 924 929 934 949 950 0 0 0 0 0 0 1652 1656 1665 1669 1673 1674 1680 1684 1684 1685 1684 1684 1683 1683 1683 1683 1682 1680 1679 1678 1677 1676 1674 1673 1671 1670 1668 1666 1663 1662 1661 1659 1658 1656 1654 1650 1647 1646 1645 1644 1642 1639 1637 1634 1631 1628 1623 1617 1613 1609 1606 1604 1599 1596 1594 1590 1589 1587 1585 1584 1582 1579 1575 1573 1573 1573 1573 1573 1573 1577 1579 1580 1582 1583 1585 1590 1591 1598 1601 1601 1602 1603 1606 1608 1609 1609 1609 1608 1608 1607 1606 1606 1605 1605 1604 1603 1600 1599 1595 1591 1589 1588 1584 1582 1579 1578 1576 1575 1574 1574 1572 1570 1569 1569 1569 1570 1574 1575 1579 1586 1590 1593 1593 1594 1597 1600 1603 1605 1605 1605 1607 1609 1612 1614 1615 1615 1615 1616 1616 1616 1617 1617 1617 1617 1618 1619 1620 1622 1623 1623 1624 1625 1627 1629 1634 1640 1648 1654 1658 1661 1662 1664 1667 1671 1673 1675 1676 1678 1681 1683 1685 1686 1687 1687 1689 1690 1692 1693 1694 1695 1696 1698 1700 1702 1702 1708 1708 1708 1708 1707 1697 1691 1679 1663 1647 1642 1631 1622 1612 1607 1605 1605 1601 1593 1583 1572 1566 1562 1561 1560 1558 1553 1547 1539 1535 1533 1531 1526 1520 1518 1514 1511 1511
2091 2091 2098 2104 2138 2177 2233 2272 2300 2311 2321 2334 2352 2371 2380 2386 2400 2416 2455 2489 2505 2516 2518 2519 2520 2520 2520 2520 2520 2524 2533 2547 2566 2589 2616 2637 2654 2666 2666 2666 2669 2670 2672 2691 2699 2727 2751 2762 2765 2772 2785 2799 2811 2817 2820 2832 2842 2851 2853 2853 2856 2859 2862 2866 2883 2904 2917 2929 2935 2937 2939 2943 2953 2961 2967 2968 2972 2977 2981 2985 2986 2993 3000 3004 3005 3011 3020 3031 3043 3051 3061 3069 3077 3080 3083 3085 3090 3096 3107 3112 3121 3127 3132 3132 3132 3126 3125 3125 3125 3134 3146 3158 3165 3169 3177 3185 3189 3191 3191 3191 3185 3184 3184 3184 3185 3188 3192 3195 3200 3205 3205 3205 3205 3205 3205 3211 3218 3226 3226 3226 3205 3191 3180 3170 3129 2847 0 0 0 0 0 1226 1223 1211 1211 1207 1203 1203 1203 1207 1214 1215 1215 1215 1219 1220 1224 1227 1227 1228 1228 1230 1235 1235 1237 1239 1239 1241 1249 1257 1262 1264 1274 1277 1278 1278 1279 1279 1280 1280 1279 1279 1278 1278 1277 1274 1266 1255 1247 1237 1226 1217 1209 1205 1202 1198 1195 1193 1193 1193 1193 1195 1195 1195 1193 1186 1160 1126 1115 1101 1082 1070 1064 1057 1053 1053 1052 1051 1051 1051 1050 1048 1047 1046 1044 1044 1043 1042 1040 1040 1039 1038 1037 1037 1035 1034 1033 1032 1030 1029 1029 1027 1026 1025 1023 1022 1021 1020 1019 1018 1016 1016 1015 1014 1013 1012 1011 1010 1010 1009 1009 1008 1008 1007 1005 1004 1004 1003 1002 1001 1000 999 997 994 992 990 988 987 986 985 984 984 984 984 984 984 984 982 982 980 977 976 975 974 973 973 971 969 969 968 967 967 967 967 966 965 964 962 960 959 958 958 956 956 955 954 953 951 950 950 949 947 946 944 944 944 944 944 944 944 944 944 943 943 942 941 941 940 938 937 935 934 934 933 933 932 932 932 929 928 927 926 925 924 923 920 919 918 917 915 914 913 911 910 909 908 907 906 905 905 904 902 902 901 900 900 899 899 898 898 898 898 898 898 899 899 900 901 901 902 904 905 907 910 911 911 917 929 934 936 946 0 0 0 0 0 0 0 1647 1657 1663 1667 1668 1673 1682 1682 1682 1683 1682 1682 1682 1681 1681 1680 1680 1679 1678 1677 1676 1674 1673 1671 1670 1668 1666 1663 1662 1661 1659 1658 1657 1656 1653 1650 1648 1647 1646 1644 1643 1639 1637 1634 1632 1628 1625 1620 1616 1613 1610 1606 1602 1598 1596 1594 1591 1589 1588 1586 1583 1579 1575 1573 1573 1573 1573 1573 1573 1574 1574 1576 1579 1580 1583 1587 1588 1594 1596 1598 1601 1603 1605 1608 1608 1608 1608 1608 1607 1606 1606 1606 1605 1605 1604 1602 1600 1599 1596 1592 1590 1588 1585 1582 1580 1579 1576 1574 1574 1572 1571 1569 1569 1569 1570 1571 1572 1575 1582 1588 1591 1592 1592 1594 1597 1600 1601 1603 1603 1605 1608 1610 1612 1613 1613 1614 1614 1614 1614 1615 1615 1615 1616 1616 1618 1619 1619 1620 1621 1622 1625 1626 1628 1633 1638 1643 1650 1656 1658 1659 1661 1664 1667 1670 1673 1676 1677 1679 1680 1682 1683 1684 1685 1685 1686 1689 1690 1691 1692 1693 1694 1694 1696 1697 1698 1702 1702 1702 1685 1679 1673 1662 1643 1631 1627 1620 1614 1605 1597 1592 1590 1588 1582 1573 1564 1559 1554 1552 1551 1549 1545 1538 1536 1534 1532 1530 1526 1520 1517 1514 1509 1509
2087 2087 2093 2104 2130 2163 2216 2256 2289 2306 2320 2333 2351 2371 2380 2386 2400 2416 2435 2470 2505 2518 2534 2534 2534 2529 2520 2520 2520 2524 2533 2547 2566 2603 2633 2654 2665 2669 2670 2672 2673 2675 2681 2692 2702 2728 2751 2762 2767 2773 2787 2799 2811 2817 2820 2832 2842 2848 2851 2852 2853 2856 2866 2876 2889 2905 2918 2929 2934 2937 2943 2949 2955 2962 2967 2969 2973 2978 2982 2985 2992 3003 3012 3013 3014 3019 3028 3042 3053 3062 3070 3075 3077 3083 3083 3089 3095 3100 3108 3112 3120 3127 3135 3135 3135 3134 3134 3134 3136 3144 3152 3163 3171 3176 3183 3186 3192 3193 3193 3193 3188 3185 3185 3185 3185 3189 3192 3195 3200 3210 3210 3210 3207 3207 3207 3211 3217 3217 3217 3210 3188 3174 3172 3158 3043 2671 0 0 0 0 0 1220 1211 1210 1210 1207 1203 1203 1203 1213 1213 1213 1213 1213 1213 1214 1215 1216 1217 1218 1220 1225 1227 1228 1229 1231 1231 1238 1247 1252 1257 1260 1263 1266 1272 1274 1276 1276 1277 1277 1276 1276 1274 1272 1271 1270 1266 1254 1246 1235 1219 1212 1205 1200 1195 1191 1188 1188 1188 1189 1189 1189 1186 1180 1175 1159 1114 1101 1092 1087 1072 1069 1061 1057 1055 1055 1053 1053 1053 1051 1050 1048 1048 1047 1046 1045 1044 1042 1042 1040 1040 1039 1039 1038 1036 1035 1034 1033 1032 1031 1030 1028 1027 1026 1024 1024 1023 1021 1020 1019 1018 1017 1017 1015 1014 1013 1012 1012 1011 1011 1010 1009 1009 1007 1007 1005 1005 1004 1003 1002 1001 999 998 995 993 991 991 989 988 985 985 985 985 985 987 987 987 986 984 981 980 978 978 976 974 974 973 972 970 969 969 968 968 968 967 965 964 963 962 960 959 958 957 956 955 954 953 953 952 951 949 948 946 945 945 945 945 944 944 944 944 944 943 943 942 942 941 941 939 937 937 936 935 934 933 933 933 932 931 928 928 927 926 924 924 921 919 918 917 916 915 913 912 910 910 909 908 907 906 905 904 903 903 902 901 901 900 900 899 899 899 899 899 899 899 899 900 901 901 902 903 904 907 909 909 910 914 920 931 932 934 951 0 0 0 0 0 0 1633 1649 1663 1665 1666 1666 1670 1678 1680 1681 1681 1681 1680 1679 1677 1677 1677 1677 1677 1677 1676 1674 1673 1671 1670 1668 1666 1664 1662 1661 1659 1658 1657 1656 1655 1654 1651 1649 1647 1646 1643 1642 1638 1635 1633 1631 1628 1626 1624 1623 1620 1615 1611 1605 1600 1599 1596 1593 1591 1589 1586 1582 1579 1577 1576 1575 1574 1574 1573 1573 1573 1573 1573 1576 1579 1581 1583 1584 1587 1592 1598 1600 1602 1605 1607 1607 1607 1607 1606 1606 1606 1605 1605 1605 1604 1602 1600 1600 1599 1597 1593 1590 1588 1586 1584 1581 1579 1577 1574 1572 1572 1571 1570 1570 1570 1570 1572 1572 1577 1583 1587 1589 1591 1591 1594 1597 1599 1600 1601 1602 1606 1607 1609 1610 1611 1612 1612 1612 1613 1613 1613 1613 1614 1615 1616 1617 1618 1618 1619 1620 1622 1624 1628 1631 1634 1639 1644 1651 1656 1657 1659 1661 1665 1668 1672 1673 1675 1675 1678 1679 1680 1681 1681 1681 1682 1686 1688 1689 1689 1689 1689 1689 1689 1689 1690 1690 1690 1676 1668 1666 1658 1643 1631 1623 1619 1610 1606 1600 1586 1577 1573 1572 1568 1567 1562 1553 1550 1544 1542 1539 1539 1538 1534 1533 1532 1529 1524 1519 1518 1514 1509 1509
2082 2082 2088 2102 2130 2163 2197 2235 2287 2303 2318 2331 2351 2367 2376 2381 2389 2401 2419 2447 2481 2518 2538 2538 2538 2536 2531 2531 2531 2535 2537 2547 2580 2619 2649 2670 2677 2677 2677 2682 2682 2683 2689 2694 2709 2731 2752 2764 2768 2775 2790 2807 2813 2817 2821 2832 2842 2846 2848 2851 2851 2856 2871 2885 2898 2912 2925 2929 2934 2941 2944 2950 2957 2963 2968 2971 2974 2978 2984 2988 2996 3008 3020 3022 3024 3028 3040 3054 3065 3073 3078 3078 3080 3083 3087 3094 3102 3107 3111 3115 3120 3129 3135 3137 3138 3138 3139 3141 3144 3155 3159 3167 3173 3179 3184 3188 3193 3195 3195 3195 3190 3190 3190 3190 3192 3192 3192 3195 3200 3211 3219 3219 3219 3212 3212 3212 3211 3211 3205 3188 3172 3155 3146 3072 2883 0 0 0 0 0 1222 1213 1210 1209 1209 1209 1209 1214 1214 1214 1214 1212 1212 1212 1212 1212 1213 1214 1214 1214 1215 1217 1220 1222 1223 1224 1230 1237 1243 1248 1257 1259 1261 1265 1268 1271 1272 1273 1273 1274 1274 1274 1273 1272 1268 1267 1265 1254 1244 1231 1218 1211 1204 1197 1193 1190 1187 1184 1182 1182 1180 1180 1177 1170 1158 1134 1106 1092 1089 1078 1071 1067 1061 1058 1057 1056 1055 1055 1053 1051 1051 1049 1048 1048 1048 1046 1046 1044 1043 1042 1041 1040 1040 1039 1037 1036 1035 1034 1034 1032 1031 1029 1029 1027 1026 1025 1024 1022 1022 1020 1019 1018 1018 1017 1015 1015 1014 1013 1012 1011 1011 1010 1010 1009 1008 1007 1005 1005 1004 1002 1001 1000 999 996 994 994 993 992 989 987 987 987 987 988 989 989 989 986 985 984 982 981 979 977 976 975 975 973 972 971 969 969 969 968 967 966 964 963 962 961 960 959 958 957 957 956 955 953 953 951 950 948 947 946 946 945 945 945 945 945 945 945 944 944 944 943 943 941 940 939 938 937 936 935 934 934 934 932 931 930 928 928 926 925 925 922 920 919 918 917 916 914 914 912 911 910 909 908 907 906 905 904 904 903 902 901 901 901 900 900 900 900 899 899 899 900 900 900 901 902 903 904 905 905 906 908 912 918 924 930 930 936 958 0 0 0 0 0 0 1631 1652 1662 1664 1664 1668 1670 1671 1675 1675 1676 1676 1676 1677 1677 1676 1676 1676 1676 1675 1673 1673 1671 1670 1668 1666 1663 1662 1661 1659 1658 1657 1656 1655 1654 1651 1650 1648 1646 1644 1642 1639 1638 1635 1633 1630 1628 1627 1624 1621 1617 1612 1609 1606 1604 1601 1598 1596 1594 1590 1588 1584 1581 1579 1578 1577 1575 1574 1573 1570 1570 1570 1570 1572 1574 1578 1578 1580 1582 1588 1593 1594 1597 1599 1600 1603 1603 1603 1604 1604 1604 1604 1604 1603 1602 1601 1600 1599 1598 1597 1595 1592 1589 1586 1584 1582 1579 1577 1574 1572 1571 1571 1570 1570 1570 1571 1572 1575 1578 1583 1586 1587 1589 1591 1594 1597 1598 1599 1601 1604 1606 1608 1608 1609 1609 1610 1610 1610 1610 1611 1612 1612 1613 1614 1616 1617 1617 1618 1619 1620 1624 1627 1630 1633 1635 1638 1642 1649 1653 1656 1658 1662 1667 1669 1670 1672 1673 1674 1676 1676 1677 1678 1678 1679 1682 1685 1685 1685 1685 1685 1684 1682 1682 1682 1682 1682 1660 1648 1642 1636 1635 1627 1605 1594 1589 1584 1581 1574 1566 1566 1563 1562 1560 1557 1549 1538 1535 1533 1532 1532 1532 1531 1531 1531 1529 1524 1519 1518 1516 1509 1509
2077 2077 2078 2087 2115 2163 2196 2235 2270 2288 2303 2321 2348 2364 2365 2372 2374 2387 2405 2438 2479 2516 2538 2538 2538 2536 2536 2536 2541 2545 2553 2569 2598 2635 2658 2675 2683 2684 2686 2684 2686 2689 2690 2695 2710 2731 2752 2764 2768 2780 2795 2811 2816 2817 2821 2827 2834 2843 2847 2851 2851 2859 2873 2885 2904 2918 2933 2934 2935 2941 2944 2951 2960 2965 2971 2971 2976 2982 2988 2993 3002 3014 3031 3034 3035 3037 3047 3059 3066 3076 3078 3078 3081 3083 3090 3098 3108 3115 3119 3121 3122 3130 3135 3135 3138 3140 3144 3146 3155 3162 3167 3172 3175 3179 3185 3189 3194 3195 3195 3195 3195 3195 3195 3202 3202 3202 3200 3200 3200 3211 3222 3222 3222 3222 3212 3211 3205 3194 3177 3164 3150 3139 3071 2990 2864 0 0 0 0 0 1230 1218 1213 1209 1209 1209 1215 1215 1215 1214 1212 1211 1210 1210 1210 1210 1212 1212 1212 1212 1214 1214 1216 1217 1219 1220 1225 1235 1240 1242 1247 1255 1260 1261 1267 1268 1269 1269 1269 1271 1271 1271 1271 1270 1267 1266 1264 1254 1243 1228 1217 1209 1200 1194 1189 1185 1181 1180 1180 1180 1180 1177 1169 1155 1140 1112 1103 1092 1084 1077 1067 1063 1061 1061 1059 1057 1056 1056 1053 1052 1052 1050 1050 1050 1049 1048 1046 1046 1044 1044 1043 1042 1040 1039 1038 1037 1037 1036 1034 1033 1032 1031 1029 1029 1027 1027 1025 1024 1022 1022 1020 1020 1019 1018 1016 1016 1016 1015 1013 1013 1013 1011 1011 1011 1009 1007 1007 1006 1005 1004 1002 1001 1000 997 995 994 994 993 989 988 988 988 989 990 990 990 989 987 985 984 983 981 980 978 978 977 976 974 973 972 971 970 970 969 968 967 966 965 963 962 962 960 960 958 957 957 956 954 953 951 950 949 948 947 946 946 946 946 946 946 946 946 946 946 945 945 945 945 942 940 939 938 936 936 935 935 935 934 933 931 929 928 927 926 925 923 921 919 918 918 917 915 914 913 912 911 910 909 908 907 906 905 904 904 903 903 902 901 900 900 900 900 900 900 900 900 900 900 901 901 902 903 904 904 906 906 910 916 917 917 926 928 945 957 0 0 0 0 0 0 1645 1651 1659 1659 1662 1667 1667 1668 1672 1674 1676 1676 1676 1676 1676 1676 1674 1672 1672 1671 1671 1670 1669 1667 1665 1663 1662 1660 1659 1657 1657 1656 1655 1654 1651 1650 1648 1646 1644 1642 1640 1638 1636 1635 1632 1631 1629 1626 1624 1622 1618 1615 1612 1610 1607 1605 1603 1600 1595 1592 1589 1586 1583 1582 1581 1578 1575 1573 1570 1570 1569 1569 1569 1569 1572 1576 1576 1577 1578 1582 1587 1588 1591 1592 1594 1598 1601 1602 1603 1603 1603 1603 1603 1602 1601 1600 1600 1599 1598 1598 1595 1592 1589 1588 1585 1582 1579 1577 1575 1572 1571 1571 1571 1571 1571 1572 1573 1575 1578 1582 1585 1588 1590 1592 1595 1596 1598 1600 1603 1604 1606 1607 1608 1608 1608 1609 1609 1609 1610 1610 1612 1612 1614 1615 1616 1617 1617 1618 1620 1622 1626 1629 1631 1632 1633 1636 1643 1649 1653 1655 1659 1661 1666 1668 1669 1669 1670 1671 1675 1675 1676 1676 1676 1679 1679 1679 1679 1678 1677 1677 1672 1672 1672 1669 1667 1656 1623 1622 1621 1618 1611 1600 1587 1582 1573 1570 1566 1565 1563 1563 1560 1558 1552 1543 1535 1530 1529 1529 1529 1528 1527 1527 1527 1526 1524 1519 1518 1516 1510 1510
2055 2059 2055 2059 2059 0 2195 2224 2252 2277 2287 2302 2325 2352 2356 2367 2370 2380 2393 2417 2469 2508 2537 2537 2537 2536 2536 2536 2541 2556 2569 2586 2605 2635 2658 2675 2687 2687 2688 2687 2689 2689 2694 2698 2712 2732 2755 2764 2774 2789 2803 2814 2816 2817 2821 2827 2833 2839 2843 2849 2852 2860 2877 2892 2907 2925 2939 2939 2941 2944 2944 2951 2962 2971 2978 2982 2986 2989 2999 3000 3007 3021 3035 3041 3042 3046 3053 3059 3067 3079 3081 3082 3084 3086 3095 3104 3109 3115 3121 3127 3133 3134 3135 3135 3138 3143 3148 3153 3161 3170 3173 3174 3175 3179 3185 3194 3198 3198 3198 3198 3198 3198 3201 3207 3207 3207 3200 3200 3200 3211 3222 3222 3222 3222 3212 3207 3185 3163 3134 3126 3120 3058 2998 2876 0 0 0 0 0 1237 1230 1218 1210 1210 1210 1215 1216 1216 1215 1213 1212 1210 1208 1208 1208 1208 1209 1209 1209 1210 1210 1211 1211 1213 1213 1216 1224 1233 1236 1239 1244 1249 1254 1257 1264 1266 1267 1267 1267 1269 1269 1269 1268 1267 1262 1258 1257 1246 1234 1220 1207 1198 1192 1190 1184 1180 1179 1179 1177 1177 1176 1166 1157 1144 1126 1106 1100 1091 1082 1077 1067 1064 1063 1062 1062 1060 1058 1058 1055 1054 1052 1052 1052 1051 1050 1049 1048 1046 1046 1045 1044 1042 1042 1040 1039 1038 1037 1036 1035 1034 1033 1032 1030 1030 1028 1027 1026 1025 1024 1023 1022 1021 1020 1019 1018 1018 1017 1016 1015 1014 1014 1013 1012 1011 1010 1009 1008 1007 1005 1005 1004 1003 1002 999 997 995 995 994 992 991 990 990 990 990 990 990 989 987 985 985 984 983 981 980 979 978 977 975 974 973 972 971 971 970 968 968 967 966 964 963 962 962 961 960 959 958 956 955 954 953 952 950 950 948 947 947 947 947 947 947 947 946 946 947 947 946 946 946 944 941 939 938 937 936 935 935 935 935 933 931 930 929 927 926 925 923 922 921 919 918 917 916 914 913 912 912 911 910 909 908 907 906 905 904 904 903 903 902 902 902 901 901 900 900 900 900 900 900 901 901 901 902 903 904 905 906 909 913 913 913 919 925 936 948 969 0 0 0 0 0 0 1643 1649 1650 1655 1662 1662 1662 1663 1669 1669 1669 1671 1671 1671 1671 1671 1671 1669 1668 1668 1667 1667 1666 1665 1663 1660 1659 1657 1657 1656 1655 1654 1652 1651 1649 1647 1646 1644 1642 1640 1638 1636 1635 1633 1632 1630 1628 1627 1624 1622 1620 1617 1615 1613 1611 1610 1607 1602 1599 1594 1590 1587 1585 1582 1580 1578 1576 1573 1572 1570 1569 1568 1568 1568 1569 1570 1570 1572 1576 1577 1579 1584 1588 1590 1595 1597 1601 1603 1603 1603 1602 1602 1602 1602 1602 1601 1600 1600 1599 1597 1596 1594 1591 1588 1584 1581 1578 1575 1573 1571 1571 1571 1571 1571 1571 1572 1574 1577 1580 1583 1587 1589 1590 1593 1594 1596 1599 1600 1602 1603 1605 1606 1606 1607 1607 1608 1608 1608 1609 1610 1611 1613 1614 1615 1616 1616 1618 1619 1622 1624 1626 1628 1630 1631 1633 1638 1645 1650 1653 1655 1657 1660 1665 1665 1665 1666 1668 1670 1671 1672 1673 1674 1674 1674 1674 1673 1671 1671 1666 1663 1662 1661 1661 1649 1632 1620 1619 1614 1611 1602 1592 1581 1577 1571 1566 1564 1563 1562 1561 1560 1554 1546 1539 1533 1527 1524 1524 1523 1523 1523 1523 1524 1524 1524 1519 1518 1514 1510 1510
2055 2059 2055 2059 2059 0 2192 2212 2239 2257 2273 2297 2325 2349 2353 2365 2369 2379 2388 2403 2448 2489 2518 2519 2524 2525 2525 2527 2541 2556 2569 2586 2605 2635 2658 2675 2689 2698 2698 2698 2695 2695 2695 2701 2717 2735 2759 2771 2783 2795 2807 2814 2816 2817 2822 2827 2833 2837 2840 2844 2854 2877 2892 2906 2922 2934 2947 2951 2951 2951 2951 2951 2962 2974 2983 2989 2993 2999 3004 3011 3017 3027 3036 3047 3047 3053 3057 3059 3067 3079 3081 3082 3084 3087 3097 3105 3109 3115 3121 3127 3134 3134 3135 3135 3138 3143 3151 3157 3166 3171 3173 3174 3175 3179 3185 3194 3198 3200 3201 3201 3201 3202 3203 3209 3209 3209 3206 3199 3199 3199 3207 3215 3215 3215 3207 3180 3142 3097 3059 3057 2748 2693 2617 0 0 0 0 0 0 1230 1229 1218 1210 1210 1210 1214 1214 1214 1213 1213 1211 1209 1207 1207 1207 1207 1207 1207 1207 1207 1208 1208 1208 1209 1212 1215 1220 1227 1233 1237 1241 1245 1249 1253 1261 1262 1262 1264 1267 1267 1267 1267 1267 1266 1260 1254 1248 1236 1229 1211 1195 1195 1192 1187 1181 1178 1174 1170 1168 1164 1158 1155 1148 1131 1106 1103 1097 1088 1080 1077 1071 1067 1067 1064 1064 1062 1060 1059 1057 1056 1054 1054 1053 1052 1051 1050 1050 1049 1047 1046 1045 1043 1042 1042 1040 1040 1038 1037 1036 1035 1034 1033 1032 1030 1030 1029 1028 1026 1026 1024 1023 1022 1021 1020 1020 1019 1018 1017 1017 1016 1015 1014 1014 1012 1011 1010 1009 1009 1008 1007 1005 1004 1003 1001 999 998 995 994 993 993 991 991 991 991 990 990 989 987 985 985 984 983 982 980 979 978 977 976 975 974 973 972 971 971 969 968 968 966 965 964 964 962 962 961 959 958 957 956 955 954 953 951 950 949 949 949 948 948 948 948 948 948 948 948 948 947 947 946 945 942 941 938 938 938 938 938 937 936 934 933 932 930 928 927 926 924 922 921 920 919 918 917 915 914 913 912 912 910 910 909 908 907 906 905 905 904 904 903 903 902 901 901 901 901 901 901 901 901 901 901 901 902 902 904 904 905 907 910 911 912 915 921 931 939 944 968 0 0 0 0 0 0 1628 1637 1642 1653 1656 1657 1659 1661 1663 1663 1665 1665 1665 1666 1667 1667 1667 1666 1664 1664 1663 1663 1663 1662 1660 1658 1657 1656 1656 1655 1653 1651 1650 1648 1647 1645 1644 1642 1640 1638 1636 1635 1633 1632 1630 1629 1627 1625 1624 1622 1620 1618 1617 1615 1612 1610 1606 1602 1598 1594 1592 1589 1586 1582 1579 1577 1574 1573 1572 1570 1568 1567 1567 1567 1567 1568 1568 1568 1571 1573 1576 1580 1587 1588 1593 1600 1602 1602 1602 1601 1601 1601 1601 1602 1602 1601 1600 1600 1598 1598 1596 1594 1590 1586 1583 1580 1577 1574 1572 1571 1571 1571 1571 1572 1572 1573 1575 1577 1580 1585 1587 1588 1590 1592 1595 1596 1598 1600 1601 1603 1603 1604 1604 1605 1606 1607 1607 1609 1609 1610 1611 1613 1614 1615 1616 1617 1619 1621 1624 1625 1626 1630 1631 1633 1636 1642 1646 1649 1651 1653 1655 1660 1662 1663 1664 1664 1667 1669 1669 1669 1669 1671 1671 1671 1669 1667 1666 1663 1658 1654 1643 1636 1631 1622 1614 1614 1612 1606 1598 1590 1578 1566 1563 1561 1561 1561 1561 1561 1552 1545 1541 1536 1530 1524 1519 1517 1514 1514 1514 1514 1521 1521 1521 1519 1518 1514 1510 1510
2055 2059 2055 2059 0 0 2192 2212 2239 2257 2273 2297 2325 2349 2353 2365 2369 2379 2388 2402 2432 2466 2488 2498 2501 2502 2513 2516 2534 2556 2569 2586 2605 2625 2642 2660 2689 2704 2704 2708 2708 2706 2706 2708 2720 2743 2767 2781 2792 2801 2810 2814 2814 2817 2823 2828 2833 2837 2839 2844 2855 2877 2899 2915 2925 2941 2947 2951 2951 2952 2954 2954 2963 2976 2986 2991 2997 3004 3007 3014 3020 3032 3040 3047 3050 3058 3059 3060 3067 3079 3082 3083 3084 3087 3099 3105 3111 3118 3122 3127 3134 3135 3136 3137 3141 3145 3152 3161 3167 3171 3175 3177 3177 3180 3187 3195 3200 3201 3201 3201 3202 3203 3203 3210 3210 3210 3206 3200 3193 3193 3193 3193 3192 3192 3184 3141 3062 3002 2904 0 0 0 0 0 0 0 0 0 0 1230 1229 1218 1210 1210 1210 1212 1212 1212 1212 1211 1209 1207 1205 1205 1205 1204 1204 1204 1204 1204 1204 1205 1206 1208 1209 1211 1217 1222 1226 1232 1238 1241 1245 1249 1258 1261 1261 1262 1264 1264 1265 1265 1264 1262 1258 1251 1242 1233 1222 1209 1194 1190 1188 1186 1181 1175 1169 1164 1159 1153 1151 1150 1136 1110 1105 1099 1097 1087 1082 1078 1075 1072 1068 1067 1065 1062 1061 1060 1059 1058 1057 1055 1055 1054 1053 1051 1050 1050 1049 1047 1046 1045 1044 1043 1042 1041 1040 1038 1037 1036 1034 1033 1032 1032 1031 1030 1028 1027 1027 1026 1024 1023 1022 1022 1021 1020 1019 1018 1018 1016 1016 1015 1015 1014 1013 1011 1010 1009 1008 1007 1006 1005 1004 1002 1000 999 998 998 998 997 995 993 993 991 991 990 989 987 986 986 985 983 982 981 980 979 977 976 975 975 974 972 972 971 970 970 969 967 966 965 964 964 963 962 960 960 959 958 956 955 954 953 952 951 950 950 950 950 949 949 949 950 950 950 949 948 947 946 945 943 942 941 940 940 939 939 938 937 935 933 933 930 928 928 926 924 923 922 921 919 918 917 917 915 915 913 913 911 911 910 909 907 906 906 905 905 904 904 904 903 902 902 902 901 901 901 901 901 901 901 901 902 902 904 904 904 907 909 910 911 913 918 926 936 941 950 957 0 0 0 0 0 1603 1625 1625 1635 1646 1650 1653 1656 1660 1660 1660 1660 1661 1663 1664 1664 1664 1664 1662 1661 1661 1660 1659 1658 1657 1656 1656 1654 1654 1653 1652 1650 1648 1646 1644 1643 1642 1641 1640 1637 1635 1634 1633 1632 1630 1629 1627 1625 1624 1623 1621 1619 1617 1615 1614 1612 1609 1607 1603 1600 1598 1595 1590 1586 1583 1580 1577 1575 1572 1571 1569 1569 1568 1567 1567 1566 1566 1565 1565 1565 1572 1575 1579 1583 1585 1586 1587 1593 1595 1596 1598 1600 1601 1602 1602 1601 1601 1600 1599 1598 1598 1596 1594 1592 1587 1583 1579 1577 1575 1573 1572 1571 1571 1572 1572 1573 1574 1575 1578 1580 1584 1587 1588 1590 1592 1594 1595 1597 1599 1600 1601 1601 1602 1603 1605 1605 1607 1607 1608 1609 1610 1612 1614 1614 1615 1617 1619 1620 1622 1625 1626 1627 1630 1633 1636 1639 1643 1645 1648 1651 1653 1657 1660 1662 1663 1663 1664 1666 1667 1667 1668 1668 1668 1668 1668 1666 1665 1657 1653 1640 1635 1630 1623 1614 1611 1610 1608 1602 1582 1570 1559 1545 1543 1543 1543 1546 1546 1546 1540 1533 1529 1529 1527 1524 1519 1517 1511 1510 1510 1510 1514 1515 1515 1515 1508 1507 1507 1507
2080 2080 2092 0 0 0 2192 2212 2239 2257 2273 2297 2325 2349 2353 2367 2370 2379 2388 2402 2432 2440 2454 2467 2474 2492 2503 2505 2518 2535 2550 2571 2593 2624 2631 2653 2689 2704 2716 2717 2717 2720 2720 2721 2733 2758 2776 2786 2795 2802 2811 2811 2814 2817 2823 2829 2833 2837 2839 2843 2855 2878 2899 2918 2932 2941 2947 2951 2951 2952 2954 2954 2965 2977 2986 2994 3004 3007 3011 3016 3025 3032 3040 3045 3050 3059 3060 3067 3067 3079 3082 3084 3086 3087 3099 3105 3111 3118 3122 3128 3134 3137 3138 3141 3141 3146 3154 3162 3167 3173 3175 3177 3177 3180 3188 3195 3201 3201 3202 3204 3206 3209 3212 3212 3212 3212 3206 3201 3193 3193 3180 3178 3176 3172 3162 3113 2897 2623 0 0 0 0 0 0 0 0 0 0 0 1239 1229 1228 1217 1217 1216 1216 1216 1212 1210 1210 1208 1207 1205 1204 1204 1204 1203 1201 1201 1201 1201 1202 1203 1205 1206 1207 1209 1217 1221 1227 1234 1238 1240 1248 1253 1259 1260 1261 1264 1264 1264 1264 1263 1261 1255 1245 1228 1226 1212 1199 1191 1189 1185 1180 1176 1170 1164 1155 1147 1146 1144 1136 1119 1109 1101 1099 1091 1085 1084 1079 1078 1073 1069 1068 1066 1064 1062 1061 1061 1059 1058 1057 1057 1055 1054 1053 1051 1051 1049 1049 1047 1047 1045 1044 1043 1042 1041 1039 1039 1037 1035 1034 1034 1032 1031 1030 1029 1029 1027 1026 1026 1025 1024 1023 1022 1022 1020 1019 1019 1018 1017 1017 1016 1015 1014 1013 1012 1010 1009 1008 1007 1006 1005 1003 1002 1001 1000 1000 1000 999 998 996 994 993 992 990 989 988 988 987 986 984 983 983 981 981 979 978 976 975 974 972 972 972 970 970 969 968 967 966 965 965 963 962 961 961 960 959 958 956 955 955 953 953 953 952 952 952 951 951 951 951 950 950 950 948 946 946 945 945 943 942 941 941 940 939 938 937 935 934 933 931 928 928 927 925 925 923 922 921 920 918 918 916 915 914 913 913 912 911 910 908 908 907 906 906 905 905 904 904 903 903 903 902 902 901 901 901 901 901 901 902 902 902 903 904 906 909 910 910 913 915 922 931 941 941 948 0 0 0 0 0 0 1603 1611 1615 1633 1640 1644 1652 1657 1659 1660 1660 1660 1660 1660 1660 1659 1659 1659 1659 1658 1657 1657 1655 1654 1654 1652 1651 1651 1650 1649 1648 1645 1645 1642 1641 1641 1640 1638 1637 1635 1634 1633 1631 1630 1629 1627 1625 1624 1623 1621 1619 1617 1616 1615 1613 1611 1608 1607 1604 1602 1599 1595 1592 1590 1585 1581 1577 1575 1574 1573 1572 1569 1568 1567 1566 1565 1564 1563 1563 1563 1569 1575 1579 1580 1581 1582 1584 1590 1594 1595 1596 1600 1601 1601 1601 1601 1600 1600 1599 1598 1597 1596 1594 1592 1587 1583 1580 1577 1576 1574 1573 1572 1572 1572 1573 1573 1575 1575 1577 1580 1584 1586 1589 1590 1593 1594 1595 1597 1598 1599 1600 1601 1601 1603 1604 1606 1606 1607 1608 1609 1611 1613 1614 1615 1616 1618 1620 1622 1624 1626 1627 1629 1632 1636 1639 1642 1645 1647 1649 1651 1655 1659 1660 1662 1663 1663 1665 1665 1666 1667 1667 1667 1667 1667 1664 1658 1655 1645 1639 1629 1621 1612 1606 1602 1598 1595 1589 1579 1567 1547 1532 1532 1532 1533 1541 1541 1541 1534 1528 1526 1525 1525 1523 1519 1514 1511 1508 1508 1508 1509 1509 1509 1504 1504 1504 1505 1505
2127 2127 2149 0 0 0 2210 2243 2268 2292 2317 2337 2355 2360 2368 2369 2374 2394 2400 2402 2432 2440 2454 2467 2474 2492 2503 2505 2518 2535 2550 2571 2593 2616 2631 2652 2684 2704 2716 2717 2721 2721 2722 2729 2749 2764 2776 2786 2795 2802 2810 2811 2811 2817 2823 2830 2833 2837 2839 2841 2855 2880 2900 2920 2932 2941 2947 2952 2952 2952 2953 2954 2965 2977 2986 2994 3009 3018 3019 3023 3028 3034 3040 3045 3050 3059 3069 3069 3069 3082 3084 3085 3088 3089 3099 3105 3111 3117 3122 3128 3134 3137 3141 3142 3142 3146 3155 3163 3169 3174 3175 3180 3183 3185 3190 3199 3203 3204 3206 3207 3219 3219 3219 3218 3212 3204 3201 3200 3200 3193 3180 3158 3148 3133 3031 2711 0 0 0 0 0 0 0 0 0 0 0 0 1254 1241 1229 1226 1218 1218 1217 1214 1214 1212 1210 1210 1208 1207 1205 1204 1204 1202 1200 1200 1200 1200 1200 1201 1201 1201 1202 1202 1203 1208 1217 1220 1227 1234 1239 1248 1253 1257 1260 1261 1263 1263 1263 1263 1262 1260 1250 1229 1224 1213 1202 1193 1185 1182 1173 1170 1168 1165 1159 1152 1142 1141 1137 1124 1112 1103 1100 1096 1090 1085 1084 1081 1078 1073 1072 1070 1068 1066 1065 1063 1063 1062 1060 1059 1057 1056 1054 1054 1053 1052 1051 1050 1049 1047 1046 1045 1044 1043 1041 1040 1040 1038 1036 1035 1034 1033 1032 1031 1031 1030 1029 1028 1027 1026 1025 1024 1024 1023 1022 1021 1020 1020 1018 1017 1017 1016 1015 1013 1012 1011 1010 1009 1007 1007 1006 1004 1003 1002 1001 1000 1000 999 999 996 996 994 993 993 991 991 989 989 987 985 984 983 982 981 980 979 977 976 975 974 973 972 972 971 970 969 968 967 967 966 965 964 963 962 962 960 959 959 957 956 954 954 954 954 953 953 953 952 952 952 952 951 950 948 946 946 945 945 944 943 942 941 940 939 938 937 936 934 933 931 929 928 927 926 925 924 923 922 920 919 918 918 917 915 914 914 913 913 912 911 910 909 908 907 907 906 905 904 904 904 903 902 902 902 902 901 901 901 901 901 902 902 903 904 904 906 909 910 911 912 913 918 923 936 948 957 0 0 0 0 0 0 1589 1600 1613 1626 1634 1640 1647 1652 1653 1654 1654 1656 1656 1656 1656 1656 1655 1654 1654 1654 1652 1651 1650 1650 1650 1648 1648 1647 1645 1644 1643 1642 1640 1639 1638 1637 1636 1636 1634 1633 1632 1630 1629 1627 1626 1625 1624 1623 1621 1619 1617 1616 1615 1613 1611 1609 1608 1607 1605 1601 1599 1597 1595 1591 1588 1583 1579 1577 1576 1573 1572 1569 1568 1566 1565 1564 1562 1562 1562 1562 1565 1571 1572 1575 1577 1578 1581 1588 1593 1594 1597 1601 1601 1601 1601 1601 1600 1600 1599 1599 1597 1595 1594 1592 1589 1584 1581 1579 1577 1575 1573 1573 1573 1573 1573 1574 1574 1574 1578 1581 1583 1586 1588 1590 1592 1593 1595 1597 1597 1598 1600 1600 1602 1603 1604 1605 1605 1606 1609 1610 1611 1613 1614 1616 1618 1620 1622 1623 1625 1626 1628 1632 1635 1638 1641 1644 1647 1648 1651 1653 1657 1659 1661 1662 1662 1662 1663 1664 1665 1665 1665 1664 1664 1658 1649 1647 1635 1628 1623 1614 1606 1598 1595 1584 1580 1576 1569 1556 1546 1528 1526 1526 1526 1532 1532 1532 1532 1526 1525 1524 1522 1522 1515 1511 1510 1507 1505 1505 1505 1504 1504 1504 1504 1504 1504 1504
2178 2178 2200 2228 2242 2253 2259 2282 2308 2334 2357 2371 2376 2387 2390 2392 2405 2435 2435 2436 2436 2440 2454 2467 2474 2492 2503 2505 2518 2535 2550 2571 2593 2616 2631 2652 2672 2685 2697 2717 2720 2721 2722 2730 2751 2766 2776 2786 2795 2802 2809 2810 2811 2819 2829 2838 2839 2839 2840 2840 2853 2878 2901 2920 2932 2941 2947 2949 2949 2951 2951 2951 2965 2977 2980 2994 3011 3025 3034 3037 3038 3038 3040 3044 3049 3059 3069 3075 3080 3082 3088 3088 3089 3092 3101 3107 3111 3117 3124 3135 3139 3139 3141 3143 3144 3150 3159 3167 3171 3177 3181 3185 3187 3188 3194 3203 3204 3207 3207 3218 3224 3224 3224 3220 3218 3204 3204 3201 3200 3196 3180 3157 3124 3031 2771 0 0 0 0 0 0 0 0 0 1292 1290 1287 1281 1254 1241 1235 1226 1224 1219 1219 1218 1214 1212 1210 1210 1207 1207 1205 1203 1203 1201 1200 1199 1198 1198 1198 1199 1199 1199 1200 1201 1202 1203 1207 1215 1223 1228 1239 1248 1253 1253 1254 1257 1261 1263 1263 1263 1261 1256 1245 1221 1205 1193 1182 1176 1171 1167 1163 1162 1161 1161 1157 1148 1141 1134 1127 1122 1107 1101 1099 1094 1090 1085 1084 1081 1078 1074 1073 1070 1069 1067 1066 1066 1065 1064 1062 1061 1059 1058 1056 1055 1054 1054 1052 1051 1050 1049 1047 1046 1044 1043 1042 1042 1041 1039 1038 1036 1036 1034 1034 1032 1032 1031 1030 1029 1028 1028 1028 1026 1025 1025 1024 1023 1022 1020 1020 1019 1018 1017 1015 1014 1014 1012 1011 1010 1008 1008 1007 1006 1005 1004 1002 1001 1001 1000 999 997 996 996 994 994 993 992 991 990 988 986 986 985 983 982 980 980 978 977 976 976 975 973 973 971 971 971 970 969 968 967 966 965 964 964 962 961 961 960 958 958 958 957 956 954 954 954 954 953 953 953 952 952 950 948 946 946 946 945 945 943 942 941 941 940 939 937 936 934 933 932 930 929 927 927 925 924 923 922 921 920 920 918 917 916 916 915 914 914 912 912 910 910 909 909 908 906 906 905 905 904 904 903 903 902 902 902 902 901 901 901 901 902 903 903 903 904 905 908 908 908 909 909 917 928 932 945 951 0 0 0 0 0 0 1599 1609 1618 1623 1633 1639 1645 1645 1645 1647 1649 1650 1650 1651 1651 1651 1651 1650 1649 1648 1647 1647 1646 1646 1645 1645 1644 1643 1641 1640 1638 1637 1637 1635 1634 1634 1632 1632 1631 1630 1630 1628 1626 1624 1623 1621 1620 1619 1617 1617 1616 1615 1613 1611 1609 1608 1607 1606 1604 1601 1599 1598 1595 1591 1588 1584 1582 1579 1577 1574 1571 1570 1567 1565 1565 1562 1561 1560 1560 1560 1560 1561 1569 1572 1575 1579 1579 1583 1588 1593 1596 1598 1599 1600 1600 1600 1600 1600 1599 1598 1597 1596 1594 1592 1590 1585 1581 1579 1577 1575 1574 1573 1573 1573 1573 1574 1574 1574 1577 1580 1583 1586 1588 1590 1590 1592 1594 1596 1597 1598 1600 1601 1602 1603 1603 1604 1605 1607 1609 1610 1613 1613 1615 1617 1619 1621 1623 1625 1625 1626 1629 1633 1636 1640 1644 1646 1648 1651 1652 1655 1657 1659 1659 1659 1660 1661 1661 1661 1661 1658 1653 1648 1642 1635 1631 1624 1617 1609 1603 1597 1589 1584 1578 1573 1567 1559 1550 1539 1528 1524 1524 1524 1529 1529 1529 1528 1524 1520 1514 1514 1513 1511 1510 1508 1505 1503 1501 1500 1499 1498 1498 1499 1499 1501 1501
2207 2207 2233 2260 2278 2287 2299 2313 2331 2348 2358 2372 2376 2390 2397 2404 2428 2450 2457 2460 2461 2472 2489 2498 2499 2512 2517 2533 2551 2552 2574 2596 2609 2624 2631 2653 2672 2685 2694 2699 2702 2714 2722 2732 2751 2766 2776 2785 2795 2800 2801 2802 2811 2824 2835 2838 2839 2839 2839 2839 2853 2878 2902 2919 2932 2940 2947 2947 2947 2943 2943 2943 2957 2961 2978 2994 3012 3026 3039 3040 3040 3042 3042 3042 3047 3061 3070 3076 3081 3086 3088 3090 3093 3099 3103 3107 3111 3118 3126 3137 3140 3140 3142 3144 3150 3155 3163 3171 3179 3185 3190 3190 3190 3190 3197 3203 3208 3208 3210 3225 3225 3225 3225 3222 3218 3204 3204 3204 3203 3203 3180 3157 3109 2974 2525 0 0 0 0 0 0 1282 1280 1280 1280 1280 1276 1260 1254 1241 1235 1226 1224 1221 1220 1218 1214 1213 1212 1210 1207 1206 1205 1204 1202 1200 1198 1198 1196 1196 1196 1197 1197 1197 1197 1199 1200 1202 1203 1209 1218 1225 1236 1248 1252 1253 1254 1257 1261 1261 1261 1260 1258 1256 1241 1213 1201 1174 1166 1164 1163 1161 1159 1158 1156 1155 1151 1142 1135 1129 1121 1114 1106 1098 1096 1093 1090 1088 1084 1081 1079 1075 1073 1072 1071 1069 1068 1068 1067 1065 1063 1062 1061 1060 1059 1057 1056 1055 1054 1053 1051 1050 1049 1047 1047 1044 1044 1043 1041 1040 1038 1037 1037 1036 1035 1033 1033 1032 1031 1030 1030 1029 1028 1027 1027 1026 1025 1024 1024 1022 1021 1020 1019 1018 1016 1016 1014 1013 1012 1010 1010 1009 1008 1007 1006 1004 1003 1002 1001 1000 999 998 997 997 995 994 994 993 992 990 989 988 986 985 984 982 981 980 980 979 978 976 976 974 974 973 972 971 971 970 968 968 967 966 965 964 963 962 961 961 960 959 959 957 956 956 955 955 954 954 954 954 952 952 951 949 948 946 946 946 946 944 943 941 941 940 939 937 936 935 934 932 931 929 927 927 925 924 923 923 922 922 920 920 918 917 917 916 915 914 913 912 911 911 910 909 909 908 907 907 906 905 905 904 904 903 903 902 902 902 901 901 901 902 902 903 903 904 905 906 908 908 908 909 911 920 932 934 949 962 0 0 0 0 0 0 1600 1605 1612 1625 1628 1633 1635 1635 1639 1641 1643 1644 1646 1646 1646 1646 1646 1646 1644 1643 1643 1643 1642 1642 1641 1640 1638 1638 1637 1636 1635 1634 1634 1633 1631 1630 1629 1628 1627 1627 1626 1624 1622 1621 1620 1618 1617 1616 1616 1615 1614 1613 1611 1609 1608 1607 1606 1604 1602 1601 1598 1596 1595 1590 1587 1586 1585 1581 1578 1575 1572 1570 1568 1567 1565 1562 1560 1560 1560 1560 1560 1560 1565 1568 1574 1575 1575 1577 1581 1589 1596 1597 1599 1600 1600 1600 1600 1599 1598 1597 1596 1595 1594 1593 1588 1584 1582 1579 1577 1575 1574 1574 1573 1573 1573 1573 1573 1574 1576 1579 1582 1586 1587 1588 1590 1592 1594 1596 1597 1598 1600 1600 1601 1602 1604 1605 1605 1607 1609 1611 1612 1613 1615 1618 1621 1623 1624 1625 1626 1627 1631 1634 1638 1641 1646 1648 1650 1651 1653 1655 1656 1657 1657 1657 1657 1657 1657 1656 1651 1645 1639 1633 1626 1617 1613 1606 1599 1595 1589 1583 1576 1571 1565 1560 1553 1547 1539 1528 1524 1524 1524 1526 1526 1526 1522 1517 1512 1508 1508 1508 1508 1508 1508 1505 1502 1499 1495 1493 1493 1493 1494 1494 1497 1497
2248 2248 2261 2275 2289 2304 2321 2329 2339 2349 2358 2375 2381 2390 2397 2416 2442 2451 2460 2461 2465 2485 2508 2524 2535 2540 2557 2577 2594 2609 2621 2635 2642 2648 2655 2662 2672 2685 2694 2699 2702 2714 2727 2740 2752 2766 2776 2785 2794 2797 2799 2799 2811 2824 2835 2838 2838 2838 2839 2839 2853 2879 2902 2918 2929 2936 2943 2943 2943 2939 2939 2939 2944 2948 2972 2994 3012 3026 3039 3045 3045 3045 3045 3045 3047 3063 3071 3077 3082 3086 3089 3091 3095 3099 3103 3109 3112 3119 3128 3137 3142 3142 3143 3149 3154 3159 3168 3177 3188 3200 3200 3200 3199 3199 3199 3204 3208 3214 3216 3226 3227 3227 3226 3222 3218 3206 3206 3206 3205 3205 3189 3148 3066 2575 0 0 0 0 0 1264 1264 1264 1266 1266 1271 1271 1266 1256 1253 1238 1235 1226 1225 1221 1220 1220 1215 1214 1212 1210 1207 1206 1205 1204 1202 1199 1198 1197 1196 1196 1195 1195 1195 1195 1195 1196 1197 1198 1200 1201 1212 1221 1226 1242 1250 1252 1252 1257 1259 1259 1259 1258 1256 1250 1240 1210 1196 1171 1160 1159 1157 1157 1153 1153 1153 1147 1141 1136 1132 1125 1119 1108 1102 1098 1096 1093 1091 1088 1084 1082 1079 1077 1075 1073 1072 1071 1070 1069 1068 1066 1065 1065 1063 1062 1060 1059 1058 1057 1055 1054 1053 1052 1050 1049 1048 1046 1045 1044 1042 1040 1039 1038 1037 1036 1035 1034 1033 1033 1032 1032 1031 1030 1029 1029 1029 1027 1026 1026 1024 1024 1023 1021 1020 1019 1017 1016 1015 1014 1013 1012 1011 1010 1009 1008 1007 1005 1004 1002 1002 1001 1000 998 998 997 996 995 994 993 993 992 991 990 988 986 985 983 983 982 981 980 979 978 977 976 975 975 974 973 972 971 970 969 968 967 967 965 965 964 963 962 961 960 960 958 957 957 957 955 955 955 954 954 953 952 951 950 949 948 948 948 947 945 943 943 942 941 939 938 936 935 934 933 932 930 929 927 926 926 924 923 923 922 921 920 919 918 917 917 916 915 914 913 912 912 911 911 909 909 908 907 907 906 906 905 905 903 903 903 902 902 901 901 901 902 902 902 903 903 903 905 907 907 908 908 911 916 923 930 940 952 0 0 0 0 0 0 0 1605 1605 1610 1618 1619 1625 1629 1631 1634 1636 1639 1641 1642 1642 1642 1642 1641 1641 1640 1639 1639 1638 1638 1637 1637 1635 1634 1633 1633 1632 1632 1631 1630 1630 1627 1626 1625 1623 1623 1623 1621 1620 1619 1617 1616 1615 1614 1614 1613 1612 1610 1609 1609 1606 1606 1606 1604 1602 1601 1600 1597 1596 1593 1592 1590 1588 1585 1582 1580 1575 1573 1570 1568 1565 1563 1562 1560 1560 1558 1558 1558 1558 1559 1567 1572 1572 1572 1575 1578 1584 1590 1595 1597 1597 1599 1598 1598 1598 1597 1596 1595 1594 1593 1591 1588 1584 1581 1579 1577 1576 1574 1574 1574 1574 1573 1573 1573 1574 1576 1578 1581 1583 1585 1586 1590 1591 1594 1595 1596 1598 1598 1599 1601 1602 1603 1605 1606 1608 1610 1612 1613 1614 1617 1620 1621 1623 1624 1625 1627 1630 1633 1636 1639 1643 1648 1649 1651 1653 1653 1653 1654 1654 1654 1654 1654 1654 1651 1649 1642 1637 1630 1623 1611 1606 1598 1592 1588 1583 1573 1567 1562 1559 1556 1551 1546 1539 1532 1529 1526 1524 1524 1521 1518 1513 1509 1505 1505 1505 1506 1506 1506 1504 1503 1502 1499 1494 1490 1489 1489 1489 1490 1494 1494
2264 2264 2272 2276 2290 2308 2322 2331 2339 2349 2362 2377 2381 2392 2405 2421 2442 2451 2461 2461 2468 2496 2522 2545 2559 2564 2581 2598 2618 2627 2630 2638 2660 2665 2666 2676 2684 2689 2697 2699 2702 2714 2727 2740 2752 2767 2776 2785 2794 2797 2799 2799 2810 2824 2835 2835 2835 2835 2835 2836 2853 2879 2902 2910 2922 2931 2937 2937 2937 2933 2933 2933 2943 2947 2972 2993 3011 3026 3039 3045 3045 3045 3045 3045 3049 3065 3075 3082 3083 3086 3089 3091 3095 3099 3103 3109 3115 3119 3128 3137 3142 3143 3147 3150 3155 3162 3168 3177 3188 3200 3202 3202 3203 3203 3204 3204 3210 3225 3227 3227 3227 3227 3227 3227 3225 3216 3212 3208 3207 3206 3189 3147 2999 2535 0 0 0 0 1282 1261 1261 1261 1265 1266 1266 1266 1262 1256 1253 1248 1238 1227 1226 1221 1220 1220 1216 1215 1213 1210 1207 1206 1204 1204 1201 1199 1197 1196 1196 1195 1194 1194 1194 1194 1194 1194 1194 1194 1196 1201 1207 1216 1219 1226 1240 1249 1252 1257 1258 1258 1258 1258 1254 1233 1223 1197 1181 1166 1160 1154 1150 1150 1148 1142 1140 1137 1134 1128 1124 1118 1112 1107 1102 1098 1096 1093 1092 1089 1086 1082 1080 1078 1077 1075 1074 1073 1072 1071 1070 1068 1067 1066 1064 1063 1062 1060 1060 1058 1057 1056 1054 1053 1051 1050 1049 1048 1046 1044 1042 1042 1040 1039 1038 1037 1036 1035 1035 1034 1034 1032 1032 1031 1031 1031 1030 1028 1028 1027 1026 1024 1023 1022 1021 1019 1019 1017 1017 1016 1015 1013 1012 1011 1010 1009 1008 1007 1005 1004 1003 1002 1002 1000 999 999 997 996 996 995 994 993 992 990 989 987 986 986 985 983 983 981 980 979 977 977 976 976 975 974 974 972 971 971 969 969 968 967 966 965 964 963 962 961 961 960 959 959 958 958 957 956 955 954 953 952 951 951 950 949 949 948 947 947 944 944 943 942 941 939 938 936 934 933 932 931 929 928 927 926 925 925 924 923 922 920 920 919 918 918 917 916 915 914 914 912 912 911 910 910 909 908 907 907 906 905 905 904 904 903 903 903 902 902 902 902 902 902 902 902 903 904 906 907 907 907 911 916 922 929 937 946 951 0 0 0 0 0 0 0 1586 1597 1602 1613 1617 1623 1624 1627 1631 1634 1635 1637 1637 1638 1638 1638 1637 1637 1636 1635 1635 1634 1634 1632 1632 1631 1630 1630 1629 1629 1629 1628 1627 1625 1622 1621 1621 1620 1619 1618 1617 1615 1614 1613 1613 1612 1611 1610 1610 1609 1608 1607 1606 1605 1604 1603 1602 1601 1600 1598 1597 1595 1594 1592 1590 1587 1583 1580 1578 1576 1573 1570 1567 1566 1564 1563 1561 1558 1557 1556 1556 1556 1560 1565 1566 1568 1569 1575 1576 1579 1586 1592 1593 1594 1595 1595 1596 1596 1596 1595 1594 1593 1592 1590 1588 1585 1581 1578 1578 1575 1575 1574 1574 1573 1573 1573 1573 1574 1576 1578 1580 1582 1584 1586 1589 1591 1592 1594 1595 1597 1598 1600 1601 1603 1604 1605 1607 1608 1609 1612 1614 1616 1619 1621 1622 1623 1625 1627 1629 1632 1635 1639 1642 1645 1649 1651 1651 1651 1651 1652 1652 1652 1652 1652 1651 1649 1647 1642 1637 1630 1621 1609 1605 1593 1587 1583 1580 1572 1562 1558 1556 1555 1551 1545 1536 1532 1529 1524 1524 1523 1517 1512 1509 1506 1503 1503 1503 1505 1505 1505 1504 1502 1501 1497 1493 1490 1488 1488 1488 1488 1489 1489
2264 2264 2272 2281 2295 2309 2323 2333 2341 2352 2372 2383 2393 2400 2416 2427 2442 2451 2453 2461 2482 2504 2530 2556 2569 2581 2595 2602 2618 2627 2630 2640 2660 2666 2684 2689 2705 2719 2724 2733 2735 2740 2747 2760 2766 2770 2776 2786 2794 2797 2799 2799 2810 2824 2835 2835 2835 2835 2835 2836 2857 2878 2892 2896 2906 2920 2930 2930 2930 2927 2927 2927 2927 2937 2965 2988 3011 3025 3037 3045 3045 3045 3045 3045 3054 3069 3080 3085 3086 3086 3089 3091 3095 3098 3103 3109 3115 3120 3129 3135 3142 3147 3154 3159 3162 3168 3168 3177 3188 3200 3202 3202 3203 3203 3204 3209 3214 3225 3227 3227 3227 3227 3228 3227 3226 3223 3213 3211 3208 3208 3189 3145 2716 0 0 0 0 0 1282 1263 1261 1261 1263 1265 1265 1265 1260 1256 1253 1252 1238 1231 1227 1226 1226 1221 1219 1217 1214 1210 1207 1206 1204 1204 1201 1199 1197 1195 1194 1194 1193 1192 1192 1191 1191 1192 1192 1192 1194 1197 1202 1208 1213 1217 1235 1246 1251 1257 1257 1257 1255 1255 1246 1223 1208 1171 1170 1164 1154 1149 1149 1142 1135 1131 1131 1129 1127 1120 1116 1112 1107 1104 1101 1098 1096 1093 1092 1089 1086 1083 1081 1080 1079 1077 1076 1075 1073 1072 1071 1070 1068 1068 1066 1064 1063 1062 1061 1060 1058 1057 1056 1054 1053 1051 1051 1049 1048 1046 1044 1042 1041 1039 1039 1038 1037 1036 1036 1035 1034 1034 1033 1032 1032 1032 1030 1030 1029 1028 1027 1026 1025 1024 1022 1021 1020 1019 1018 1017 1016 1014 1013 1013 1011 1010 1009 1008 1006 1005 1004 1003 1002 1001 1000 1000 999 998 997 995 995 994 993 992 991 989 988 987 986 985 984 982 981 980 979 979 978 977 976 975 975 974 972 971 971 970 969 968 967 966 965 964 963 963 962 961 960 960 959 959 957 957 955 954 954 952 952 951 950 949 949 948 947 947 945 945 944 943 942 941 939 938 936 935 933 931 930 928 927 927 926 925 924 924 922 922 921 920 919 918 918 917 916 916 915 914 913 913 911 910 910 910 908 908 907 906 906 905 905 904 903 903 902 902 902 902 902 902 902 902 903 903 904 906 906 907 911 915 918 923 931 934 934 952 0 0 0 0 0 0 0 1586 1599 1610 1612 1616 1620 1623 1627 1629 1631 1631 1632 1633 1633 1633 1633 1633 1632 1632 1631 1630 1630 1629 1629 1629 1627 1627 1626 1626 1626 1626 1624 1622 1620 1618 1617 1616 1615 1615 1613 1613 1612 1611 1610 1609 1609 1608 1607 1607 1606 1605 1605 1604 1603 1602 1601 1600 1600 1598 1597 1596 1594 1593 1590 1589 1586 1583 1580 1578 1577 1575 1571 1568 1566 1565 1562 1560 1557 1556 1554 1554 1554 1557 1558 1560 1565 1571 1573 1574 1576 1579 1585 1587 1588 1589 1591 1593 1593 1593 1593 1592 1592 1591 1590 1587 1585 1582 1578 1577 1576 1574 1574 1573 1572 1572 1572 1573 1575 1576 1577 1579 1581 1583 1587 1589 1591 1592 1593 1595 1597 1599 1601 1603 1603 1605 1606 1607 1609 1611 1613 1615 1618 1620 1622 1623 1625 1626 1629 1632 1633 1638 1641 1644 1647 1648 1650 1651 1651 1652 1652 1652 1652 1652 1651 1649 1644 1640 1634 1625 1614 1605 1597 1592 1585 1579 1576 1569 1555 1552 1552 1550 1547 1543 1535 1532 1529 1524 1521 1514 1511 1509 1498 1498 1498 1498 1500 1502 1503 1503 1503 1498 1495 1493 1491 1488 1488 1487 1487 1487 1487 1487
2264 2264 2272 2281 2299 2313 2324 2335 2346 2364 2379 2387 2396 2411 2426 2432 2438 2439 2453 2467 2491 2514 2537 2557 2569 2581 2595 2602 2618 2627 2630 2640 2660 2666 2684 2689 2705 2719 2724 2733 2739 2746 2758 2771 2782 2792 2795 2800 2811 2811 2811 2815 2815 2824 2835 2835 2835 2835 2835 2837 2859 2879 2892 2895 2903 2909 2921 2927 2927 2927 2927 2927 2927 2937 2965 2982 3001 3021 3036 3041 3041 3043 3043 3043 3054 3069 3080 3085 3086 3086 3088 3088 3089 3092 3098 3108 3115 3122 3129 3135 3142 3147 3154 3159 3162 3167 3168 3177 3188 3193 3198 3202 3202 3203 3205 3211 3220 3225 3227 3227 3227 3227 3228 3227 3226 3223 3218 3216 3216 3206 3173 3120 2593 0 0 0 0 1289 1282 1260 1258 1258 1258 1258 1259 1259 1257 1257 1256 1252 1249 1242 1236 1227 1227 1224 1223 1220 1214 1210 1209 1206 1204 1204 1202 1199 1197 1195 1194 1193 1192 1191 1190 1190 1190 1190 1191 1192 1192 1193 1196 1197 1205 1212 1226 1240 1247 1253 1253 1253 1253 1244 1229 1219 1183 1170 1165 1146 1136 1134 1132 1131 1128 1127 1123 1118 1118 1116 1112 1108 1106 1103 1101 1099 1096 1093 1092 1089 1086 1084 1082 1081 1080 1078 1077 1076 1074 1073 1072 1071 1070 1069 1067 1066 1065 1064 1062 1061 1060 1058 1057 1055 1054 1053 1052 1050 1049 1047 1045 1043 1041 1040 1040 1039 1037 1037 1036 1036 1035 1034 1033 1033 1033 1032 1031 1031 1030 1029 1028 1026 1026 1025 1024 1022 1021 1020 1019 1018 1017 1016 1014 1013 1012 1011 1010 1009 1007 1006 1005 1004 1003 1002 1001 1000 999 999 997 996 996 995 994 993 992 990 989 989 987 985 984 983 983 981 981 979 978 978 978 977 976 975 974 973 972 971 971 969 968 967 966 965 965 964 962 962 961 960 960 960 959 957 956 956 954 954 953 952 951 950 949 948 948 947 946 946 944 943 943 941 940 938 937 935 934 932 931 929 928 928 927 926 925 924 924 923 922 922 921 920 919 918 917 916 916 915 914 913 912 912 911 910 909 909 908 907 906 906 905 904 904 903 903 902 902 902 902 902 902 902 903 903 904 905 906 908 909 913 913 917 926 933 934 941 952 0 0 0 0 0 0 1568 1583 1597 1603 1608 1611 1614 1620 1624 1625 1626 1628 1628 1628 1628 1628 1628 1628 1628 1627 1627 1627 1627 1626 1626 1625 1624 1624 1623 1623 1622 1620 1618 1617 1615 1613 1612 1612 1611 1611 1609 1608 1608 1607 1606 1605 1605 1604 1604 1604 1603 1603 1603 1602 1602 1601 1599 1599 1598 1597 1596 1594 1593 1590 1589 1587 1586 1584 1582 1579 1579 1576 1571 1570 1567 1565 1562 1559 1556 1554 1554 1553 1554 1554 1556 1557 1563 1566 1569 1571 1575 1576 1580 1584 1584 1586 1588 1589 1590 1590 1591 1591 1591 1590 1589 1587 1584 1581 1578 1576 1575 1573 1572 1572 1572 1572 1572 1573 1573 1574 1577 1580 1582 1583 1587 1588 1590 1592 1594 1595 1597 1599 1601 1602 1604 1605 1606 1608 1610 1612 1614 1616 1619 1620 1623 1624 1626 1628 1630 1633 1635 1640 1643 1645 1648 1650 1651 1651 1652 1652 1652 1652 1652 1651 1649 1644 1639 1631 1621 1610 1604 1596 1591 1583 1578 1572 1563 1552 1547 1546 1545 1540 1536 1529 1528 1524 1517 1512 1509 1504 1499 1496 1493 1489 1489 1487 1488 1488 1488 1488 1488 1487 1487 1486 1486 1486 1486 1484 1484 1483 1483
2263 2263 2271 2281 2299 2313 2326 2343 2359 2373 2387 2390 2403 2415 2433 2436 2438 2439 2453 2471 2493 2517 2540 2560 2569 2581 2595 2602 2609 2615 2627 2638 2650 2661 2677 2689 2705 2719 2724 2733 2739 2746 2759 2776 2797 2810 2816 2818 2823 2826 2828 2832 2838 2838 2844 2846 2850 2853 2856 2858 2863 2879 2892 2895 2903 2909 2921 2927 2927 2929 2927 2927 2929 2937 2965 2982 3001 3019 3031 3035 3036 3036 3038 3043 3054 3069 3080 3085 3085 3085 3086 3087 3089 3089 3095 3106 3117 3124 3130 3135 3143 3148 3154 3159 3159 3160 3168 3168 3183 3188 3194 3196 3197 3200 3205 3211 3220 3224 3226 3227 3227 3227 3227 3227 3226 3223 3218 3216 3216 3204 3156 3098 2552 0 0 0 0 1282 1272 1260 1259 1259 1258 1257 1257 1256 1256 1256 1255 1252 1249 1242 1239 1236 1229 1227 1225 1221 1217 1212 1210 1207 1205 1204 1202 1200 1198 1195 1194 1193 1192 1190 1190 1190 1189 1189 1189 1190 1190 1190 1190 1190 1197 1204 1215 1227 1239 1249 1249 1249 1247 1237 1229 1210 1180 1167 1154 1136 1134 1130 1129 1128 1127 1124 1120 1117 1114 1112 1110 1108 1105 1103 1101 1099 1096 1094 1092 1090 1087 1086 1084 1083 1081 1080 1079 1077 1076 1075 1074 1073 1072 1071 1069 1067 1066 1065 1064 1063 1061 1060 1058 1057 1056 1054 1053 1051 1050 1048 1046 1044 1042 1042 1042 1041 1040 1038 1037 1036 1035 1034 1034 1034 1033 1033 1033 1032 1031 1030 1029 1028 1026 1025 1025 1024 1023 1021 1020 1019 1018 1017 1016 1014 1013 1012 1011 1010 1008 1007 1006 1006 1005 1004 1003 1002 1001 1000 999 997 996 996 996 996 993 991 991 989 988 987 985 984 983 982 982 981 980 979 978 978 978 977 975 975 973 972 971 971 970 969 968 966 966 964 964 963 962 961 961 960 960 958 957 957 955 955 954 953 951 951 950 949 948 948 947 946 945 944 943 941 940 938 937 936 934 933 933 931 929 929 928 927 926 925 925 924 924 922 922 921 920 919 918 918 917 915 915 914 913 912 912 911 910 910 909 908 907 906 906 905 904 904 903 903 902 902 902 902 902 902 903 903 904 905 906 907 909 911 913 916 921 926 931 938 945 955 0 0 0 0 0 0 1577 1584 1598 1599 1605 1607 1610 1616 1618 1620 1623 1623 1623 1623 1623 1623 1623 1623 1623 1623 1623 1623 1623 1623 1622 1621 1620 1619 1619 1618 1616 1614 1613 1612 1610 1609 1609 1608 1607 1606 1605 1604 1603 1602 1602 1601 1601 1601 1601 1601 1601 1601 1600 1600 1600 1598 1597 1597 1596 1596 1594 1593 1590 1589 1587 1586 1586 1585 1582 1581 1580 1576 1574 1572 1568 1564 1562 1560 1557 1554 1554 1554 1554 1554 1554 1554 1558 1561 1564 1568 1572 1573 1577 1580 1582 1582 1582 1584 1587 1591 1591 1591 1590 1589 1588 1585 1582 1580 1577 1575 1574 1572 1572 1571 1571 1571 1571 1573 1574 1575 1578 1581 1583 1584 1586 1589 1592 1593 1595 1597 1599 1600 1601 1602 1604 1605 1607 1609 1611 1614 1615 1617 1619 1621 1623 1626 1628 1630 1632 1635 1638 1643 1644 1647 1649 1651 1652 1652 1652 1652 1652 1652 1652 1650 1644 1639 1630 1621 1610 1603 1596 1590 1583 1574 1569 1560 1550 1540 1538 1538 1533 1532 1527 1524 1520 1513 1508 1505 1500 1495 1488 1485 1485 1484 1484 1482 1481 1481 1481 1484 1485 1485 1485 1485 1483 1481 1480 1480 1479 1479
2253 2253 2260 2278 2299 2313 2326 2349 2374 2387 2390 2393 2405 2424 2438 2439 2442 2442 2455 2478 2497 2518 2541 2560 2567 2578 2590 2597 2605 2615 2625 2638 2645 2655 2665 2679 2697 2716 2724 2733 2739 2747 2759 2778 2797 2811 2820 2825 2828 2829 2830 2835 2839 2842 2850 2857 2861 2862 2873 2884 2894 2895 2898 2900 2903 2909 2921 2935 2937 2938 2940 2940 2943 2953 2972 2982 3001 3018 3026 3026 3030 3035 3038 3044 3056 3062 3070 3077 3079 3079 3080 3082 3086 3089 3095 3106 3118 3126 3138 3142 3145 3149 3150 3152 3152 3158 3161 3164 3176 3186 3193 3196 3197 3200 3205 3211 3220 3223 3226 3227 3227 3227 3227 3226 3225 3223 3218 3216 3216 3195 3149 3080 0 0 0 0 0 1282 1272 1261 1259 1258 1258 1257 1254 1254 1254 1254 1252 1249 1249 1242 1239 1236 1230 1228 1225 1222 1220 1216 1214 1211 1207 1205 1204 1202 1199 1196 1194 1193 1192 1190 1189 1188 1187 1187 1187 1188 1188 1189 1190 1190 1196 1203 1211 1215 1226 1240 1245 1245 1245 1237 1206 1191 1180 1167 1149 1134 1129 1129 1129 1128 1127 1123 1120 1117 1114 1112 1109 1107 1105 1103 1101 1099 1096 1094 1092 1090 1088 1086 1085 1083 1083 1082 1080 1078 1078 1076 1076 1074 1073 1072 1070 1070 1068 1067 1065 1064 1062 1061 1060 1058 1058 1056 1054 1052 1051 1050 1046 1045 1043 1042 1042 1041 1040 1038 1037 1036 1036 1036 1035 1034 1034 1034 1033 1033 1032 1031 1029 1029 1028 1026 1026 1024 1024 1022 1021 1020 1019 1018 1016 1016 1015 1014 1012 1011 1009 1008 1007 1006 1006 1005 1005 1004 1003 1003 1001 1000 999 998 997 996 994 993 991 989 988 987 986 986 984 983 983 982 981 980 980 979 979 977 976 976 974 973 972 972 971 969 968 967 967 966 965 965 963 962 962 961 961 960 958 957 956 956 954 953 952 952 950 949 949 948 947 946 945 944 943 941 940 939 938 936 935 934 934 932 931 930 928 928 927 926 925 924 924 923 923 922 921 920 919 919 918 917 916 915 914 914 913 912 912 910 910 908 908 907 906 906 905 905 904 903 903 902 902 902 902 902 902 903 904 904 905 907 908 910 913 916 918 923 931 936 940 949 951 0 0 0 0 0 0 0 1594 1595 1598 1598 1603 1607 1610 1613 1615 1616 1616 1617 1617 1617 1618 1618 1618 1618 1618 1619 1619 1619 1618 1617 1617 1616 1616 1614 1612 1612 1610 1609 1608 1607 1606 1605 1604 1603 1602 1601 1600 1600 1599 1598 1598 1598 1598 1598 1598 1598 1598 1597 1597 1596 1596 1595 1594 1594 1592 1591 1590 1588 1587 1586 1586 1585 1584 1582 1582 1581 1578 1577 1573 1569 1567 1564 1562 1561 1559 1553 1553 1553 1552 1552 1552 1555 1560 1562 1566 1568 1573 1575 1576 1576 1577 1580 1586 1586 1587 1588 1588 1588 1588 1586 1583 1580 1577 1575 1574 1572 1572 1571 1571 1571 1571 1572 1573 1575 1576 1578 1582 1583 1585 1588 1591 1593 1595 1596 1598 1600 1600 1602 1604 1605 1607 1609 1611 1613 1615 1617 1619 1621 1623 1625 1628 1630 1632 1635 1638 1642 1644 1646 1649 1650 1652 1652 1652 1653 1653 1653 1652 1650 1644 1637 1629 1618 1610 1603 1597 1590 1582 1572 1561 1555 1546 1537 1532 1532 1531 1529 1524 1518 1514 1511 1505 1501 1497 1492 1485 1482 1482 1480 1480 1479 1479 1479 1479 1482 1484 1484 1484 1484 1481 1479 1477 1477 1477 1477
2239 2239 2252 2271 2294 2313 2327 2350 2376 2387 2390 2393 2405 2424 2444 2450 2451 2457 2477 2495 2507 2521 2541 2557 2566 2578 2585 2594 2604 2614 2624 2638 2642 2645 2655 2673 2697 2713 2724 2733 2739 2747 2760 2780 2804 2811 2820 2825 2830 2830 2830 2835 2840 2845 2850 2857 2866 2872 2884 2890 2906 2906 2909 2910 2919 2935 2949 2949 2949 2948 2948 2948 2954 2964 2974 2999 3015 3015 3022 3026 3030 3035 3039 3046 3056 3062 3066 3071 3075 3077 3080 3081 3086 3089 3095 3105 3119 3135 3143 3147 3149 3149 3150 3152 3152 3153 3153 3164 3176 3185 3193 3196 3197 3200 3203 3211 3219 3223 3225 3227 3227 3227 3227 3225 3222 3219 3217 3215 3213 3195 3149 3080 0 0 0 0 1289 1284 1272 1260 1259 1258 1257 1255 1254 1254 1252 1252 1248 1246 1245 1242 1240 1238 1234 1229 1227 1225 1221 1219 1215 1212 1209 1207 1205 1202 1200 1198 1195 1194 1192 1190 1189 1187 1187 1186 1186 1186 1187 1188 1188 1189 1194 1202 1208 1212 1217 1228 1237 1237 1237 1225 1205 1184 1177 1162 1149 1134 1129 1129 1129 1128 1127 1123 1120 1117 1113 1111 1109 1107 1104 1103 1100 1098 1096 1094 1092 1090 1089 1088 1085 1084 1084 1082 1081 1080 1079 1078 1077 1076 1075 1074 1073 1072 1069 1068 1067 1065 1064 1063 1062 1060 1058 1056 1056 1055 1053 1050 1047 1045 1044 1043 1043 1041 1040 1038 1037 1036 1036 1036 1036 1036 1035 1034 1034 1034 1033 1031 1031 1029 1029 1027 1026 1025 1025 1023 1022 1021 1020 1019 1018 1017 1016 1015 1013 1012 1011 1009 1009 1008 1007 1007 1005 1004 1004 1003 1002 1001 1000 999 998 996 995 993 991 990 990 989 987 986 985 985 984 983 982 981 981 980 979 978 978 976 975 975 973 972 972 970 969 968 968 967 966 965 964 964 963 962 961 960 959 957 957 956 954 953 953 952 951 950 950 949 947 946 945 944 943 942 941 940 939 937 936 935 934 932 931 930 929 929 928 927 926 926 925 925 924 922 921 921 920 919 919 918 917 916 916 914 913 913 912 912 911 910 908 908 907 907 906 905 904 903 903 903 902 902 902 902 902 903 903 904 905 906 908 910 913 916 918 920 926 927 938 938 940 941 0 0 0 0 0 0 1587 1590 1594 1595 1598 1600 1601 1603 1606 1607 1608 1611 1612 1613 1613 1614 1614 1614 1615 1615 1615 1615 1614 1613 1613 1613 1612 1610 1609 1608 1608 1606 1606 1604 1603 1601 1600 1600 1598 1598 1597 1596 1596 1595 1595 1595 1595 1595 1595 1595 1595 1594 1594 1593 1593 1593 1592 1591 1591 1590 1588 1588 1587 1586 1586 1585 1584 1583 1582 1581 1580 1578 1576 1573 1571 1568 1565 1563 1562 1558 1554 1553 1552 1551 1551 1552 1554 1556 1558 1559 1565 1570 1571 1571 1572 1576 1583 1584 1585 1586 1588 1588 1588 1586 1583 1580 1577 1576 1574 1573 1572 1571 1571 1571 1571 1572 1572 1575 1575 1576 1579 1583 1584 1586 1589 1592 1595 1596 1597 1598 1600 1601 1603 1604 1606 1607 1610 1612 1614 1616 1618 1620 1622 1625 1627 1629 1632 1635 1638 1642 1644 1646 1648 1649 1652 1652 1652 1653 1653 1653 1652 1650 1644 1636 1628 1617 1610 1603 1596 1590 1580 1571 1561 1553 1544 1535 1530 1526 1524 1522 1517 1511 1505 1503 1499 1497 1493 1491 1485 1479 1478 1478 1477 1476 1473 1473 1473 1477 1481 1481 1481 1481 1478 1478 1475 1475 1475 1475
2227 2227 2244 2271 2294 2313 2329 2357 2376 2389 2396 2400 2405 2424 2444 2453 2462 2480 2497 2511 2522 2530 2546 2556 2566 2578 2581 2592 2603 2614 2624 2633 2633 2640 2655 2673 2697 2709 2724 2733 2739 2747 2765 2793 2804 2811 2820 2825 2830 2830 2831 2836 2840 2846 2851 2859 2868 2877 2884 2890 2906 2919 2920 2922 2932 2950 2971 2971 2971 2963 2962 2962 2963 2967 2985 3002 3015 3015 3022 3026 3030 3038 3048 3059 3059 3062 3066 3071 3075 3077 3080 3081 3086 3089 3095 3103 3119 3135 3146 3151 3151 3153 3153 3152 3152 3153 3153 3164 3176 3185 3191 3195 3197 3200 3203 3207 3215 3221 3225 3225 3227 3227 3227 3225 3218 3213 3212 3212 3211 3193 3149 3080 0 0 0 0 1297 1286 1274 1260 1260 1257 1257 1257 1257 1252 1252 1251 1248 1246 1244 1242 1240 1238 1235 1234 1231 1227 1226 1223 1218 1214 1211 1210 1207 1204 1202 1199 1197 1194 1192 1190 1189 1187 1187 1186 1186 1186 1186 1187 1188 1189 1191 1193 1199 1207 1213 1215 1228 1228 1228 1218 1203 1184 1175 1161 1150 1136 1131 1130 1130 1128 1126 1122 1120 1117 1113 1111 1108 1107 1104 1102 1100 1099 1097 1095 1094 1091 1090 1088 1087 1085 1085 1084 1082 1081 1080 1080 1079 1077 1077 1076 1074 1072 1072 1070 1068 1067 1066 1065 1063 1062 1059 1058 1056 1055 1053 1051 1049 1046 1045 1044 1043 1042 1041 1039 1039 1037 1037 1037 1037 1037 1035 1035 1035 1034 1033 1032 1031 1030 1030 1029 1027 1027 1026 1025 1024 1023 1021 1020 1019 1018 1017 1016 1015 1013 1012 1011 1010 1009 1008 1007 1006 1004 1004 1004 1003 1001 1000 999 998 997 995 994 993 992 991 990 989 987 987 986 985 985 983 983 982 982 980 979 979 978 976 976 975 974 972 971 971 969 969 968 967 966 964 964 963 962 961 960 959 957 957 956 955 954 954 952 952 951 951 950 948 946 945 944 943 942 942 941 940 938 936 936 934 933 932 930 929 929 929 928 927 926 926 925 924 923 923 922 922 920 920 918 918 918 917 916 915 914 913 912 912 910 910 909 908 907 906 906 905 904 904 903 903 902 902 902 902 903 903 904 905 906 908 910 911 913 914 918 919 921 929 935 935 938 944 0 0 0 0 0 0 1585 1587 1592 1595 1596 1597 1597 1599 1599 1604 1606 1608 1609 1609 1609 1610 1610 1611 1611 1611 1610 1610 1610 1610 1610 1608 1607 1607 1606 1605 1604 1602 1601 1600 1599 1597 1597 1595 1594 1593 1592 1592 1592 1592 1592 1592 1591 1591 1591 1591 1591 1591 1591 1591 1591 1590 1589 1589 1587 1587 1586 1586 1585 1585 1585 1584 1583 1582 1582 1580 1580 1578 1576 1574 1572 1568 1566 1563 1560 1557 1553 1552 1551 1551 1550 1550 1550 1552 1555 1555 1562 1566 1567 1567 1570 1574 1578 1579 1581 1584 1586 1586 1586 1583 1580 1577 1576 1575 1574 1572 1572 1571 1571 1571 1572 1572 1573 1574 1576 1578 1580 1583 1585 1587 1590 1593 1595 1596 1596 1598 1600 1602 1603 1605 1606 1609 1610 1613 1615 1616 1619 1622 1625 1626 1629 1632 1634 1638 1641 1644 1646 1647 1648 1650 1651 1651 1651 1652 1651 1650 1650 1643 1636 1627 1617 1608 1602 1596 1586 1575 1571 1559 1552 1544 1533 1527 1524 1519 1515 1510 1503 1499 1497 1495 1492 1489 1488 1483 1479 1475 1475 1475 1473 1470 1470 1470 1470 1472 1474 1474 1474 1474 1473 1471 1471 1471 1471
2227 2227 2244 2271 2294 2323 2342 2361 2382 2392 2396 2400 2405 2424 2447 2459 2475 2491 2508 2523 2533 2540 2548 2556 2567 2577 2580 2586 2595 2607 2619 2624 2633 2640 2655 2673 2697 2709 2725 2734 2743 2757 2769 2793 2804 2810 2817 2820 2825 2829 2831 2836 2840 2846 2853 2860 2869 2880 2885 2892 2907 2925 2935 2938 2945 2965 2976 2977 2977 2979 2977 2978 2979 2979 2991 3007 3015 3016 3022 3035 3053 3064 3068 3068 3068 3068 3068 3071 3075 3077 3080 3081 3087 3089 3095 3103 3119 3135 3146 3154 3156 3156 3156 3156 3156 3156 3162 3170 3176 3185 3189 3195 3197 3200 3202 3206 3213 3217 3224 3225 3227 3227 3227 3222 3214 3208 3208 3207 3204 3191 3152 3081 2576 0 0 0 1306 1297 1286 1260 1260 1260 1255 1255 1255 1251 1251 1250 1248 1245 1243 1242 1240 1240 1237 1236 1234 1232 1230 1227 1224 1217 1214 1211 1208 1205 1202 1200 1197 1195 1192 1191 1189 1187 1187 1186 1186 1186 1186 1186 1186 1186 1187 1189 1191 1198 1206 1214 1217 1218 1218 1218 1203 1184 1175 1162 1150 1141 1139 1135 1130 1128 1125 1122 1120 1116 1113 1111 1108 1107 1104 1102 1101 1099 1097 1095 1094 1092 1091 1089 1088 1087 1086 1085 1084 1083 1082 1080 1080 1079 1078 1077 1075 1074 1073 1071 1070 1068 1067 1066 1064 1062 1060 1058 1057 1056 1053 1051 1049 1047 1046 1045 1044 1042 1041 1040 1039 1038 1038 1038 1037 1037 1037 1035 1035 1035 1035 1033 1032 1032 1031 1030 1029 1028 1028 1026 1025 1024 1023 1021 1020 1020 1018 1018 1016 1014 1013 1012 1011 1010 1009 1008 1006 1005 1005 1004 1004 1002 1001 999 998 998 997 995 994 993 992 990 990 989 988 987 986 985 985 984 983 983 982 980 980 978 977 976 976 975 974 972 972 971 969 968 968 966 966 965 964 962 961 960 959 958 957 957 956 954 954 953 953 952 951 950 948 947 946 945 943 943 942 941 940 939 937 936 935 934 933 932 931 930 930 928 928 928 926 925 925 925 924 923 922 921 920 920 918 918 918 916 916 915 914 913 912 912 911 910 909 908 907 906 905 905 904 903 903 903 903 903 903 903 903 904 905 905 907 908 910 912 913 914 917 921 926 929 934 935 944 956 0 0 0 0 0 1581 1584 1585 1593 1593 1593 1594 1595 1596 1598 1601 1604 1605 1605 1605 1605 1606 1606 1606 1606 1606 1606 1606 1606 1605 1605 1605 1604 1603 1602 1602 1600 1599 1597 1595 1595 1594 1593 1592 1590 1590 1590 1590 1589 1589 1588 1588 1588 1588 1588 1588 1588 1588 1588 1588 1587 1587 1587 1587 1586 1585 1585 1585 1585 1584 1584 1583 1582 1582 1581 1580 1578 1577 1576 1576 1573 1569 1566 1563 1559 1556 1555 1554 1551 1550 1550 1550 1550 1549 1550 1554 1555 1560 1562 1564 1568 1572 1573 1575 1578 1581 1583 1583 1583 1580 1577 1576 1575 1574 1573 1572 1572 1571 1571 1571 1571 1572 1574 1576 1577 1579 1582 1584 1586 1588 1589 1592 1594 1594 1596 1598 1599 1600 1603 1605 1607 1609 1611 1613 1615 1618 1621 1623 1625 1629 1631 1634 1637 1641 1643 1645 1646 1648 1649 1650 1650 1650 1651 1650 1649 1649 1640 1634 1626 1617 1608 1600 1593 1585 1575 1570 1558 1549 1542 1533 1527 1523 1519 1515 1507 1499 1497 1495 1492 1488 1484 1482 1480 1475 1473 1472 1472 1469 1467 1466 1465 1464 1464 1464 1465 1465 1466 1466 1466 1466 1466 1466
2227 2227 2244 2271 2310 2340 2361 2381 2390 2394 2399 2400 2405 2424 2447 2466 2485 2502 2516 2525 2535 2542 2550 2556 2567 2578 2580 2586 2595 2604 2615 2624 2633 2640 2656 2680 2698 2709 2729 2740 2746 2757 2775 2793 2799 2801 2807 2819 2825 2830 2832 2837 2843 2850 2853 2862 2871 2880 2885 2892 2907 2926 2938 2946 2950 2965 2976 2979 2980 2983 2983 2984 2984 2994 2994 3007 3015 3018 3037 3056 3067 3069 3076 3078 3078 3078 3078 3078 3078 3080 3084 3085 3088 3090 3097 3103 3122 3135 3147 3157 3162 3162 3163 3163 3164 3164 3167 3172 3176 3179 3183 3189 3194 3198 3201 3206 3211 3215 3221 3221 3221 3219 3219 3214 3206 3189 3189 3189 3188 3188 3154 3095 2578 0 0 0 1306 1297 1286 1260 1260 1260 1257 1257 1255 1250 1249 1248 1246 1244 1243 1241 1240 1240 1238 1237 1236 1233 1233 1229 1225 1221 1217 1214 1211 1207 1204 1201 1197 1195 1192 1191 1189 1188 1188 1186 1186 1186 1186 1185 1185 1185 1185 1187 1189 1192 1199 1211 1215 1218 1218 1218 1203 1187 1175 1162 1150 1141 1139 1136 1131 1128 1125 1122 1119 1115 1113 1111 1109 1107 1105 1103 1101 1099 1098 1096 1095 1093 1092 1090 1089 1088 1087 1086 1085 1084 1084 1082 1081 1081 1079 1078 1077 1076 1074 1072 1071 1069 1068 1066 1065 1063 1061 1060 1057 1057 1054 1052 1050 1049 1047 1046 1045 1044 1043 1041 1039 1038 1038 1038 1038 1038 1038 1036 1036 1036 1035 1034 1033 1033 1032 1031 1030 1029 1028 1027 1026 1025 1024 1023 1022 1020 1019 1018 1017 1015 1014 1013 1012 1011 1010 1008 1007 1006 1006 1005 1005 1003 1002 1001 1000 998 998 997 996 994 994 992 991 990 989 989 987 986 985 984 984 983 982 981 980 980 978 977 977 976 974 974 973 971 971 970 968 967 966 966 965 964 962 961 960 959 958 958 956 954 954 953 953 952 952 951 949 949 948 946 945 944 943 941 940 939 938 937 936 935 934 933 932 932 930 930 929 928 927 927 926 925 924 924 923 922 922 921 919 919 918 917 916 916 915 915 913 912 911 910 910 908 908 907 906 906 905 905 904 903 903 903 903 903 903 904 904 905 906 908 910 912 913 913 916 918 921 924 925 934 944 956 977 0 0 0 0 0 1581 1583 1586 1589 1589 1590 1590 1592 1593 1597 1599 1600 1600 1601 1601 1601 1601 1601 1601 1602 1602 1602 1602 1602 1602 1602 1601 1601 1600 1598 1597 1595 1594 1593 1591 1591 1590 1588 1587 1587 1587 1587 1586 1586 1585 1585 1585 1585 1585 1586 1586 1585 1585 1585 1585 1585 1585 1585 1584 1584 1584 1584 1583 1583 1583 1583 1582 1582 1581 1580 1579 1578 1578 1576 1576 1573 1569 1566 1563 1560 1558 1557 1554 1552 1550 1549 1549 1548 1548 1549 1551 1553 1558 1561 1564 1566 1568 1569 1572 1575 1576 1579 1579 1579 1576 1575 1575 1574 1573 1572 1572 1571 1571 1571 1571 1571 1572 1574 1575 1577 1580 1582 1585 1586 1587 1588 1591 1592 1594 1595 1597 1598 1600 1603 1605 1606 1609 1611 1613 1616 1620 1623 1625 1628 1630 1634 1637 1640 1643 1644 1645 1647 1648 1649 1649 1649 1650 1648 1648 1643 1637 1631 1622 1615 1603 1594 1586 1579 1570 1564 1555 1546 1540 1531 1525 1522 1519 1514 1506 1497 1494 1492 1487 1483 1479 1477 1475 1472 1468 1467 1466 1464 1463 1462 1462 1461 1461 1459 1459 1459 1459 1459 1460 1460 1461 1461
2230 2230 2246 2274 2314 2349 2363 2381 2399 2403 2412 2415 2418 2433 2453 2473 2491 2509 2521 2534 2540 2546 2551 2556 2567 2579 2581 2586 2595 2604 2613 2624 2640 2656 2670 2690 2698 2709 2729 2740 2746 2758 2777 2789 2792 2799 2807 2819 2825 2830 2835 2840 2845 2850 2856 2864 2872 2883 2885 2892 2907 2927 2939 2946 2950 2965 2976 2979 2981 2987 2991 2993 2995 2999 3001 3007 3020 3028 3040 3056 3067 3069 3076 3078 3079 3081 3084 3084 3086 3086 3090 3090 3091 3092 3097 3103 3122 3135 3152 3163 3169 3171 3171 3171 3171 3171 3173 3173 3177 3179 3183 3189 3194 3198 3201 3206 3208 3211 3212 3212 3212 3212 3209 3204 3191 3181 3181 3181 3181 3181 3155 3096 2749 0 0 0 1311 1288 1286 1270 1264 1262 1262 1262 1253 1250 1249 1246 1244 1244 1242 1241 1240 1240 1238 1237 1237 1234 1233 1230 1226 1224 1220 1217 1213 1210 1206 1202 1200 1197 1194 1193 1191 1189 1188 1187 1186 1186 1185 1185 1185 1184 1184 1184 1187 1192 1195 1206 1215 1223 1223 1223 1213 1196 1176 1163 1155 1145 1139 1136 1133 1128 1125 1122 1119 1115 1113 1111 1109 1107 1105 1104 1103 1101 1099 1098 1096 1094 1093 1092 1091 1090 1089 1087 1087 1085 1085 1083 1083 1082 1081 1080 1078 1076 1075 1073 1072 1070 1069 1067 1065 1064 1062 1060 1058 1057 1056 1054 1052 1050 1049 1048 1047 1046 1045 1042 1040 1038 1038 1038 1038 1038 1038 1037 1037 1037 1036 1035 1035 1034 1033 1032 1031 1031 1030 1028 1028 1027 1026 1024 1023 1022 1020 1019 1018 1017 1015 1013 1013 1011 1010 1008 1008 1007 1007 1006 1005 1004 1003 1002 1002 1000 999 997 996 995 994 993 992 991 990 990 988 988 987 985 984 984 983 982 981 981 980 979 977 976 975 975 973 973 971 970 969 968 967 966 965 964 964 962 961 960 958 958 957 956 956 955 954 953 952 951 950 949 948 946 945 944 944 943 941 940 939 939 937 936 935 935 933 932 932 931 930 929 929 927 926 926 925 925 924 923 922 921 921 920 919 918 917 916 915 915 914 913 912 911 910 909 908 908 907 907 906 905 904 904 904 903 903 903 903 904 904 905 906 908 910 912 913 913 915 918 919 920 925 934 941 952 964 978 0 0 0 0 1560 1572 1583 1587 1587 1587 1587 1587 1589 1591 1593 1594 1594 1595 1596 1597 1598 1598 1598 1598 1598 1598 1598 1598 1598 1598 1598 1598 1596 1595 1593 1592 1592 1590 1589 1588 1586 1585 1584 1584 1584 1584 1584 1583 1583 1583 1583 1582 1582 1582 1582 1582 1582 1582 1582 1582 1582 1582 1582 1582 1582 1582 1582 1582 1582 1582 1581 1581 1581 1580 1579 1578 1578 1577 1576 1575 1574 1570 1567 1564 1562 1561 1558 1554 1551 1549 1549 1548 1548 1548 1548 1550 1555 1559 1559 1562 1564 1566 1568 1571 1572 1574 1575 1575 1575 1575 1575 1574 1573 1572 1572 1572 1572 1571 1571 1571 1571 1571 1571 1572 1576 1580 1583 1584 1586 1586 1587 1590 1592 1593 1596 1598 1599 1600 1602 1606 1607 1610 1612 1616 1619 1621 1624 1628 1630 1631 1635 1639 1642 1643 1645 1647 1648 1649 1649 1649 1648 1648 1647 1641 1636 1631 1622 1615 1598 1588 1579 1571 1564 1555 1550 1541 1535 1529 1524 1522 1519 1513 1505 1497 1491 1488 1483 1479 1476 1473 1471 1468 1465 1461 1459 1458 1458 1458 1458 1457 1456 1455 1455 1454 1454 1454 1453 1453 1453 1453
