2015 2036 2060 2077 2088 2092 2095 2106 2125 2153 2181 2199 2215 2220 2241 2259 2279 2290 2293 2296 2299 2306 2314 2326 2341 2359 2366 2387 2400 2418 2439 2458 2472 2477 2481 2482 2484 2487 2495 2505 2517 2521 2527 2534 2535 2536 2538 2538 2538 2537 2535 2532 2527 2524 2515 2501 2459 2404 0 0 0 0 0 0 0 1274 1272 1271 1268 1266 1266 1266 1266 1266 1266 1265 1265 1265 1263 1263 1262 1261 1259 1257 1255 1254 1254 1254 1251 1243 1237 1237 1236 1236 1224 1224 1224 1231 1232 1232 1233 1235 1235 1236 1236 1236 1237 1237 1240 1244 1246 1246 1246 1248 1248 1250 1251 1251 1251 1251 1251 1251 1251 1251 1251 1251 1251 1251 1255 1255 1255 1253 1253 1252 1252 1252 1251 1250 1249 1249 1246 1241 1237 1236 1232 1232 1232 1230 1228 1225 1223 1220 1218 1217 1216 1216 1216 1216 1218 1220 1222 1223 1225 1225 1226 1226 1227 1229 1234 1240 1243 1246 1248 1249 1251 1251 1253 1253 1253 1253 1253 1254 1254 1253 1253 1253 1253 1253 1253 1253 1253 1253 1253 1253 1252 1251 1250 1249 1247 1245 1244 1242 1237 1235 1233 1232 1230 1229 1228 1227 1225 1225 1225 1224 1224 1224 1224 1223 1223 1223 1224 1224 1226 1227 1230 1231 1233 1236 1239 1242 1244 1246 1247 1249 1250 1250 1251 1252 1252 1252 1252 1252 1252 1252 1252 1252 1251 1251 1251 1251 1251 1250 1250 1249 1249 1248 1246 1245 1244 1242 1239 1238 1237 1237 1237 1237 1237 1237 1239 1239 1240 1240 1240 1240 1241 1242 1243 1244 1245 1245 1245 1246 1246 1246 1247 1247 1248 1249 1250 1251 1251 1251 1252 1252 1252 1252 1253 1253 1254 1254 1255 1255 1255 1256 1259 1261 1271 1290 0 0 0 0 2043 2064 2068 2074 2076 2079 2080 2082 2085 2086 2087 2089 2091 2091 2091 2091 2090 2090 2088 2080 2065 2046 2034 2026 2012 2002 1991 1984 1978 1970 1960 1948 1934 1920 1912 1903 1896 1885 1873 1864 1859 1855 1850 1845 1839 1831 1822 1814 1808 1802 1797 1788 1781 1773 1765 1760 1757 1753 1745 1739 1734 1730 1728 1725 1721 1718 1714 1712 1711 1709 1709 1709 1708 1707 1707 1707 1707 1708 1710 1712 1716 1719 1724 1729 1736 1741 1745 1747 1750 1751 1753 1754 1755 1756 1757 1757 1757 1758 1758 1758 1759 1759 1759 1759 1759 1759 1759 1759 1759 1759 1758 1757 1756 1755 1755 1754 1753 1751 1750 1749 1748 1746 1745 1744 1743 1742 1741 1740 1738 1736 1735 1734 1732 1731 1730 1728 1726 1725 1723 1721 1720 1718 1717 1715 1713 1711 1709 1707 1704 1702 1701 1699 1696 1694 1693 1690 1688 1685 1683 1680 1677 1675 1673 1669 1667 1664 1662 1660 1658 1656 1654 1652 1650 1648 1646 1644 1643 1642 1640 1639 1638 1638 1638 1638 1638 1638 1638 1639 1641 1643 1646 1653 1660 1664 1667 1670 1675 1678 1683 1688 1692 1694 1697 1700 1702 1704 1706 1708 1709 1710 1711 1713 1716 1717 1718 1720 1720 1723 1724 1726 1727 1729 1731 1734 1736 1739 1744 1748 1751 1752 1753 1756 1757 1759 1759 1760 1761 1762 1762 1763 1763 1763 1763 1763 1763 1759 1756 1750 1746 1741 1735 1728 1723 1719 1713 1708 1702 1699 1694 1690 1686 1682 1680 1678 1675 1672 1669 1667 1665 1663 1660 1658 1656 1653 1651 1648 1646 1643 1641 1639 1636 1632 1628 1623 1620 1619 1615 1613 1610 1606 1603 1600 1597 1595 1592 1588 1584 1580 1578 1575 1571 1567 1564 1562 1560 1557 1554 1549 1544 1541 1539 1537 1536 1534 1532 1532 1532 1532 1532
2011 2036 2060 2077 2088 2092 2100 2107 2129 2160 2181 2196 2204 2218 2241 2259 2279 2293 2298 2299 2299 2306 2314 2326 2340 2359 2365 2389 2407 2427 2448 2465 2472 2477 2481 2482 2484 2486 2493 2504 2517 2521 2527 2534 2535 2536 2538 2541 2541 2541 2541 2541 2535 2530 2527 2520 2494 2408 0 0 0 0 0 0 0 1275 1274 1273 1269 1267 1266 1266 1266 1266 1266 1266 1265 1265 1263 1263 1262 1261 1259 1255 1250 1248 1247 1242 1238 1233 1233 1233 1232 1218 1210 1210 1210 1211 1212 1212 1213 1213 1215 1223 1224 1227 1229 1231 1231 1233 1238 1240 1242 1246 1248 1251 1253 1253 1253 1253 1253 1253 1253 1254 1256 1256 1256 1257 1257 1257 1257 1256 1256 1256 1255 1254 1254 1253 1252 1251 1246 1242 1237 1236 1232 1230 1229 1228 1226 1222 1218 1216 1215 1215 1215 1215 1215 1215 1216 1218 1220 1221 1221 1222 1223 1224 1225 1228 1234 1239 1243 1246 1248 1249 1251 1252 1253 1254 1254 1254 1255 1255 1255 1255 1255 1255 1255 1255 1255 1254 1254 1254 1253 1253 1252 1251 1250 1249 1247 1245 1243 1241 1237 1234 1231 1231 1230 1228 1226 1225 1224 1223 1223 1223 1223 1223 1221 1221 1221 1222 1223 1224 1225 1227 1230 1230 1233 1236 1239 1242 1245 1246 1247 1249 1250 1251 1251 1252 1252 1252 1252 1252 1252 1252 1252 1252 1252 1252 1252 1251 1251 1251 1250 1249 1249 1247 1246 1244 1243 1241 1239 1237 1237 1237 1236 1236 1236 1236 1237 1239 1239 1239 1240 1240 1241 1241 1243 1244 1245 1245 1245 1245 1245 1246 1246 1247 1248 1249 1250 1251 1251 1251 1251 1252 1252 1252 1252 1253 1254 1255 1255 1255 1255 1255 1256 1258 1270 1290 0 0 0 0 0 2064 2073 2080 2084 2084 2085 2085 2085 2088 2089 2091 2094 2095 2095 2095 2095 2094 2090 2082 2067 2046 2034 2026 2012 2002 1991 1984 1978 1970 1960 1948 1935 1921 1915 1908 1903 1892 1879 1872 1864 1860 1855 1851 1845 1836 1829 1821 1814 1806 1800 1793 1785 1778 1767 1762 1759 1755 1749 1742 1736 1732 1730 1727 1722 1719 1715 1712 1711 1709 1709 1708 1707 1706 1705 1705 1705 1706 1707 1710 1712 1714 1718 1723 1728 1735 1739 1742 1745 1748 1749 1750 1751 1752 1754 1755 1755 1756 1756 1757 1758 1758 1758 1758 1758 1758 1758 1758 1758 1757 1757 1756 1755 1754 1754 1754 1752 1751 1750 1748 1748 1746 1745 1744 1743 1742 1741 1739 1738 1736 1735 1734 1732 1731 1730 1728 1726 1725 1723 1721 1720 1719 1717 1716 1713 1711 1709 1707 1705 1703 1701 1699 1697 1694 1693 1691 1688 1685 1683 1680 1679 1676 1673 1671 1668 1666 1664 1660 1659 1657 1655 1653 1651 1649 1647 1645 1643 1642 1640 1639 1638 1638 1638 1638 1638 1638 1638 1639 1640 1641 1641 1643 1650 1658 1660 1662 1668 1673 1680 1686 1691 1693 1697 1699 1701 1704 1706 1708 1709 1710 1712 1713 1716 1717 1720 1721 1722 1724 1726 1728 1730 1731 1735 1736 1738 1741 1747 1751 1754 1756 1757 1759 1760 1762 1763 1763 1765 1765 1765 1765 1765 1765 1765 1764 1764 1761 1758 1752 1747 1741 1735 1728 1722 1716 1712 1705 1702 1698 1693 1690 1686 1683 1680 1678 1675 1672 1669 1667 1665 1663 1660 1658 1655 1653 1651 1649 1646 1643 1641 1637 1635 1631 1627 1623 1620 1617 1614 1610 1605 1601 1599 1595 1592 1590 1589 1585 1581 1578 1576 1572 1569 1565 1562 1560 1558 1555 1553 1549 1543 1541 1539 1536 1533 1532 1531 1531 1531 1531 1531
2004 2029 2058 2077 2088 2092 2104 2122 2144 2167 2182 2194 2201 2217 2239 2259 2279 2293 2301 2308 2309 2312 2316 2323 2340 2359 2365 2389 2411 2433 2451 2465 2472 2475 2476 2477 2478 2485 2493 2503 2513 2516 2526 2534 2535 2535 2540 2545 2547 2547 2547 2546 2540 2536 2535 2526 2516 2482 0 0 0 0 0 0 0 0 1275 1274 1271 1267 1267 1267 1267 1267 1267 1266 1265 1265 1263 1263 1263 1261 1258 1254 1247 1239 1231 1226 1220 1211 1205 1202 1201 1200 1197 1192 1191 1191 1190 1191 1192 1192 1192 1194 1196 1221 1221 1221 1221 1221 1227 1233 1236 1245 1249 1253 1255 1255 1255 1255 1255 1255 1257 1258 1259 1259 1259 1259 1259 1259 1260 1260 1260 1259 1258 1257 1256 1255 1255 1253 1248 1245 1238 1235 1230 1227 1226 1225 1222 1218 1216 1214 1213 1213 1213 1214 1214 1215 1216 1217 1218 1218 1218 1218 1220 1222 1225 1228 1233 1239 1243 1246 1247 1249 1251 1252 1253 1254 1255 1255 1255 1256 1256 1256 1256 1256 1255 1255 1255 1255 1255 1254 1254 1254 1252 1252 1250 1249 1247 1245 1243 1241 1236 1233 1230 1229 1228 1226 1225 1224 1223 1222 1221 1221 1221 1220 1220 1220 1220 1221 1221 1222 1224 1225 1228 1229 1233 1236 1239 1242 1245 1246 1248 1249 1250 1251 1252 1252 1252 1253 1253 1253 1253 1253 1252 1252 1252 1252 1252 1251 1251 1251 1250 1250 1249 1248 1246 1243 1242 1240 1238 1237 1236 1236 1234 1234 1234 1235 1236 1238 1239 1239 1239 1239 1240 1241 1242 1244 1245 1245 1245 1245 1245 1246 1246 1246 1247 1249 1250 1250 1251 1251 1251 1252 1252 1252 1253 1253 1254 1254 1254 1254 1255 1255 1256 1258 1270 1281 0 0 0 0 0 0 2074 2080 2087 2087 2087 2087 2087 2089 2091 2092 2096 2098 2098 2098 2098 2096 2093 2082 2069 2049 2035 2026 2015 2004 1993 1984 1978 1969 1960 1949 1937 1923 1916 1912 1910 1897 1885 1877 1869 1863 1861 1858 1852 1843 1835 1831 1824 1813 1806 1799 1791 1784 1775 1766 1759 1757 1751 1744 1739 1733 1730 1728 1723 1721 1716 1713 1711 1710 1709 1707 1706 1705 1704 1704 1705 1705 1705 1707 1710 1714 1715 1719 1724 1729 1734 1738 1741 1743 1744 1747 1747 1749 1751 1752 1754 1755 1755 1756 1756 1756 1756 1756 1756 1756 1756 1756 1756 1755 1755 1755 1754 1754 1753 1752 1751 1750 1749 1748 1747 1746 1745 1744 1743 1742 1741 1739 1738 1736 1735 1734 1733 1731 1730 1728 1726 1725 1723 1722 1720 1719 1717 1716 1714 1711 1709 1708 1706 1703 1702 1699 1698 1696 1693 1692 1689 1686 1684 1682 1680 1677 1675 1672 1669 1667 1664 1661 1660 1658 1656 1653 1652 1651 1649 1646 1645 1643 1641 1640 1639 1638 1638 1638 1638 1638 1638 1638 1638 1639 1639 1640 1643 1648 1655 1658 1660 1666 1674 1681 1688 1693 1696 1699 1700 1703 1706 1708 1709 1710 1712 1715 1716 1718 1720 1722 1724 1726 1728 1729 1732 1734 1737 1738 1740 1744 1749 1753 1756 1757 1759 1761 1763 1764 1765 1767 1767 1767 1767 1767 1767 1767 1767 1767 1764 1763 1759 1754 1748 1741 1735 1728 1721 1714 1710 1705 1702 1697 1693 1689 1686 1683 1680 1677 1675 1672 1669 1667 1664 1663 1659 1657 1655 1653 1651 1649 1646 1643 1641 1637 1634 1631 1627 1623 1619 1615 1609 1605 1601 1598 1595 1591 1591 1589 1587 1583 1578 1575 1571 1567 1562 1562 1561 1559 1556 1553 1550 1544 1542 1540 1537 1534 1532 1530 1529 1529 1529 1529 1528
2000 2019 2042 2065 2084 2088 2105 2130 2153 2169 2183 2193 2201 2217 2232 2250 2271 2292 2301 2308 2312 2313 2318 2324 2340 2344 2365 2389 2411 2433 2451 2465 2466 2468 2469 2473 2478 2485 2491 2496 2504 2510 2525 2531 2534 2535 2541 2547 2552 2554 2555 2555 2554 2552 2542 2535 2524 2502 0 0 0 0 0 0 0 0 1289 1277 1272 1269 1268 1268 1267 1267 1267 1266 1265 1264 1263 1263 1263 1261 1258 1254 1247 1233 1213 1200 1198 1194 1188 1182 1181 1181 1180 1181 1181 1181 1182 1184 1186 1187 1190 1192 1193 1199 1202 1203 1207 1211 1218 1225 1236 1245 1249 1253 1255 1257 1257 1257 1257 1257 1258 1258 1259 1259 1260 1260 1260 1261 1261 1261 1261 1260 1259 1258 1256 1256 1255 1253 1248 1245 1240 1235 1229 1226 1223 1222 1219 1215 1214 1213 1213 1213 1213 1214 1214 1215 1215 1215 1215 1216 1217 1218 1219 1221 1224 1227 1233 1239 1242 1246 1246 1249 1251 1252 1253 1254 1255 1256 1257 1257 1257 1257 1257 1257 1257 1256 1256 1256 1255 1255 1254 1254 1252 1252 1251 1250 1247 1244 1242 1238 1235 1232 1230 1229 1227 1225 1223 1222 1222 1220 1220 1220 1220 1219 1218 1218 1218 1219 1220 1220 1221 1223 1225 1229 1233 1236 1239 1242 1245 1246 1248 1249 1250 1251 1252 1253 1253 1253 1253 1253 1253 1253 1253 1253 1253 1252 1252 1252 1252 1251 1250 1250 1249 1248 1246 1243 1242 1240 1238 1236 1235 1234 1233 1233 1233 1234 1236 1236 1238 1238 1239 1239 1240 1240 1242 1243 1244 1245 1245 1245 1245 1245 1246 1246 1247 1248 1249 1250 1251 1251 1251 1252 1252 1252 1253 1253 1254 1254 1254 1254 1255 1255 1256 1258 1269 1281 0 0 0 0 0 0 2074 2080 2090 2090 2090 2089 2089 2089 2092 2094 2096 2099 2100 2103 2103 2103 2095 2083 2072 2057 2039 2027 2019 2007 1994 1984 1976 1969 1960 1949 1939 1929 1921 1916 1914 1900 1888 1880 1872 1867 1863 1861 1857 1851 1841 1837 1834 1828 1817 1806 1798 1790 1780 1770 1763 1760 1755 1749 1741 1735 1731 1728 1724 1721 1717 1714 1712 1710 1709 1707 1706 1704 1704 1704 1704 1704 1704 1705 1707 1709 1711 1716 1721 1724 1729 1733 1736 1739 1741 1744 1745 1746 1749 1750 1751 1752 1753 1753 1754 1754 1755 1755 1755 1755 1755 1755 1754 1754 1754 1753 1752 1752 1752 1752 1750 1750 1749 1748 1747 1746 1745 1744 1743 1742 1740 1739 1738 1737 1735 1734 1733 1731 1730 1728 1726 1725 1723 1721 1720 1719 1717 1715 1714 1712 1709 1708 1707 1705 1703 1700 1698 1696 1694 1692 1690 1687 1685 1683 1681 1679 1676 1673 1670 1667 1665 1663 1660 1658 1657 1655 1652 1651 1650 1647 1645 1644 1643 1640 1639 1639 1638 1637 1637 1637 1637 1637 1637 1637 1638 1639 1642 1644 1648 1652 1655 1659 1666 1674 1680 1688 1694 1697 1700 1703 1706 1708 1710 1711 1713 1716 1718 1720 1721 1723 1725 1727 1730 1732 1734 1736 1740 1741 1744 1748 1752 1754 1758 1760 1761 1762 1765 1767 1768 1768 1770 1770 1770 1770 1770 1770 1770 1768 1766 1763 1760 1754 1748 1741 1734 1725 1719 1714 1709 1705 1701 1697 1693 1689 1686 1683 1680 1677 1674 1672 1669 1666 1664 1661 1659 1657 1655 1653 1651 1648 1646 1643 1639 1636 1634 1631 1626 1622 1618 1613 1607 1603 1599 1595 1592 1589 1588 1586 1585 1581 1575 1569 1564 1561 1559 1556 1552 1550 1548 1544 1542 1539 1539 1538 1536 1533 1529 1528 1527 1527 1527 1527 1527
2000 2019 2031 2045 2064 2084 2106 2131 2155 2169 2183 2189 2201 2217 2232 2250 2270 2289 2302 2309 2314 2317 2318 2326 2340 2344 2362 2383 2411 2433 2451 2457 2457 2461 2464 2473 2478 2485 2491 2496 2502 2509 2517 2520 2527 2535 2542 2547 2553 2558 2558 2558 2557 2555 2552 2542 2529 2528 0 0 0 0 0 0 0 0 0 1281 1276 1270 1269 1268 1267 1266 1266 1266 1265 1264 1263 1263 1262 1261 1258 1254 1247 1233 1212 1198 1192 1185 1177 1172 1172 1172 1175 1175 1176 1176 1176 1177 1180 1183 1185 1189 1192 1194 1195 1197 1200 1205 1215 1225 1236 1245 1251 1253 1256 1257 1258 1259 1260 1260 1260 1261 1261 1261 1261 1261 1261 1261 1262 1262 1262 1261 1259 1259 1257 1257 1255 1253 1249 1246 1240 1235 1229 1225 1222 1218 1216 1215 1213 1212 1212 1211 1211 1211 1213 1213 1214 1214 1215 1216 1217 1218 1219 1221 1224 1227 1233 1238 1241 1243 1246 1249 1251 1252 1253 1254 1255 1256 1257 1257 1257 1257 1257 1257 1257 1257 1256 1256 1256 1255 1255 1254 1253 1252 1251 1250 1247 1244 1241 1237 1234 1232 1230 1228 1225 1223 1222 1221 1220 1219 1218 1218 1218 1218 1217 1217 1217 1218 1218 1219 1220 1220 1223 1227 1232 1235 1239 1242 1245 1246 1248 1249 1250 1252 1252 1253 1253 1253 1253 1253 1253 1253 1253 1253 1253 1252 1252 1252 1252 1251 1251 1250 1249 1248 1246 1243 1242 1240 1238 1236 1234 1233 1233 1233 1233 1234 1235 1236 1236 1237 1238 1239 1240 1240 1240 1242 1243 1244 1244 1244 1245 1245 1245 1245 1247 1247 1249 1250 1250 1251 1251 1251 1252 1252 1252 1253 1254 1254 1254 1255 1255 1256 1256 1259 1267 1274 0 0 0 0 0 0 2075 2079 2090 2090 2090 2090 2090 2093 2095 2096 2097 2100 2103 2106 2106 2106 2095 2086 2076 2060 2042 2027 2020 2009 1995 1983 1974 1966 1959 1951 1942 1932 1924 1920 1915 1903 1890 1882 1875 1870 1866 1863 1860 1857 1851 1844 1839 1836 1829 1822 1810 1799 1787 1777 1769 1765 1758 1752 1745 1738 1735 1730 1726 1722 1719 1717 1714 1711 1709 1707 1706 1704 1704 1703 1703 1703 1703 1703 1703 1704 1707 1711 1716 1720 1721 1724 1727 1733 1737 1740 1743 1745 1747 1748 1750 1751 1752 1752 1752 1753 1753 1753 1754 1754 1754 1754 1753 1753 1752 1752 1752 1751 1751 1750 1750 1749 1748 1748 1746 1745 1745 1743 1743 1742 1740 1739 1738 1737 1735 1734 1733 1731 1730 1728 1726 1725 1723 1722 1720 1719 1717 1715 1714 1712 1710 1708 1707 1705 1703 1701 1699 1697 1695 1692 1690 1688 1686 1684 1682 1679 1677 1674 1671 1668 1666 1663 1662 1659 1658 1656 1654 1652 1650 1648 1646 1645 1643 1641 1639 1639 1638 1637 1637 1637 1636 1636 1636 1636 1637 1637 1640 1641 1644 1647 1652 1653 1662 1667 1673 1680 1689 1694 1700 1702 1706 1708 1710 1712 1714 1717 1719 1721 1723 1724 1727 1730 1732 1734 1736 1738 1742 1744 1749 1753 1755 1758 1759 1762 1764 1766 1767 1769 1771 1771 1772 1772 1772 1772 1772 1772 1771 1770 1768 1765 1761 1756 1749 1741 1731 1723 1717 1711 1708 1703 1701 1697 1693 1689 1685 1682 1679 1676 1673 1670 1668 1665 1661 1659 1658 1656 1654 1651 1649 1647 1645 1642 1638 1635 1632 1628 1624 1616 1613 1608 1605 1600 1596 1591 1585 1582 1581 1581 1579 1573 1569 1565 1562 1559 1555 1552 1549 1546 1542 1540 1538 1536 1536 1535 1533 1530 1528 1526 1526 1526 1526 1525 1525
2000 2019 2031 2045 2060 2082 2107 2132 2155 2169 2183 2187 2202 2219 2232 2250 2270 2289 2303 2312 2316 2317 2319 2326 2340 2344 2362 2381 2403 2429 2451 2457 2457 2461 2464 2473 2482 2488 2491 2496 2502 2509 2515 2520 2527 2536 2543 2548 2553 2558 2558 2558 2557 2555 2552 2552 2546 2544 2510 0 0 0 0 0 0 0 0 1284 1276 1270 1269 1269 1267 1266 1266 1266 1265 1264 1263 1262 1261 1261 1258 1254 1247 1232 1211 1197 1190 1183 1173 1170 1170 1170 1172 1173 1174 1173 1173 1175 1176 1178 1184 1185 1188 1190 1193 1194 1199 1205 1213 1224 1237 1247 1251 1254 1256 1259 1259 1260 1260 1261 1262 1262 1262 1262 1262 1262 1262 1262 1262 1262 1262 1262 1260 1259 1258 1257 1255 1253 1250 1246 1241 1233 1229 1225 1220 1217 1215 1214 1213 1212 1211 1211 1211 1211 1212 1213 1213 1214 1215 1216 1217 1218 1219 1220 1223 1225 1231 1238 1240 1243 1245 1248 1251 1252 1254 1255 1255 1256 1257 1257 1257 1258 1258 1258 1257 1257 1257 1257 1256 1256 1255 1254 1253 1252 1251 1250 1247 1244 1241 1237 1234 1231 1229 1228 1225 1222 1221 1220 1219 1218 1218 1217 1217 1216 1216 1216 1216 1217 1218 1218 1219 1220 1222 1225 1230 1235 1239 1242 1245 1246 1248 1249 1251 1252 1252 1253 1253 1253 1253 1254 1254 1254 1253 1253 1253 1253 1252 1252 1252 1252 1251 1250 1249 1248 1246 1244 1243 1242 1238 1236 1234 1233 1233 1233 1233 1234 1235 1235 1236 1237 1238 1239 1240 1240 1240 1241 1243 1243 1243 1243 1244 1244 1245 1245 1246 1247 1248 1249 1250 1250 1251 1251 1252 1252 1252 1253 1254 1254 1255 1256 1256 1257 1257 1259 1267 1274 0 0 0 0 0 0 2075 2079 2088 2090 2091 2093 2093 2096 2097 2098 2099 2102 2105 2108 2108 2108 2099 2089 2080 2063 2042 2028 2020 2010 1996 1983 1973 1966 1959 1951 1942 1935 1927 1922 1916 1903 1893 1886 1879 1873 1868 1864 1862 1859 1856 1850 1847 1842 1838 1830 1821 1809 1796 1786 1777 1771 1765 1757 1750 1745 1740 1736 1731 1726 1721 1718 1715 1711 1710 1707 1706 1704 1703 1702 1701 1701 1700 1700 1700 1701 1703 1706 1713 1715 1717 1718 1721 1726 1732 1737 1740 1743 1745 1747 1748 1748 1751 1751 1751 1751 1751 1752 1752 1752 1752 1752 1752 1751 1751 1751 1750 1750 1750 1749 1749 1749 1748 1747 1746 1745 1744 1743 1743 1742 1741 1739 1738 1737 1736 1734 1733 1731 1730 1728 1727 1725 1723 1722 1720 1719 1717 1715 1714 1712 1711 1709 1707 1705 1704 1701 1699 1697 1695 1693 1691 1688 1687 1684 1683 1680 1678 1675 1672 1670 1668 1665 1663 1660 1659 1657 1654 1653 1651 1649 1647 1645 1644 1642 1640 1639 1638 1637 1637 1636 1636 1635 1635 1635 1636 1637 1637 1639 1641 1644 1646 1648 1652 1662 1667 1674 1683 1690 1698 1702 1706 1707 1710 1712 1714 1718 1719 1722 1723 1726 1728 1732 1734 1736 1739 1741 1745 1747 1753 1758 1759 1760 1762 1765 1767 1768 1770 1772 1774 1774 1775 1775 1775 1775 1775 1775 1773 1772 1769 1766 1761 1756 1749 1741 1730 1722 1716 1710 1707 1703 1699 1697 1693 1688 1684 1681 1678 1675 1672 1668 1666 1663 1660 1658 1657 1654 1652 1650 1647 1645 1642 1640 1638 1634 1628 1623 1615 1609 1606 1604 1600 1597 1593 1588 1583 1579 1575 1574 1571 1565 1562 1560 1557 1556 1553 1549 1546 1543 1540 1536 1535 1533 1532 1531 1529 1529 1527 1526 1525 1524 1523 1523 1521
1998 2016 2030 2043 2060 2082 2108 2132 2153 2169 2182 2187 2202 2221 2235 2253 2270 2289 2301 2310 2322 2329 2330 2332 2340 2345 2362 2381 2403 2429 2451 2457 2457 2461 2464 2476 2486 2494 2494 2499 2502 2510 2515 2520 2527 2536 2544 2549 2553 2556 2560 2560 2560 2559 2558 2557 2547 2545 2526 2492 0 0 0 0 0 0 0 1284 1276 1270 1269 1269 1267 1266 1266 1266 1265 1264 1263 1262 1261 1261 1258 1254 1247 1232 1210 1197 1189 1180 1172 1168 1168 1168 1169 1171 1172 1173 1173 1174 1176 1177 1181 1183 1186 1187 1188 1190 1198 1205 1212 1224 1237 1247 1252 1254 1257 1259 1259 1260 1261 1262 1263 1263 1263 1263 1263 1263 1263 1263 1263 1263 1263 1262 1260 1259 1258 1257 1255 1253 1249 1246 1241 1232 1228 1223 1219 1216 1214 1213 1213 1212 1211 1211 1211 1211 1211 1212 1213 1213 1215 1215 1217 1218 1219 1220 1221 1224 1231 1236 1240 1242 1245 1249 1251 1252 1253 1255 1255 1256 1257 1257 1258 1258 1258 1258 1257 1257 1257 1257 1256 1256 1255 1254 1253 1252 1251 1249 1247 1244 1242 1237 1234 1231 1229 1227 1225 1222 1220 1219 1218 1218 1217 1216 1215 1215 1215 1215 1216 1217 1218 1218 1219 1219 1221 1224 1230 1234 1238 1242 1245 1247 1248 1249 1251 1252 1252 1253 1253 1253 1253 1254 1254 1254 1253 1253 1253 1253 1253 1252 1252 1252 1251 1250 1249 1248 1246 1245 1244 1242 1238 1236 1234 1233 1233 1233 1234 1234 1234 1235 1236 1236 1237 1239 1240 1240 1240 1241 1242 1242 1242 1243 1243 1244 1244 1244 1246 1247 1248 1249 1250 1250 1251 1251 1252 1252 1252 1252 1253 1254 1255 1256 1256 1257 1257 1259 1266 1274 0 0 0 0 0 0 2075 2079 2088 2090 2091 2093 2095 2098 2099 2100 2103 2105 2108 2113 2113 2113 2105 2094 2082 2064 2044 2029 2021 2010 1997 1983 1973 1966 1959 1951 1943 1937 1928 1923 1916 1905 1896 1891 1882 1876 1871 1866 1863 1861 1859 1856 1853 1849 1842 1836 1828 1818 1811 1802 1790 1779 1771 1763 1754 1749 1745 1741 1738 1731 1724 1719 1715 1713 1710 1708 1706 1704 1703 1702 1701 1700 1700 1699 1699 1700 1700 1702 1707 1711 1714 1716 1718 1721 1726 1732 1737 1740 1743 1744 1746 1747 1748 1749 1749 1750 1750 1750 1751 1751 1751 1751 1751 1751 1750 1749 1749 1749 1749 1749 1748 1747 1747 1747 1745 1745 1744 1743 1743 1742 1741 1739 1738 1737 1736 1734 1733 1731 1730 1728 1727 1725 1723 1722 1721 1719 1717 1715 1714 1712 1711 1709 1707 1705 1704 1701 1700 1697 1695 1693 1692 1689 1687 1686 1683 1681 1679 1676 1674 1670 1668 1667 1664 1662 1660 1658 1655 1654 1651 1649 1648 1646 1645 1642 1641 1640 1638 1637 1637 1636 1636 1635 1635 1635 1636 1636 1636 1638 1638 1641 1644 1645 1645 1650 1659 1665 1674 1682 1691 1699 1705 1707 1710 1712 1714 1718 1720 1722 1725 1727 1730 1733 1737 1738 1741 1745 1748 1752 1757 1761 1764 1765 1766 1768 1770 1772 1773 1775 1777 1777 1778 1779 1779 1779 1779 1777 1775 1773 1770 1766 1761 1756 1749 1739 1730 1722 1714 1709 1705 1702 1698 1696 1691 1688 1684 1680 1677 1674 1671 1668 1666 1661 1660 1658 1656 1653 1650 1647 1646 1643 1640 1637 1634 1629 1624 1618 1611 1605 1601 1598 1596 1594 1588 1583 1579 1575 1570 1568 1565 1561 1558 1555 1552 1550 1545 1541 1538 1535 1534 1534 1531 1530 1529 1527 1527 1526 1526 1525 1524 1522 1519 1519 1519
1998 2016 2029 2043 2060 2082 2108 2132 2150 2168 2181 2187 2203 2221 2242 2259 2275 2291 2301 2312 2324 2333 2338 2343 2348 2354 2364 2381 2403 2429 2452 2462 2463 2465 2469 2476 2487 2494 2500 2504 2509 2512 2515 2523 2531 2539 2548 2551 2553 2556 2560 2560 2560 2559 2559 2558 2558 2551 2532 2492 2466 0 0 0 0 0 0 1284 1276 1270 1269 1269 1268 1268 1267 1266 1265 1265 1263 1262 1261 1261 1258 1254 1247 1229 1207 1195 1188 1175 1170 1167 1167 1167 1169 1171 1172 1173 1173 1174 1176 1177 1179 1182 1185 1187 1187 1189 1197 1205 1209 1224 1237 1248 1252 1254 1257 1259 1260 1261 1262 1263 1263 1263 1263 1263 1263 1263 1263 1263 1263 1263 1263 1262 1261 1260 1258 1257 1255 1253 1249 1246 1241 1232 1227 1222 1218 1215 1214 1213 1212 1212 1211 1211 1211 1211 1211 1212 1212 1213 1213 1215 1217 1218 1219 1220 1221 1224 1230 1236 1238 1242 1245 1248 1250 1252 1253 1254 1255 1256 1257 1257 1257 1258 1258 1258 1257 1257 1257 1257 1256 1256 1255 1254 1253 1252 1251 1249 1247 1244 1242 1237 1234 1231 1229 1227 1224 1222 1220 1219 1217 1217 1216 1216 1214 1214 1214 1214 1214 1216 1217 1218 1218 1219 1221 1224 1230 1234 1238 1241 1244 1247 1248 1250 1251 1252 1252 1253 1253 1253 1254 1254 1254 1254 1253 1253 1253 1253 1253 1252 1252 1252 1251 1250 1249 1248 1247 1246 1244 1242 1238 1237 1235 1234 1234 1234 1234 1234 1234 1234 1235 1236 1237 1239 1240 1240 1240 1240 1240 1241 1241 1242 1243 1244 1244 1244 1246 1247 1248 1249 1249 1250 1251 1251 1252 1252 1252 1252 1253 1254 1254 1256 1256 1257 1257 1259 1266 1277 0 0 0 0 0 0 2079 2082 2088 2090 2092 2096 2098 2100 2102 2104 2106 2108 2111 2116 2116 2116 2115 2102 2086 2065 2045 2032 2022 2011 1997 1983 1973 1966 1959 1951 1945 1940 1934 1927 1918 1907 1900 1894 1888 1882 1875 1870 1866 1863 1861 1860 1857 1852 1847 1841 1834 1827 1820 1814 1803 1791 1782 1772 1764 1757 1751 1747 1743 1736 1728 1722 1717 1714 1712 1709 1707 1705 1703 1702 1700 1699 1699 1698 1698 1698 1698 1700 1701 1705 1708 1711 1714 1718 1724 1728 1732 1737 1740 1742 1744 1745 1747 1747 1748 1748 1749 1749 1749 1749 1749 1749 1749 1749 1749 1749 1749 1749 1748 1748 1747 1747 1747 1746 1745 1744 1744 1743 1742 1742 1741 1739 1738 1737 1736 1734 1732 1731 1730 1728 1727 1725 1723 1722 1721 1719 1717 1716 1714 1713 1711 1709 1707 1706 1704 1702 1700 1698 1696 1694 1692 1690 1688 1686 1684 1681 1679 1677 1675 1672 1669 1667 1665 1663 1661 1659 1656 1654 1652 1650 1649 1647 1646 1643 1642 1641 1639 1638 1637 1636 1636 1635 1635 1635 1635 1635 1636 1637 1637 1638 1640 1642 1643 1643 1646 1654 1661 1671 1679 1690 1698 1704 1709 1712 1714 1718 1720 1723 1726 1730 1732 1735 1738 1740 1743 1748 1752 1755 1761 1765 1767 1768 1769 1771 1772 1775 1776 1778 1779 1780 1781 1781 1781 1781 1781 1780 1777 1775 1771 1767 1760 1755 1746 1738 1729 1720 1711 1707 1704 1701 1698 1694 1691 1687 1683 1680 1676 1673 1671 1668 1664 1661 1658 1657 1656 1653 1649 1646 1645 1642 1639 1635 1629 1625 1621 1616 1609 1602 1596 1594 1589 1586 1585 1581 1576 1571 1568 1567 1563 1558 1554 1552 1550 1547 1542 1539 1535 1534 1532 1530 1529 1528 1525 1525 1524 1524 1523 1522 1521 1521 1519 1519 1519
1997 2016 2031 2045 2060 2091 2113 2132 2150 2168 2174 2187 2204 2223 2243 2264 2277 2291 2303 2314 2324 2335 2345 2347 2350 2360 2369 2381 2405 2429 2452 2466 2469 2471 2476 2479 2489 2495 2500 2507 2515 2522 2529 2533 2538 2545 2548 2551 2553 2556 2561 2561 2561 2563 2561 2561 2561 2557 2542 2503 2489 0 0 0 0 0 0 1284 1277 1270 1269 1269 1268 1268 1268 1267 1266 1265 1264 1263 1261 1261 1258 1252 1239 1225 1204 1189 1180 1168 1166 1166 1166 1167 1169 1170 1171 1173 1174 1174 1175 1176 1178 1181 1184 1185 1186 1189 1197 1205 1209 1224 1238 1248 1252 1255 1257 1260 1261 1261 1263 1264 1264 1264 1264 1264 1264 1264 1264 1264 1264 1263 1263 1263 1261 1260 1259 1257 1256 1253 1250 1246 1241 1232 1225 1220 1218 1215 1213 1212 1212 1211 1210 1210 1210 1210 1211 1211 1212 1212 1212 1214 1216 1218 1219 1220 1221 1224 1230 1235 1237 1241 1245 1248 1250 1252 1253 1254 1255 1256 1257 1257 1257 1258 1258 1258 1257 1257 1257 1257 1256 1256 1255 1254 1253 1252 1250 1249 1247 1244 1241 1237 1235 1232 1229 1227 1223 1221 1219 1218 1217 1216 1215 1214 1214 1213 1213 1213 1213 1214 1215 1217 1218 1219 1221 1224 1230 1234 1239 1241 1244 1247 1248 1249 1251 1252 1252 1253 1253 1253 1254 1254 1253 1253 1253 1253 1253 1253 1253 1252 1252 1252 1251 1250 1250 1248 1248 1246 1244 1242 1239 1237 1235 1234 1234 1234 1234 1234 1234 1234 1234 1236 1237 1239 1239 1240 1240 1240 1240 1240 1241 1241 1243 1243 1244 1244 1246 1247 1249 1249 1249 1250 1250 1251 1251 1251 1251 1252 1252 1254 1254 1254 1254 1255 1255 1257 1263 1277 1282 0 0 0 0 0 2082 2083 2088 2090 2093 2096 2100 2101 2104 2107 2110 2113 2117 2119 2122 2122 2122 2110 2096 2073 2051 2037 2025 2013 1999 1987 1977 1969 1962 1955 1948 1945 1938 1931 1923 1912 1907 1899 1892 1885 1879 1874 1869 1866 1864 1863 1860 1856 1851 1845 1838 1833 1829 1824 1816 1804 1793 1784 1773 1766 1758 1751 1745 1740 1733 1724 1718 1715 1713 1711 1708 1705 1703 1702 1700 1699 1698 1698 1697 1697 1696 1696 1696 1699 1703 1707 1710 1715 1717 1721 1725 1730 1735 1738 1740 1742 1744 1745 1746 1746 1748 1748 1748 1749 1749 1749 1749 1749 1749 1748 1748 1748 1748 1747 1747 1746 1745 1745 1745 1744 1744 1743 1742 1741 1741 1739 1738 1737 1736 1734 1732 1731 1730 1728 1727 1725 1723 1722 1721 1719 1718 1716 1714 1713 1711 1709 1707 1706 1704 1702 1700 1699 1697 1694 1692 1691 1689 1686 1684 1681 1680 1678 1675 1673 1670 1668 1666 1664 1662 1659 1657 1655 1653 1651 1650 1648 1646 1645 1643 1642 1640 1639 1638 1636 1636 1635 1635 1635 1635 1635 1635 1636 1637 1638 1638 1640 1641 1642 1644 1647 1655 1661 1669 1680 1690 1701 1707 1710 1714 1717 1720 1723 1727 1731 1734 1736 1740 1743 1747 1750 1754 1759 1764 1769 1770 1771 1772 1774 1776 1777 1778 1781 1781 1783 1783 1783 1783 1783 1783 1781 1780 1777 1771 1767 1760 1753 1746 1737 1729 1716 1711 1706 1702 1699 1696 1693 1690 1687 1683 1680 1676 1673 1670 1666 1663 1660 1657 1656 1654 1652 1649 1646 1644 1642 1639 1633 1629 1624 1618 1610 1602 1595 1593 1589 1585 1583 1582 1579 1574 1571 1567 1564 1557 1554 1550 1550 1548 1545 1539 1535 1534 1532 1531 1529 1528 1525 1525 1523 1523 1523 1522 1521 1519 1519 1518 1518 1518
1991 2010 2036 2048 2069 2098 2118 2132 2150 2168 2174 2187 2208 2223 2244 2265 2283 2293 2303 2318 2328 2338 2345 2350 2350 2360 2369 2381 2405 2431 2453 2468 2476 2477 2480 2483 2489 2496 2503 2509 2517 2528 2536 2539 2543 2546 2549 2551 2553 2557 2561 2566 2566 2566 2565 2564 2563 2558 2545 2507 2489 0 0 0 0 0 0 1282 1277 1271 1270 1269 1268 1268 1268 1267 1266 1265 1264 1263 1261 1260 1258 1252 1239 1224 1204 1184 1173 1168 1166 1166 1166 1168 1168 1170 1171 1173 1174 1174 1174 1176 1178 1180 1183 1185 1186 1189 1195 1201 1209 1224 1239 1248 1252 1255 1258 1261 1262 1263 1263 1264 1264 1265 1265 1265 1264 1264 1264 1264 1264 1264 1263 1263 1262 1260 1259 1257 1256 1253 1250 1247 1242 1233 1224 1220 1217 1215 1213 1212 1211 1211 1210 1210 1210 1210 1211 1211 1211 1211 1212 1212 1215 1217 1218 1219 1222 1226 1230 1234 1237 1241 1245 1248 1250 1252 1253 1254 1255 1256 1257 1257 1257 1257 1257 1257 1257 1257 1257 1257 1256 1256 1255 1254 1253 1252 1250 1249 1247 1244 1240 1237 1235 1232 1228 1226 1222 1221 1219 1217 1217 1215 1214 1213 1213 1213 1213 1213 1213 1214 1214 1215 1217 1219 1221 1224 1231 1235 1239 1241 1244 1247 1248 1249 1250 1252 1252 1253 1253 1253 1253 1253 1253 1253 1253 1253 1253 1253 1253 1253 1252 1252 1251 1251 1250 1249 1248 1246 1245 1242 1239 1237 1236 1235 1234 1234 1234 1234 1234 1234 1234 1235 1236 1238 1239 1239 1239 1240 1240 1240 1241 1241 1243 1243 1244 1245 1246 1247 1249 1249 1249 1249 1250 1250 1251 1251 1251 1252 1252 1252 1253 1254 1254 1254 1254 1254 1262 1277 1282 0 0 0 0 0 2082 2083 2088 2092 2096 2099 2101 2103 2105 2109 2113 2115 2118 2120 2123 2123 2123 2115 2102 2079 2059 2043 2029 2017 2002 1990 1977 1970 1962 1956 1952 1947 1942 1934 1927 1918 1912 1904 1895 1887 1883 1878 1873 1870 1867 1864 1862 1859 1853 1847 1842 1838 1836 1832 1824 1813 1805 1798 1786 1774 1768 1760 1750 1743 1737 1731 1721 1718 1715 1712 1709 1708 1703 1702 1700 1699 1698 1697 1697 1696 1696 1696 1696 1696 1700 1702 1706 1708 1712 1714 1719 1723 1727 1732 1736 1739 1741 1742 1743 1745 1746 1746 1746 1746 1747 1747 1747 1747 1747 1747 1747 1747 1747 1746 1746 1746 1745 1744 1744 1744 1743 1743 1742 1741 1740 1739 1738 1736 1735 1733 1732 1731 1729 1728 1727 1725 1723 1722 1721 1719 1718 1716 1714 1712 1711 1709 1707 1706 1704 1703 1700 1699 1697 1695 1693 1691 1689 1686 1684 1682 1681 1679 1676 1674 1671 1669 1667 1665 1663 1660 1658 1656 1654 1653 1651 1649 1647 1645 1643 1642 1641 1640 1638 1637 1636 1636 1635 1635 1635 1635 1635 1635 1637 1637 1638 1639 1641 1642 1643 1646 1651 1657 1663 1671 1681 1692 1701 1707 1712 1717 1720 1723 1727 1731 1734 1737 1741 1746 1750 1753 1758 1764 1769 1772 1773 1774 1775 1776 1778 1781 1783 1783 1785 1785 1785 1785 1785 1784 1783 1781 1781 1778 1773 1767 1760 1753 1746 1736 1725 1716 1711 1705 1701 1698 1695 1691 1688 1685 1683 1679 1675 1671 1668 1665 1661 1659 1656 1654 1653 1649 1647 1645 1643 1641 1638 1630 1623 1620 1614 1604 1594 1589 1587 1585 1581 1577 1574 1574 1571 1567 1563 1559 1554 1551 1546 1544 1544 1541 1537 1534 1533 1532 1531 1527 1525 1523 1522 1522 1521 1521 1520 1520 1518 1517 1516 1516 1516
1980 2009 2029 2057 2079 2106 2126 2140 2151 2169 2174 2192 2209 2224 2245 2267 2284 2301 2312 2322 2338 2344 2346 2350 2351 2360 2369 2380 2405 2431 2455 2474 2481 2485 2485 2487 2490 2496 2505 2510 2519 2530 2536 2540 2543 2546 2550 2551 2553 2558 2563 2569 2570 2572 2572 2570 2566 2559 2545 2512 2489 0 0 0 0 0 0 1282 1279 1272 1271 1269 1269 1268 1268 1267 1266 1265 1264 1264 1262 1261 1257 1251 1239 1224 1204 1184 1173 1168 1168 1168 1168 1168 1169 1169 1171 1172 1173 1174 1174 1176 1176 1178 1182 1185 1186 1188 1193 1201 1210 1227 1239 1246 1250 1255 1258 1261 1263 1263 1264 1265 1265 1265 1265 1265 1265 1265 1264 1264 1264 1264 1263 1263 1262 1261 1259 1258 1257 1254 1251 1248 1243 1233 1224 1219 1217 1214 1213 1212 1211 1210 1209 1209 1209 1209 1209 1210 1210 1210 1211 1211 1214 1216 1217 1219 1222 1226 1229 1232 1237 1241 1245 1248 1250 1252 1253 1254 1255 1256 1257 1257 1257 1257 1257 1257 1257 1257 1257 1256 1256 1256 1255 1254 1253 1252 1250 1249 1247 1244 1240 1237 1235 1232 1228 1224 1222 1220 1219 1217 1217 1215 1214 1213 1213 1213 1213 1213 1213 1214 1214 1215 1217 1219 1222 1225 1231 1233 1238 1241 1244 1246 1248 1249 1250 1252 1252 1252 1253 1253 1253 1253 1253 1253 1253 1253 1253 1253 1253 1253 1252 1252 1251 1250 1250 1249 1248 1246 1245 1242 1239 1237 1236 1235 1235 1234 1234 1234 1234 1234 1234 1235 1236 1237 1239 1239 1239 1239 1239 1240 1241 1241 1242 1243 1245 1246 1246 1248 1249 1249 1249 1249 1250 1250 1250 1251 1251 1251 1252 1252 1253 1254 1254 1254 1254 1254 1258 1273 1279 0 0 0 0 0 2079 2083 2088 2092 2097 2100 2102 2103 2106 2109 2113 2115 2118 2120 2124 2124 2124 2116 2104 2085 2065 2050 2035 2020 2006 1991 1980 1970 1963 1957 1952 1948 1942 1936 1927 1921 1916 1907 1897 1890 1886 1882 1876 1872 1870 1866 1862 1859 1858 1853 1846 1843 1840 1837 1831 1822 1817 1812 1804 1790 1779 1771 1761 1751 1744 1736 1728 1722 1718 1714 1711 1709 1706 1703 1702 1699 1697 1697 1696 1695 1695 1693 1693 1693 1695 1698 1701 1704 1707 1711 1715 1719 1722 1724 1731 1734 1737 1740 1742 1742 1743 1744 1745 1745 1745 1745 1745 1745 1746 1746 1746 1746 1746 1746 1745 1745 1744 1744 1743 1743 1742 1742 1741 1740 1739 1738 1737 1736 1735 1733 1732 1731 1729 1728 1726 1725 1723 1722 1721 1719 1718 1716 1714 1712 1711 1709 1708 1707 1705 1703 1701 1699 1697 1695 1693 1691 1689 1687 1685 1683 1681 1679 1677 1675 1672 1670 1668 1665 1664 1661 1659 1657 1655 1653 1652 1650 1648 1646 1644 1643 1641 1641 1639 1638 1636 1636 1635 1635 1635 1635 1635 1635 1636 1636 1637 1639 1640 1642 1642 1645 1647 1652 1658 1665 1673 1684 1693 1699 1706 1712 1717 1722 1728 1732 1734 1738 1742 1749 1753 1759 1763 1769 1772 1775 1776 1777 1779 1781 1782 1784 1785 1787 1787 1788 1788 1788 1787 1785 1784 1783 1782 1780 1777 1771 1760 1753 1746 1734 1725 1716 1711 1705 1701 1698 1695 1691 1688 1685 1683 1679 1675 1670 1666 1663 1660 1658 1655 1652 1649 1646 1644 1643 1642 1636 1633 1625 1619 1616 1610 1600 1591 1583 1580 1576 1573 1569 1566 1563 1560 1557 1555 1552 1548 1545 1543 1539 1538 1536 1533 1531 1529 1528 1528 1525 1524 1523 1522 1521 1519 1518 1517 1517 1515 1510 1508 1508 1508
1975 2009 2028 2057 2079 2106 2135 2149 2167 2186 2190 2200 2211 2224 2245 2269 2287 2301 2312 2322 2338 2345 2347 2350 2351 2360 2369 2380 2400 2429 2459 2474 2486 2491 2493 2496 2498 2502 2507 2517 2523 2530 2536 2540 2543 2547 2550 2551 2553 2560 2565 2571 2574 2575 2575 2575 2571 2558 2545 2512 2466 0 0 0 0 0 0 1282 1279 1272 1271 1269 1269 1268 1268 1267 1266 1265 1264 1264 1262 1261 1258 1251 1239 1225 1205 1184 1173 1169 1169 1169 1169 1169 1168 1168 1168 1169 1170 1171 1172 1173 1174 1178 1179 1183 1185 1188 1193 1197 1211 1227 1239 1245 1250 1255 1258 1261 1263 1263 1264 1265 1265 1265 1265 1265 1265 1265 1264 1264 1264 1264 1263 1263 1262 1262 1260 1258 1257 1255 1252 1248 1243 1235 1224 1217 1213 1211 1210 1210 1210 1209 1208 1208 1208 1208 1208 1208 1209 1209 1210 1211 1213 1215 1217 1218 1222 1226 1228 1232 1237 1242 1245 1248 1249 1252 1253 1254 1255 1256 1257 1257 1257 1257 1257 1257 1257 1257 1257 1256 1256 1255 1255 1254 1253 1252 1250 1249 1247 1244 1240 1237 1235 1231 1227 1224 1222 1220 1218 1217 1216 1215 1214 1213 1213 1213 1213 1213 1213 1214 1214 1215 1217 1219 1222 1225 1231 1233 1238 1241 1244 1246 1248 1249 1250 1252 1252 1252 1253 1253 1253 1253 1253 1253 1253 1253 1253 1253 1252 1252 1252 1252 1251 1250 1250 1249 1248 1246 1245 1242 1240 1238 1237 1236 1235 1234 1234 1234 1234 1234 1234 1235 1235 1236 1237 1239 1239 1239 1239 1240 1240 1242 1242 1243 1245 1246 1246 1248 1248 1249 1249 1250 1250 1250 1251 1251 1251 1251 1252 1252 1253 1254 1254 1254 1254 1254 1258 1271 1279 0 0 0 0 0 2079 2082 2086 2092 2097 2100 2102 2104 2107 2110 2113 2117 2118 2120 2125 2125 2125 2124 2110 2092 2071 2056 2037 2021 2007 1991 1981 1971 1963 1957 1952 1949 1943 1936 1928 1924 1916 1908 1899 1893 1888 1883 1879 1875 1872 1868 1865 1861 1859 1856 1850 1847 1843 1840 1834 1831 1825 1819 1814 1807 1799 1786 1775 1761 1752 1747 1734 1725 1723 1720 1714 1710 1709 1705 1703 1700 1698 1697 1696 1695 1694 1693 1693 1693 1694 1694 1696 1699 1702 1705 1710 1715 1716 1721 1725 1729 1734 1736 1739 1740 1742 1742 1743 1744 1744 1744 1744 1744 1744 1745 1745 1745 1745 1745 1745 1744 1743 1743 1742 1742 1741 1741 1740 1739 1739 1738 1737 1736 1734 1733 1731 1730 1729 1727 1726 1725 1723 1722 1721 1719 1718 1716 1714 1712 1711 1709 1708 1707 1705 1703 1701 1699 1697 1696 1694 1692 1690 1687 1686 1684 1682 1680 1678 1676 1673 1671 1668 1667 1664 1662 1660 1657 1656 1654 1653 1651 1649 1647 1646 1644 1642 1641 1640 1639 1637 1637 1636 1635 1635 1634 1634 1634 1634 1635 1635 1636 1637 1639 1640 1641 1642 1646 1652 1660 1668 1678 1686 1693 1700 1710 1714 1721 1728 1732 1737 1741 1746 1754 1760 1764 1768 1772 1776 1780 1781 1781 1782 1784 1786 1786 1788 1790 1790 1790 1790 1790 1790 1788 1787 1785 1785 1781 1778 1773 1761 1753 1746 1734 1724 1718 1711 1705 1701 1698 1694 1691 1688 1685 1683 1679 1675 1670 1666 1662 1659 1655 1652 1649 1646 1640 1638 1636 1632 1625 1620 1612 1610 1606 1598 1592 1587 1580 1574 1572 1569 1566 1561 1559 1556 1552 1549 1546 1544 1541 1537 1537 1536 1531 1530 1529 1528 1526 1524 1523 1522 1521 1519 1519 1518 1517 1516 1514 1509 1501 1501 1501 1506
1961 1989 2021 2057 2079 2106 2135 2152 2175 2186 2200 2207 2213 2228 2248 2269 2291 2301 2312 2322 2338 2345 2346 2350 2351 2360 2369 2380 2400 2429 2461 2481 2490 2491 2494 2503 2508 2515 2519 2523 2524 2530 2536 2540 2543 2547 2551 2556 2561 2564 2567 2571 2574 2575 2575 2575 2571 2558 2545 2512 2440 0 0 0 0 0 0 1281 1279 1272 1271 1269 1268 1268 1268 1267 1266 1265 1264 1264 1262 1261 1258 1251 1237 1225 1208 1184 1175 1169 1169 1169 1169 1169 1167 1167 1167 1167 1168 1168 1169 1171 1174 1177 1179 1180 1183 1187 1191 1197 1212 1227 1238 1245 1250 1255 1259 1261 1263 1263 1264 1265 1265 1265 1265 1265 1265 1264 1264 1264 1264 1263 1263 1263 1262 1262 1260 1259 1258 1256 1252 1248 1244 1236 1225 1217 1211 1208 1208 1208 1208 1208 1207 1207 1207 1207 1207 1207 1208 1208 1208 1210 1212 1213 1216 1217 1219 1224 1228 1232 1238 1242 1244 1248 1250 1252 1253 1254 1255 1256 1257 1257 1257 1257 1257 1257 1257 1257 1256 1256 1256 1255 1255 1254 1253 1252 1250 1249 1248 1244 1240 1237 1236 1231 1227 1224 1222 1220 1218 1217 1216 1215 1214 1213 1213 1213 1213 1213 1214 1214 1215 1216 1217 1219 1222 1226 1229 1232 1238 1241 1244 1246 1248 1249 1250 1251 1251 1252 1252 1252 1252 1252 1252 1252 1252 1253 1253 1252 1252 1252 1252 1251 1251 1250 1250 1249 1248 1246 1245 1243 1241 1240 1238 1236 1235 1234 1234 1234 1234 1235 1235 1235 1235 1236 1237 1238 1239 1239 1239 1240 1241 1242 1243 1243 1244 1246 1247 1248 1248 1249 1249 1250 1250 1250 1250 1250 1251 1251 1252 1252 1253 1253 1254 1254 1254 1254 1258 1271 1282 0 0 0 0 0 2078 2082 2086 2092 2097 2100 2103 2105 2107 2110 2114 2117 2118 2121 2125 2127 2127 2127 2120 2101 2081 2061 2039 2023 2008 1992 1983 1975 1963 1958 1954 1949 1943 1937 1931 1926 1917 1908 1903 1896 1891 1887 1883 1879 1876 1872 1868 1866 1863 1859 1854 1849 1846 1843 1840 1836 1830 1826 1824 1819 1813 1801 1787 1771 1763 1756 1746 1732 1725 1724 1718 1712 1710 1707 1705 1702 1700 1697 1696 1695 1694 1693 1692 1692 1692 1694 1694 1695 1698 1701 1705 1711 1714 1716 1721 1724 1730 1734 1736 1738 1740 1741 1743 1743 1743 1743 1743 1743 1744 1744 1744 1744 1744 1744 1743 1743 1742 1742 1742 1741 1741 1740 1740 1739 1738 1737 1736 1736 1734 1733 1731 1730 1729 1727 1726 1725 1723 1722 1721 1719 1718 1716 1714 1712 1711 1709 1708 1707 1705 1703 1701 1699 1698 1696 1695 1692 1691 1688 1686 1684 1682 1681 1678 1676 1673 1671 1669 1667 1665 1663 1661 1658 1657 1655 1653 1652 1650 1649 1646 1645 1643 1642 1641 1640 1639 1637 1636 1635 1635 1634 1634 1634 1634 1634 1634 1635 1635 1637 1638 1639 1640 1640 1645 1651 1663 1672 1681 1689 1696 1703 1713 1720 1727 1732 1737 1743 1748 1758 1764 1768 1771 1775 1780 1782 1783 1784 1786 1788 1788 1790 1791 1793 1793 1793 1793 1793 1792 1791 1790 1789 1786 1783 1780 1773 1761 1753 1746 1733 1724 1718 1711 1705 1701 1697 1694 1691 1688 1686 1683 1679 1674 1670 1665 1661 1658 1655 1651 1647 1642 1639 1637 1634 1625 1618 1611 1607 1601 1594 1589 1585 1581 1575 1568 1565 1564 1560 1555 1553 1552 1549 1546 1543 1540 1538 1534 1532 1531 1530 1530 1529 1527 1524 1522 1519 1518 1516 1515 1515 1515 1514 1513 1509 1505 1498 1498 1498 1504
0 0 0 2029 2074 2100 2135 2152 2175 2186 2200 2207 2213 2228 2260 2283 2292 2297 2302 2312 2326 2345 2345 2355 2357 2360 2373 2390 2400 2431 2461 2481 2490 2491 2494 2503 2508 2515 2519 2523 2524 2526 2528 2533 2541 2548 2553 2558 2563 2568 2569 2571 2574 2575 2575 2575 2571 2558 2536 2484 2439 0 0 0 0 0 0 1281 1278 1270 1269 1269 1268 1268 1268 1267 1266 1265 1264 1264 1262 1261 1258 1250 1237 1226 1209 1186 1175 1169 1169 1169 1168 1168 1164 1164 1164 1165 1166 1166 1166 1169 1171 1176 1179 1180 1181 1185 1190 1197 1212 1226 1237 1245 1250 1255 1260 1262 1263 1263 1264 1265 1265 1265 1265 1265 1265 1265 1264 1264 1264 1263 1263 1263 1262 1262 1261 1259 1258 1256 1253 1249 1245 1236 1225 1217 1211 1208 1207 1207 1206 1206 1206 1206 1206 1206 1206 1206 1206 1207 1207 1209 1210 1211 1214 1216 1219 1221 1227 1232 1238 1242 1244 1247 1250 1251 1253 1254 1255 1256 1256 1257 1257 1257 1257 1256 1256 1256 1256 1255 1255 1255 1254 1254 1253 1252 1251 1249 1248 1244 1241 1238 1236 1231 1227 1224 1222 1220 1218 1217 1216 1215 1214 1214 1214 1213 1213 1213 1215 1215 1216 1217 1217 1219 1222 1226 1229 1232 1236 1241 1243 1245 1248 1249 1249 1250 1251 1252 1252 1252 1252 1252 1252 1252 1252 1252 1252 1252 1252 1252 1252 1251 1251 1250 1250 1249 1248 1246 1245 1243 1242 1241 1238 1237 1236 1236 1235 1235 1235 1235 1235 1235 1235 1236 1237 1238 1239 1239 1239 1240 1241 1242 1243 1243 1244 1246 1247 1248 1248 1249 1249 1250 1250 1250 1250 1250 1250 1251 1251 1252 1252 1252 1254 1254 1255 1256 1259 1271 1283 0 0 0 0 0 2078 2082 2086 2092 2097 2100 2103 2106 2108 2110 2115 2117 2120 2122 2125 2127 2127 2127 2123 2109 2086 2062 2041 2024 2011 1999 1988 1980 1969 1962 1957 1951 1943 1937 1933 1927 1919 1912 1906 1899 1895 1891 1887 1884 1881 1877 1874 1871 1867 1864 1859 1855 1850 1847 1844 1840 1837 1836 1831 1826 1820 1811 1798 1786 1776 1770 1761 1749 1735 1728 1722 1716 1712 1710 1707 1703 1701 1699 1697 1695 1694 1692 1691 1691 1691 1692 1693 1694 1696 1699 1701 1706 1710 1713 1715 1719 1726 1730 1734 1737 1739 1741 1741 1742 1742 1742 1742 1743 1743 1743 1743 1743 1743 1743 1742 1742 1741 1741 1741 1741 1740 1740 1739 1738 1737 1736 1736 1735 1734 1733 1731 1730 1728 1726 1726 1724 1723 1722 1720 1719 1717 1716 1714 1712 1711 1709 1708 1707 1705 1703 1701 1700 1698 1697 1695 1693 1691 1689 1687 1685 1683 1681 1679 1676 1674 1672 1670 1668 1665 1663 1661 1658 1657 1655 1654 1653 1651 1649 1648 1646 1644 1643 1642 1641 1639 1638 1637 1636 1636 1635 1634 1634 1634 1634 1634 1634 1634 1635 1637 1639 1639 1640 1642 1648 1654 1666 1673 1682 1691 1701 1707 1719 1725 1732 1737 1744 1752 1761 1769 1773 1776 1779 1782 1784 1785 1787 1789 1791 1793 1793 1795 1796 1796 1797 1797 1797 1795 1794 1794 1793 1789 1786 1781 1773 1761 1750 1742 1731 1724 1718 1712 1705 1701 1698 1694 1691 1688 1686 1683 1679 1674 1669 1665 1660 1657 1655 1651 1646 1642 1638 1633 1626 1617 1609 1603 1600 1593 1590 1587 1582 1578 1571 1567 1563 1560 1554 1549 1547 1547 1545 1542 1540 1537 1533 1530 1528 1528 1528 1527 1525 1524 1522 1520 1517 1516 1515 1514 1514 1512 1510 1509 1507 1502 1497 1497 1497 1504
0 0 0 0 0 0 0 2152 2175 2179 2200 2207 2213 2228 2260 2283 2292 2294 2300 2312 2326 2341 2344 2355 2367 2379 2390 2390 2412 2441 2461 2481 2489 2490 2494 2503 2508 2515 2519 2519 2520 2523 2523 2526 2541 2551 2558 2562 2568 2569 2569 2569 2569 2569 2566 2564 2558 2544 2518 2464 2409 0 0 0 0 0 0 1281 1278 1270 1269 1269 1268 1268 1267 1267 1266 1265 1263 1263 1262 1261 1258 1250 1239 1226 1209 1186 1176 1169 1169 1168 1167 1167 1164 1164 1164 1164 1164 1164 1166 1166 1169 1172 1177 1179 1179 1181 1189 1200 1213 1225 1236 1243 1249 1256 1260 1262 1263 1264 1264 1265 1265 1265 1265 1265 1265 1265 1264 1264 1264 1263 1263 1263 1262 1262 1261 1259 1258 1256 1253 1250 1246 1236 1226 1217 1211 1208 1206 1206 1205 1205 1205 1205 1205 1205 1205 1205 1206 1206 1206 1207 1208 1210 1211 1214 1218 1221 1227 1232 1238 1242 1244 1247 1249 1251 1252 1253 1254 1255 1256 1256 1256 1256 1256 1256 1256 1256 1255 1255 1255 1255 1254 1253 1252 1252 1251 1249 1248 1244 1241 1238 1236 1230 1227 1224 1222 1220 1218 1217 1216 1215 1215 1214 1214 1214 1214 1215 1216 1217 1217 1217 1218 1219 1223 1226 1229 1232 1236 1240 1243 1245 1247 1248 1249 1250 1251 1251 1251 1252 1252 1252 1252 1252 1252 1252 1252 1252 1251 1251 1251 1251 1251 1250 1249 1249 1248 1246 1245 1244 1243 1242 1239 1238 1238 1237 1237 1236 1236 1236 1236 1236 1236 1236 1237 1238 1239 1239 1239 1240 1241 1242 1243 1243 1244 1246 1247 1248 1248 1248 1249 1250 1250 1250 1250 1250 1250 1251 1251 1252 1252 1252 1253 1254 1255 1256 1261 1274 1289 0 0 0 0 0 2079 2095 2097 2098 2099 2101 2103 2107 2108 2111 2115 2118 2120 2123 2125 2127 2127 2127 2124 2113 2092 2066 2043 2026 2014 2002 1994 1988 1976 1966 1959 1951 1946 1941 1935 1929 1923 1916 1910 1904 1901 1898 1894 1890 1886 1882 1878 1874 1869 1866 1863 1861 1859 1852 1848 1845 1844 1842 1837 1832 1826 1821 1816 1809 1799 1788 1775 1764 1752 1738 1726 1722 1718 1714 1710 1707 1703 1700 1697 1695 1694 1692 1692 1691 1691 1691 1692 1693 1694 1697 1699 1702 1705 1709 1711 1715 1722 1727 1731 1734 1736 1739 1740 1740 1741 1742 1742 1742 1742 1742 1742 1742 1742 1742 1741 1740 1740 1739 1739 1739 1739 1739 1739 1738 1736 1736 1735 1734 1734 1732 1731 1729 1728 1726 1725 1724 1723 1722 1720 1719 1717 1715 1714 1712 1711 1710 1708 1707 1705 1703 1702 1700 1699 1697 1695 1693 1691 1689 1687 1686 1684 1681 1679 1677 1674 1673 1670 1668 1666 1664 1661 1660 1658 1656 1655 1654 1651 1650 1648 1647 1645 1644 1643 1642 1640 1639 1638 1636 1636 1635 1634 1634 1634 1633 1633 1633 1634 1635 1636 1636 1639 1640 1641 1645 1651 1657 1665 1673 1683 1691 1698 1709 1720 1731 1737 1747 1754 1763 1770 1776 1781 1783 1786 1788 1790 1790 1792 1794 1795 1797 1798 1799 1799 1799 1799 1799 1799 1797 1797 1796 1794 1790 1783 1773 1761 1746 1737 1731 1723 1718 1712 1706 1702 1698 1695 1691 1688 1686 1683 1678 1673 1668 1663 1659 1656 1653 1648 1641 1633 1629 1624 1618 1611 1605 1599 1596 1589 1587 1583 1580 1574 1565 1562 1559 1555 1550 1547 1544 1543 1542 1539 1536 1534 1530 1526 1523 1523 1523 1522 1522 1522 1519 1517 1514 1511 1510 1509 1507 1505 1503 1502 1499 1498 1497 1497 1497 1504
1858 1890 0 0 0 0 0 0 0 0 2170 2188 2198 2227 2260 2283 2291 2293 2295 2305 2325 2340 2343 2355 2367 2379 2391 2412 2424 2441 2458 2472 2480 2481 2482 2493 2507 2510 2518 2518 2519 2520 2520 2526 2537 2551 2561 2566 2571 2571 2571 2571 2567 2566 2560 2556 2548 2539 2502 2445 2403 0 0 0 0 0 0 1281 1277 1269 1267 1267 1267 1267 1267 1267 1266 1265 1263 1262 1262 1260 1258 1250 1240 1229 1210 1186 1176 1168 1166 1165 1165 1165 1164 1162 1162 1162 1163 1163 1164 1165 1167 1171 1174 1176 1177 1179 1189 1200 1212 1224 1234 1241 1249 1256 1260 1262 1263 1264 1264 1265 1265 1265 1265 1265 1264 1264 1264 1264 1264 1263 1263 1263 1262 1262 1261 1260 1258 1257 1254 1250 1247 1238 1227 1218 1212 1209 1206 1204 1204 1203 1203 1203 1203 1203 1204 1204 1204 1205 1206 1207 1208 1208 1210 1212 1217 1221 1225 1232 1238 1241 1244 1247 1249 1251 1252 1253 1254 1255 1255 1255 1255 1255 1256 1255 1255 1255 1255 1255 1255 1254 1254 1253 1252 1252 1251 1249 1248 1244 1241 1238 1235 1230 1227 1223 1222 1220 1218 1217 1217 1216 1216 1215 1215 1215 1215 1216 1217 1218 1218 1218 1220 1222 1224 1228 1231 1232 1236 1240 1242 1244 1246 1248 1248 1250 1250 1250 1251 1251 1251 1251 1251 1251 1251 1252 1251 1251 1251 1251 1251 1251 1251 1250 1249 1249 1248 1247 1245 1244 1243 1242 1240 1239 1238 1238 1238 1238 1237 1237 1237 1237 1237 1237 1237 1238 1239 1240 1240 1240 1241 1242 1244 1244 1245 1246 1247 1248 1248 1249 1249 1249 1250 1250 1250 1250 1250 1251 1251 1252 1252 1252 1252 1254 1256 1259 1262 1274 1291 0 0 0 0 0 2079 2100 2101 2101 2102 2103 2105 2108 2109 2113 2116 2119 2121 2123 2125 2125 2125 2125 2125 2115 2100 2078 2050 2029 2017 2006 1998 1991 1980 1970 1965 1958 1952 1946 1938 1932 1927 1922 1916 1911 1907 1904 1901 1897 1891 1886 1881 1877 1873 1869 1866 1865 1864 1860 1854 1852 1850 1848 1843 1837 1832 1827 1824 1820 1811 1800 1788 1776 1765 1750 1733 1725 1723 1720 1714 1708 1703 1703 1699 1696 1694 1692 1692 1691 1691 1691 1692 1693 1694 1695 1697 1697 1701 1705 1708 1711 1716 1722 1727 1730 1733 1735 1737 1739 1739 1739 1740 1740 1741 1741 1741 1741 1741 1740 1740 1740 1740 1739 1738 1738 1738 1738 1738 1737 1736 1735 1734 1733 1733 1731 1730 1729 1727 1726 1724 1723 1722 1721 1719 1718 1716 1715 1714 1712 1711 1710 1708 1707 1705 1704 1702 1701 1699 1697 1695 1694 1692 1690 1688 1686 1684 1681 1680 1677 1675 1674 1671 1669 1667 1664 1663 1661 1659 1657 1656 1654 1653 1651 1650 1649 1647 1646 1644 1643 1641 1640 1638 1637 1637 1636 1635 1634 1634 1633 1633 1633 1633 1634 1635 1636 1637 1639 1639 1641 1646 1650 1655 1666 1678 1686 1692 1702 1715 1727 1736 1747 1755 1763 1771 1779 1784 1788 1791 1791 1793 1795 1797 1797 1798 1800 1801 1802 1802 1802 1802 1801 1801 1801 1801 1801 1798 1792 1784 1773 1761 1746 1737 1731 1723 1718 1712 1707 1703 1698 1694 1691 1688 1686 1682 1675 1667 1662 1660 1658 1655 1650 1642 1634 1628 1622 1618 1612 1606 1600 1593 1587 1583 1579 1577 1577 1574 1565 1558 1554 1550 1547 1542 1540 1539 1537 1534 1532 1529 1528 1522 1518 1517 1517 1517 1517 1517 1516 1515 1511 1509 1507 1505 1503 1501 1498 1495 1493 1493 1493 1493 1495 1495
1858 1890 1935 1936 1954 2008 2046 2048 2053 2075 0 0 0 0 0 0 2271 2288 2292 2304 2320 2340 2342 2353 2367 2379 2391 2412 2425 2441 2452 2462 2466 2468 2474 2481 2496 2501 2512 2514 2516 2518 2520 2526 2537 2551 2561 2566 2571 2572 2572 2572 2567 2566 2560 2552 2547 2523 2481 2445 2395 0 0 0 0 0 0 1282 1276 1267 1267 1267 1267 1267 1267 1267 1266 1265 1263 1262 1260 1258 1255 1250 1242 1229 1211 1187 1176 1168 1163 1163 1163 1163 1163 1162 1162 1162 1162 1162 1162 1163 1163 1167 1172 1175 1175 1176 1179 1200 1212 1222 1233 1241 1249 1256 1259 1261 1262 1264 1264 1264 1265 1265 1265 1264 1264 1264 1264 1264 1264 1263 1263 1263 1262 1262 1261 1260 1259 1257 1255 1252 1247 1238 1228 1219 1212 1209 1206 1204 1202 1202 1202 1202 1203 1203 1203 1204 1204 1205 1206 1207 1208 1208 1210 1212 1217 1221 1225 1232 1237 1241 1244 1247 1249 1250 1252 1253 1254 1254 1254 1254 1255 1255 1255 1254 1254 1254 1254 1254 1254 1253 1253 1253 1252 1252 1250 1249 1248 1244 1242 1239 1235 1230 1227 1223 1222 1220 1218 1217 1217 1216 1216 1215 1215 1215 1216 1218 1219 1219 1221 1222 1222 1224 1227 1230 1233 1233 1236 1239 1242 1244 1245 1247 1248 1250 1250 1250 1250 1250 1250 1250 1250 1250 1250 1251 1251 1251 1251 1251 1251 1251 1250 1250 1249 1249 1248 1247 1246 1245 1243 1242 1240 1239 1239 1239 1239 1239 1238 1238 1238 1238 1238 1238 1238 1239 1240 1240 1241 1241 1242 1242 1244 1245 1245 1246 1247 1248 1249 1249 1249 1249 1250 1250 1250 1250 1250 1251 1251 1252 1252 1252 1252 1254 1257 1259 1265 1274 1293 0 0 0 0 0 2084 2101 2101 2103 2104 2105 2107 2109 2110 2114 2116 2119 2121 2123 2123 2125 2125 2125 2125 2122 2112 2092 2067 2039 2022 2012 2005 1993 1984 1975 1967 1962 1955 1949 1941 1937 1934 1929 1923 1917 1914 1911 1908 1903 1898 1891 1884 1880 1878 1874 1872 1868 1866 1864 1860 1857 1856 1854 1851 1843 1838 1831 1827 1822 1816 1805 1795 1784 1770 1760 1746 1732 1727 1723 1719 1711 1705 1704 1700 1698 1695 1694 1693 1693 1691 1691 1691 1692 1692 1693 1694 1696 1699 1701 1703 1706 1710 1716 1720 1725 1728 1731 1733 1736 1737 1738 1738 1738 1739 1739 1740 1740 1740 1740 1739 1739 1739 1738 1738 1737 1737 1737 1736 1735 1735 1734 1733 1732 1732 1731 1728 1728 1727 1725 1724 1723 1722 1720 1718 1717 1716 1715 1714 1712 1711 1710 1708 1707 1706 1704 1703 1701 1699 1697 1696 1694 1693 1691 1689 1687 1685 1683 1681 1679 1677 1674 1671 1669 1667 1666 1663 1662 1660 1658 1656 1655 1654 1652 1651 1649 1648 1646 1645 1643 1641 1640 1638 1638 1637 1636 1635 1634 1634 1633 1633 1633 1633 1633 1634 1634 1635 1636 1637 1640 1643 1646 1651 1659 1672 1681 1688 1697 1713 1725 1736 1747 1755 1764 1773 1780 1787 1791 1792 1792 1795 1798 1800 1801 1802 1803 1804 1805 1805 1805 1805 1805 1805 1805 1804 1803 1800 1793 1785 1773 1758 1746 1737 1731 1723 1718 1713 1710 1704 1698 1694 1691 1687 1684 1678 1670 1665 1661 1660 1657 1652 1646 1637 1629 1623 1618 1613 1606 1600 1596 1590 1584 1580 1572 1571 1571 1569 1564 1554 1550 1547 1545 1541 1537 1534 1532 1531 1529 1527 1525 1520 1517 1514 1513 1513 1513 1513 1513 1513 1509 1507 1506 1504 1502 1500 1498 1495 1491 1491 1491 1491 1495 1495
1929 1935 1954 1954 1955 2008 2046 2048 2053 2065 2065 0 0 0 0 0 0 0 2259 2290 2312 2322 2326 2351 2366 2379 2391 2412 2425 2440 2446 2455 2462 2467 2468 2471 2489 2492 2506 2513 2514 2514 2521 2528 2537 2551 2561 2566 2571 2572 2572 2572 2568 2567 2560 2552 2526 2507 2467 2445 2385 0 0 0 0 0 0 1282 1274 1266 1266 1266 1266 1266 1266 1266 1265 1265 1263 1262 1260 1258 1255 1250 1244 1229 1215 1187 1177 1169 1163 1162 1162 1161 1161 1161 1161 1161 1161 1161 1161 1161 1161 1161 1168 1172 1173 1173 1178 1189 1209 1218 1233 1241 1249 1256 1258 1260 1262 1263 1263 1264 1265 1265 1265 1264 1264 1264 1263 1263 1263 1263 1263 1263 1262 1262 1261 1260 1259 1257 1256 1252 1245 1238 1230 1219 1212 1209 1205 1204 1202 1201 1201 1201 1203 1203 1203 1203 1204 1205 1206 1207 1208 1208 1210 1212 1217 1221 1225 1232 1237 1241 1243 1247 1249 1250 1251 1252 1253 1254 1254 1254 1254 1254 1254 1254 1253 1253 1253 1253 1253 1252 1252 1252 1252 1251 1250 1248 1248 1245 1242 1239 1235 1230 1227 1223 1223 1222 1222 1219 1219 1218 1218 1218 1218 1218 1218 1219 1221 1222 1223 1224 1225 1226 1229 1232 1234 1235 1236 1239 1242 1243 1244 1246 1248 1248 1248 1248 1248 1248 1248 1249 1249 1249 1249 1249 1249 1250 1250 1250 1250 1250 1250 1250 1249 1248 1247 1247 1246 1245 1244 1242 1241 1241 1241 1241 1240 1240 1240 1240 1240 1239 1239 1239 1240 1240 1241 1242 1243 1244 1245 1245 1246 1246 1246 1247 1247 1248 1248 1249 1249 1249 1250 1250 1250 1250 1250 1251 1251 1252 1252 1252 1252 1254 1257 1259 1265 1274 1294 0 0 0 0 0 2084 2101 2101 2103 2106 2106 2107 2110 2111 2114 2116 2119 2121 2121 2123 2124 2125 2126 2126 2126 2121 2107 2086 2055 2028 2022 2011 2000 1988 1979 1969 1964 1958 1949 1946 1941 1939 1934 1929 1923 1920 1917 1914 1910 1904 1895 1890 1887 1884 1880 1877 1875 1871 1867 1863 1860 1857 1855 1854 1849 1844 1834 1829 1825 1821 1816 1805 1793 1780 1767 1758 1747 1733 1726 1723 1718 1710 1706 1703 1700 1697 1696 1696 1694 1692 1691 1691 1691 1691 1691 1692 1694 1694 1698 1699 1702 1704 1707 1712 1717 1723 1726 1730 1733 1734 1734 1735 1735 1737 1738 1739 1739 1739 1739 1738 1738 1738 1738 1737 1737 1736 1735 1735 1735 1733 1733 1732 1731 1730 1730 1728 1727 1726 1725 1724 1722 1721 1720 1718 1717 1716 1715 1714 1712 1711 1710 1708 1707 1706 1704 1703 1701 1699 1698 1696 1695 1693 1691 1689 1687 1685 1683 1682 1680 1677 1675 1672 1670 1669 1667 1664 1662 1661 1659 1658 1655 1655 1653 1652 1650 1648 1647 1645 1644 1642 1641 1640 1638 1637 1636 1635 1634 1634 1633 1632 1632 1632 1632 1633 1634 1635 1635 1635 1638 1642 1646 1651 1654 1659 1672 1680 1689 1703 1717 1729 1745 1754 1763 1776 1783 1790 1792 1792 1795 1798 1801 1804 1806 1806 1807 1809 1809 1810 1810 1810 1810 1810 1810 1808 1805 1801 1795 1785 1773 1758 1746 1737 1731 1723 1718 1713 1710 1704 1698 1694 1691 1686 1682 1675 1669 1664 1660 1657 1656 1650 1639 1629 1622 1618 1614 1608 1600 1593 1588 1584 1580 1575 1570 1566 1563 1561 1559 1553 1547 1544 1540 1539 1535 1533 1531 1529 1527 1525 1523 1520 1516 1514 1513 1510 1509 1509 1509 1509 1508 1505 1504 1503 1501 1499 1497 1494 1491 1491 1491 1491 1491 1493
1964 1986 2008 2020 2021 2030 2046 2048 2053 2065 2065 0 0 0 0 0 2171 2179 2180 2234 2267 2316 2325 2338 2353 2375 2390 2406 2424 2438 2445 2454 2461 2465 2468 2469 2472 2483 2498 2507 2510 2513 2522 2530 2541 2551 2561 2564 2569 2572 2572 2572 2568 2567 2560 2547 2522 2489 2467 2454 0 0 0 0 0 0 0 1282 1271 1266 1266 1266 1266 1266 1266 1266 1265 1265 1263 1261 1260 1258 1255 1250 1244 1230 1215 1197 1179 1170 1163 1161 1161 1161 1161 1161 1161 1161 1161 1161 1161 1161 1161 1161 1162 1170 1172 1173 1178 1189 1209 1218 1231 1241 1249 1256 1258 1259 1261 1262 1262 1263 1264 1264 1264 1264 1264 1263 1263 1263 1263 1263 1263 1263 1262 1262 1261 1261 1259 1258 1257 1253 1245 1239 1230 1219 1212 1206 1205 1204 1202 1201 1201 1201 1202 1203 1203 1203 1205 1206 1207 1208 1208 1209 1212 1214 1217 1221 1226 1232 1237 1241 1243 1246 1249 1250 1251 1252 1252 1253 1253 1253 1253 1253 1253 1253 1253 1253 1252 1252 1252 1252 1252 1251 1251 1249 1249 1248 1248 1246 1244 1240 1236 1230 1227 1227 1227 1227 1226 1224 1221 1220 1219 1219 1219 1219 1220 1223 1226 1226 1227 1227 1227 1228 1230 1233 1235 1236 1236 1240 1242 1243 1243 1245 1246 1246 1246 1246 1246 1246 1247 1247 1247 1247 1248 1248 1248 1248 1249 1249 1249 1249 1248 1248 1248 1247 1247 1246 1246 1246 1245 1245 1244 1244 1244 1243 1243 1242 1242 1241 1241 1241 1241 1241 1241 1241 1241 1243 1243 1244 1245 1245 1246 1246 1247 1247 1247 1248 1248 1249 1249 1250 1250 1250 1250 1250 1250 1250 1251 1251 1252 1252 1252 1254 1257 1259 1265 1274 1294 0 0 0 0 0 2084 2091 2099 2104 2106 2107 2109 2110 2112 2114 2115 2118 2119 2120 2121 2124 2124 2126 2126 2126 2121 2108 2093 2071 2044 2029 2020 2008 1996 1983 1975 1970 1962 1955 1950 1946 1942 1937 1933 1928 1925 1923 1921 1917 1909 1902 1898 1895 1891 1885 1882 1880 1878 1875 1871 1868 1863 1858 1857 1852 1848 1841 1835 1832 1830 1827 1819 1808 1798 1787 1778 1765 1751 1737 1727 1724 1717 1709 1705 1701 1698 1698 1697 1696 1692 1690 1689 1689 1689 1689 1689 1690 1692 1694 1696 1699 1699 1702 1705 1709 1717 1722 1725 1728 1728 1730 1730 1732 1734 1736 1737 1737 1737 1737 1737 1737 1737 1737 1737 1736 1735 1735 1735 1733 1733 1732 1731 1730 1729 1728 1727 1726 1725 1725 1723 1721 1720 1719 1718 1717 1715 1714 1714 1712 1711 1710 1709 1707 1706 1704 1703 1701 1699 1698 1697 1695 1693 1691 1690 1687 1686 1684 1682 1680 1678 1676 1674 1671 1669 1668 1665 1663 1661 1660 1658 1657 1655 1654 1653 1651 1649 1648 1646 1645 1643 1641 1640 1639 1637 1636 1635 1634 1634 1633 1632 1632 1632 1632 1632 1633 1634 1635 1635 1637 1641 1644 1648 1651 1653 1658 1670 1680 1693 1706 1722 1736 1751 1763 1776 1784 1790 1792 1796 1797 1800 1806 1808 1809 1809 1810 1812 1814 1815 1815 1815 1815 1814 1813 1811 1807 1804 1798 1786 1773 1756 1746 1737 1731 1723 1717 1714 1710 1704 1698 1693 1691 1685 1682 1674 1668 1660 1654 1647 1643 1637 1628 1621 1614 1612 1606 1601 1595 1590 1584 1579 1575 1571 1568 1564 1560 1556 1553 1550 1547 1542 1537 1533 1532 1529 1527 1526 1524 1522 1520 1517 1516 1513 1512 1510 1507 1506 1505 1505 1503 1502 1502 1501 1499 1498 1496 1490 1490 1490 1491 1491 1491 1491
1983 2006 2031 2054 2070 2080 2113 2119 2119 2119 2075 0 0 0 0 2166 2171 2179 2180 2199 2267 2270 2291 2308 2321 2342 2371 2403 2424 2436 2444 2452 2456 2464 2464 2466 2471 2479 2484 2494 2501 2509 2522 2530 2542 2552 2561 2564 2567 2568 2568 2568 2568 2565 2560 2546 2518 2483 0 0 0 0 0 0 0 0 1282 1281 1269 1265 1265 1265 1266 1266 1266 1266 1265 1265 1263 1261 1260 1258 1255 1250 1245 1230 1215 1197 1180 1170 1163 1161 1161 1161 1161 1161 1161 1161 1162 1162 1162 1161 1161 1161 1162 1170 1172 1172 1177 1187 1208 1218 1230 1241 1249 1256 1258 1259 1260 1261 1262 1263 1263 1263 1263 1263 1263 1262 1262 1262 1262 1262 1262 1262 1262 1262 1261 1261 1260 1258 1257 1253 1245 1240 1232 1220 1209 1206 1205 1204 1202 1201 1201 1201 1203 1203 1203 1203 1205 1207 1209 1210 1211 1212 1214 1216 1219 1222 1227 1232 1237 1241 1243 1246 1248 1250 1250 1251 1252 1252 1252 1252 1251 1251 1251 1251 1251 1251 1251 1250 1250 1250 1250 1250 1249 1249 1249 1248 1248 1246 1244 1242 1238 1234 1232 1230 1229 1229 1227 1225 1225 1223 1223 1223 1223 1225 1226 1227 1228 1231 1231 1231 1232 1232 1232 1234 1236 1236 1236 1240 1242 1242 1243 1243 1243 1244 1245 1245 1245 1245 1245 1245 1245 1245 1246 1246 1246 1247 1247 1247 1247 1246 1246 1246 1246 1245 1245 1245 1245 1245 1245 1245 1245 1244 1244 1244 1243 1243 1242 1242 1242 1242 1242 1242 1242 1242 1242 1243 1243 1244 1245 1245 1246 1246 1247 1247 1247 1248 1248 1249 1250 1250 1250 1250 1250 1250 1250 1250 1251 1252 1252 1252 1252 1253 1255 1259 1264 1271 1294 0 0 0 0 0 2083 2091 2099 2104 2106 2109 2110 2112 2112 2114 2114 2115 2117 2119 2121 2122 2124 2126 2126 2126 2121 2109 2096 2082 2054 2037 2028 2017 2005 1989 1982 1977 1970 1963 1957 1948 1945 1943 1939 1933 1930 1929 1926 1922 1916 1910 1905 1902 1896 1891 1887 1885 1883 1881 1878 1875 1869 1864 1859 1856 1854 1851 1843 1841 1837 1832 1827 1820 1813 1804 1793 1783 1771 1759 1744 1730 1722 1712 1707 1701 1698 1698 1698 1697 1693 1690 1689 1688 1687 1687 1688 1688 1689 1691 1693 1695 1698 1699 1701 1704 1710 1716 1719 1721 1724 1725 1727 1728 1731 1733 1736 1736 1736 1736 1736 1736 1736 1736 1736 1735 1734 1734 1733 1732 1732 1731 1730 1729 1727 1726 1726 1725 1725 1723 1722 1721 1720 1719 1718 1717 1715 1714 1713 1712 1711 1710 1708 1707 1706 1704 1703 1701 1700 1699 1697 1695 1694 1692 1690 1688 1687 1685 1683 1680 1679 1676 1675 1673 1671 1668 1666 1664 1662 1661 1659 1657 1656 1655 1654 1652 1650 1648 1647 1645 1643 1642 1640 1639 1638 1636 1635 1634 1634 1633 1632 1632 1631 1631 1631 1632 1633 1634 1634 1636 1640 1643 1646 1649 1650 1654 1662 1671 1682 1696 1716 1733 1743 1763 1776 1784 1790 1795 1796 1799 1804 1808 1810 1810 1812 1814 1815 1817 1818 1818 1818 1818 1817 1817 1815 1812 1808 1800 1790 1773 1754 1745 1737 1729 1722 1717 1714 1710 1702 1695 1693 1689 1680 1674 1670 1661 1655 1648 1642 1637 1630 1624 1615 1611 1608 1604 1598 1592 1586 1581 1575 1570 1567 1564 1561 1557 1552 1548 1545 1543 1540 1536 1532 1529 1526 1524 1523 1522 1520 1518 1516 1513 1513 1511 1509 1506 1504 1503 1501 1500 1500 1499 1498 1497 1495 1492 1489 1489 1489 1489 1491 1491 1491
1992 2016 2039 2063 2087 2108 2136 2144 2148 2148 2161 0 0 0 0 2171 2171 2179 2180 2199 2235 2238 2247 2274 2290 2304 2330 2357 2379 2403 2428 2450 2456 2463 2464 2465 2470 2470 2477 2488 2493 2504 2522 2530 2542 2555 2562 2564 2566 2566 2566 2564 2563 2563 2558 2543 2508 2483 0 0 0 0 0 0 0 0 1280 1266 1264 1264 1264 1265 1265 1265 1265 1265 1265 1264 1263 1261 1260 1258 1255 1250 1245 1231 1215 1198 1181 1170 1163 1161 1160 1160 1160 1161 1162 1163 1163 1163 1163 1162 1162 1162 1162 1170 1172 1173 1178 1187 1202 1218 1230 1240 1249 1256 1257 1258 1259 1261 1261 1262 1262 1262 1262 1262 1261 1261 1261 1261 1261 1261 1261 1261 1261 1261 1260 1260 1260 1259 1257 1253 1245 1242 1235 1220 1209 1206 1206 1205 1204 1201 1201 1201 1203 1203 1204 1204 1205 1207 1211 1213 1215 1215 1216 1218 1220 1222 1227 1232 1237 1238 1242 1246 1248 1249 1250 1251 1251 1251 1251 1251 1250 1250 1250 1250 1250 1250 1250 1249 1249 1249 1249 1248 1248 1248 1248 1247 1247 1246 1244 1243 1243 1239 1234 1233 1232 1231 1230 1229 1229 1229 1231 1232 1232 1232 1232 1232 1232 1234 1236 1236 1236 1236 1237 1237 1237 1238 1239 1240 1242 1242 1242 1242 1243 1243 1243 1243 1243 1243 1242 1242 1243 1243 1243 1244 1245 1246 1246 1246 1245 1245 1245 1245 1245 1245 1245 1245 1245 1245 1245 1245 1245 1245 1245 1245 1244 1244 1244 1243 1243 1243 1243 1243 1243 1243 1243 1244 1244 1245 1245 1246 1246 1246 1247 1248 1248 1248 1249 1249 1249 1250 1250 1250 1250 1250 1250 1250 1251 1251 1252 1252 1253 1253 1253 1259 1264 1270 1294 1299 0 0 0 0 2082 2091 2098 2103 2106 2109 2112 2112 2113 2113 2113 2114 2115 2117 2118 2119 2120 2123 2123 2123 2120 2111 2101 2086 2061 2044 2034 2025 2010 1995 1990 1983 1977 1968 1960 1954 1951 1950 1946 1941 1938 1934 1931 1928 1923 1918 1912 1908 1900 1895 1893 1891 1891 1888 1886 1881 1876 1870 1865 1862 1860 1858 1854 1850 1843 1839 1834 1829 1822 1815 1806 1796 1789 1780 1765 1746 1730 1719 1710 1704 1699 1699 1698 1697 1694 1690 1689 1688 1687 1687 1687 1687 1687 1688 1690 1693 1694 1696 1698 1700 1705 1711 1715 1718 1720 1720 1723 1726 1728 1732 1733 1734 1734 1734 1734 1734 1734 1734 1734 1734 1733 1733 1731 1731 1731 1729 1729 1727 1727 1726 1726 1724 1723 1722 1722 1720 1719 1718 1717 1716 1715 1714 1712 1712 1711 1710 1709 1707 1706 1705 1703 1702 1701 1699 1698 1696 1694 1693 1691 1690 1688 1685 1683 1681 1680 1677 1676 1674 1672 1669 1667 1666 1664 1662 1660 1658 1657 1655 1654 1652 1651 1648 1647 1645 1644 1642 1640 1639 1638 1636 1635 1634 1634 1633 1632 1632 1631 1631 1631 1632 1633 1633 1634 1635 1639 1642 1646 1648 1650 1654 1660 1667 1670 1680 1702 1725 1738 1756 1775 1784 1790 1795 1796 1799 1804 1809 1811 1812 1814 1816 1818 1819 1821 1821 1821 1821 1820 1820 1819 1815 1814 1805 1790 1772 1753 1743 1735 1727 1721 1716 1714 1708 1702 1695 1691 1683 1677 1666 1662 1654 1650 1644 1638 1630 1624 1618 1610 1603 1599 1596 1590 1584 1579 1576 1571 1568 1564 1560 1558 1554 1549 1545 1542 1539 1535 1533 1530 1528 1526 1524 1523 1520 1519 1517 1515 1512 1511 1510 1509 1506 1503 1500 1499 1497 1496 1496 1496 1494 1493 1491 1489 1488 1488 1488 1489 1491 1491
2003 2026 2047 2067 2095 2123 2144 2149 2153 2160 2188 2198 2215 2218 2220 2220 2220 2199 2199 2199 2235 2238 2247 2274 2290 2294 2303 2319 2341 2365 2384 2413 2437 2458 2461 2463 2466 2467 2476 2483 2491 2499 2515 2529 2544 2564 2566 2566 2566 2563 2563 2563 2563 2563 2558 2543 2506 2483 0 0 0 0 0 0 0 1276 1265 1263 1263 1264 1264 1265 1265 1265 1265 1265 1264 1264 1263 1261 1260 1259 1255 1253 1246 1232 1216 1200 1180 1167 1161 1159 1159 1159 1160 1161 1162 1163 1163 1163 1163 1163 1163 1163 1166 1171 1172 1173 1178 1190 1204 1218 1230 1240 1249 1255 1257 1257 1258 1258 1260 1260 1262 1262 1262 1262 1261 1260 1259 1259 1259 1260 1260 1260 1260 1260 1260 1260 1260 1259 1257 1253 1248 1245 1237 1220 1211 1210 1209 1209 1206 1202 1202 1202 1204 1204 1205 1205 1206 1208 1212 1216 1219 1220 1220 1221 1221 1223 1228 1233 1237 1238 1242 1246 1247 1247 1249 1249 1250 1250 1250 1249 1249 1249 1248 1248 1248 1248 1248 1248 1248 1247 1247 1247 1246 1246 1246 1246 1245 1245 1244 1244 1243 1240 1238 1236 1236 1236 1236 1236 1235 1235 1235 1235 1237 1237 1238 1238 1238 1238 1238 1239 1240 1240 1240 1240 1240 1240 1241 1241 1241 1242 1242 1242 1241 1239 1239 1239 1240 1240 1241 1241 1241 1241 1243 1243 1244 1244 1244 1244 1244 1244 1244 1244 1244 1244 1244 1245 1245 1246 1246 1245 1246 1246 1246 1246 1246 1245 1245 1245 1244 1244 1244 1244 1244 1244 1244 1244 1245 1245 1245 1246 1246 1246 1247 1247 1248 1248 1249 1249 1249 1250 1250 1250 1250 1250 1250 1250 1251 1252 1252 1252 1253 1253 1253 1256 1262 1270 1290 1299 0 0 0 0 2082 2091 2098 2102 2106 2109 2112 2112 2112 2112 2112 2112 2113 2114 2114 2116 2117 2118 2118 2118 2118 2111 2102 2089 2072 2051 2042 2029 2014 2003 1996 1991 1983 1976 1970 1967 1964 1960 1955 1951 1946 1940 1937 1933 1928 1923 1919 1914 1909 1904 1898 1898 1898 1896 1893 1888 1882 1877 1873 1870 1868 1865 1862 1858 1853 1847 1841 1836 1831 1827 1818 1812 1807 1799 1788 1767 1750 1736 1720 1709 1705 1702 1701 1699 1695 1691 1690 1689 1688 1687 1687 1687 1687 1687 1688 1690 1692 1693 1695 1697 1701 1705 1712 1715 1717 1718 1721 1724 1727 1729 1731 1732 1733 1733 1733 1733 1733 1733 1733 1733 1733 1732 1731 1730 1729 1728 1728 1727 1726 1725 1725 1724 1723 1722 1721 1720 1719 1718 1717 1716 1714 1714 1712 1711 1710 1710 1709 1707 1706 1705 1703 1702 1701 1699 1698 1697 1695 1693 1692 1690 1688 1686 1683 1682 1680 1679 1677 1675 1673 1670 1668 1666 1665 1663 1661 1658 1657 1656 1654 1653 1651 1649 1647 1645 1644 1643 1641 1640 1638 1637 1636 1634 1634 1633 1632 1631 1631 1631 1631 1632 1632 1632 1634 1635 1637 1640 1644 1646 1649 1652 1658 1664 1666 1669 1679 1707 1726 1747 1765 1776 1788 1795 1796 1799 1805 1809 1812 1813 1816 1819 1822 1822 1823 1824 1824 1824 1824 1823 1823 1821 1815 1805 1790 1773 1753 1743 1734 1726 1720 1716 1714 1708 1702 1694 1685 1678 1667 1657 1653 1648 1646 1640 1633 1630 1620 1610 1601 1595 1589 1584 1579 1575 1573 1571 1568 1564 1559 1556 1552 1550 1546 1542 1538 1534 1532 1530 1527 1524 1523 1522 1520 1518 1516 1514 1513 1511 1508 1506 1506 1504 1501 1498 1496 1494 1493 1493 1493 1491 1489 1489 1489 1488 1488 1488 1488 1488 1486
2028 2044 2057 2073 2103 2129 2145 2154 2160 2168 2188 2206 2225 2229 2241 2247 2251 2241 2241 2238 2238 2238 2247 2274 2290 2294 2303 2319 2341 2347 2352 2365 2367 2415 2441 2444 2456 2465 2473 2482 2489 2494 2508 2525 2544 2564 2566 2566 2566 2563 2563 2563 2563 2563 2558 2543 2506 2504 0 0 0 0 0 0 1289 1275 1264 1262 1262 1264 1264 1265 1265 1265 1265 1265 1264 1264 1263 1261 1260 1259 1258 1256 1248 1235 1216 1200 1180 1167 1161 1159 1159 1159 1159 1161 1162 1163 1163 1163 1163 1163 1163 1164 1170 1173 1173 1177 1181 1191 1208 1218 1229 1236 1247 1255 1256 1256 1257 1257 1258 1259 1260 1260 1260 1260 1259 1259 1259 1259 1259 1259 1259 1259 1259 1259 1259 1259 1259 1259 1257 1253 1248 1245 1239 1225 1217 1215 1215 1214 1213 1210 1210 1210 1210 1210 1210 1211 1211 1213 1214 1217 1219 1221 1223 1223 1225 1225 1229 1235 1237 1238 1240 1244 1246 1246 1248 1248 1248 1248 1248 1247 1246 1246 1246 1245 1245 1246 1245 1245 1245 1244 1243 1243 1243 1243 1243 1243 1243 1243 1243 1243 1243 1240 1239 1239 1239 1239 1239 1239 1238 1238 1237 1237 1238 1238 1239 1241 1241 1241 1241 1241 1241 1241 1241 1241 1241 1241 1241 1241 1241 1241 1240 1239 1239 1237 1237 1237 1238 1239 1239 1240 1240 1240 1241 1242 1242 1243 1243 1243 1244 1244 1244 1243 1243 1243 1243 1245 1245 1246 1246 1246 1246 1247 1247 1247 1246 1246 1246 1246 1245 1245 1245 1245 1245 1246 1246 1246 1246 1246 1246 1246 1246 1246 1247 1247 1248 1249 1249 1249 1249 1249 1250 1250 1250 1250 1250 1251 1251 1251 1252 1252 1252 1252 1252 1255 1258 1268 1290 1298 0 0 0 0 2081 2091 2098 2102 2104 2109 2112 2112 2112 2111 2111 2111 2111 2112 2112 2113 2114 2116 2116 2116 2116 2111 2102 2096 2077 2060 2049 2035 2020 2011 2005 2000 1993 1985 1982 1980 1976 1971 1968 1961 1957 1948 1943 1939 1935 1932 1928 1923 1917 1913 1908 1906 1905 1905 1902 1897 1891 1888 1885 1879 1875 1872 1868 1865 1862 1859 1852 1847 1841 1839 1835 1830 1824 1816 1811 1794 1774 1759 1742 1720 1708 1707 1706 1702 1697 1693 1690 1690 1688 1687 1686 1686 1686 1686 1687 1688 1689 1690 1691 1694 1699 1700 1704 1709 1713 1716 1719 1722 1726 1728 1729 1730 1731 1731 1731 1731 1732 1732 1732 1732 1732 1731 1731 1728 1727 1727 1727 1726 1725 1725 1723 1723 1723 1721 1720 1720 1718 1717 1716 1715 1714 1713 1712 1711 1710 1710 1709 1707 1706 1705 1704 1702 1701 1700 1698 1697 1695 1694 1692 1691 1689 1686 1684 1683 1681 1679 1677 1676 1673 1671 1669 1667 1665 1664 1661 1660 1658 1656 1654 1653 1651 1649 1648 1646 1644 1643 1641 1640 1639 1638 1636 1635 1634 1633 1632 1631 1631 1631 1631 1632 1632 1632 1633 1634 1635 1637 1641 1644 1647 1649 1653 1657 1660 1661 1666 1681 1709 1726 1749 1763 1776 1787 1794 1799 1804 1809 1813 1815 1818 1821 1823 1824 1825 1826 1826 1826 1826 1826 1825 1821 1815 1805 1790 1771 1754 1743 1734 1725 1720 1715 1713 1707 1701 1687 1681 1669 1660 1653 1648 1645 1639 1633 1629 1628 1620 1610 1597 1588 1579 1574 1571 1571 1569 1566 1562 1557 1553 1551 1547 1543 1541 1537 1534 1530 1529 1528 1526 1523 1520 1518 1518 1515 1515 1514 1512 1510 1507 1504 1502 1501 1500 1496 1494 1492 1490 1489 1489 1488 1488 1488 1488 1488 1487 1487 1486 1484 1479
2046 2059 2071 2086 2113 2138 2153 2157 2166 2172 2189 2208 2236 2250 2253 2256 2256 2269 2284 2296 2300 2303 2303 2303 2303 2303 2303 2319 2341 2347 2352 2365 2367 2406 2413 2416 2417 2437 2466 2477 2477 2481 2494 2518 2544 2564 2564 2564 2564 2563 2563 2563 2564 2564 2564 2553 2507 2506 0 0 0 0 0 0 1289 1270 1264 1261 1261 1264 1264 1265 1266 1266 1266 1265 1265 1264 1263 1261 1261 1259 1258 1257 1248 1236 1224 1200 1181 1167 1161 1160 1159 1159 1160 1161 1163 1163 1163 1164 1164 1164 1164 1166 1170 1175 1178 1180 1184 1194 1208 1217 1228 1236 1247 1254 1255 1256 1256 1256 1256 1258 1258 1258 1258 1258 1258 1258 1258 1258 1258 1258 1258 1258 1258 1258 1258 1258 1258 1257 1254 1252 1248 1246 1240 1226 1222 1221 1221 1221 1221 1219 1219 1219 1220 1220 1220 1219 1219 1218 1219 1219 1221 1222 1225 1227 1227 1229 1231 1236 1240 1240 1240 1244 1244 1245 1247 1247 1247 1245 1243 1241 1241 1241 1242 1242 1242 1243 1243 1242 1242 1242 1241 1241 1241 1241 1242 1242 1242 1242 1243 1243 1243 1241 1241 1241 1241 1241 1241 1241 1241 1241 1241 1241 1241 1241 1242 1242 1243 1243 1243 1243 1243 1243 1243 1243 1243 1243 1242 1241 1239 1237 1235 1234 1234 1233 1233 1234 1234 1236 1237 1237 1238 1238 1238 1239 1240 1240 1240 1240 1242 1242 1242 1242 1242 1243 1243 1245 1246 1246 1246 1247 1247 1247 1247 1247 1247 1247 1247 1247 1247 1247 1246 1246 1246 1246 1246 1246 1247 1247 1247 1247 1247 1247 1247 1248 1248 1249 1249 1249 1249 1249 1250 1250 1250 1250 1250 1251 1251 1252 1252 1252 1252 1252 1252 1253 1258 1266 1287 1298 0 0 0 0 2078 2089 2098 2101 2103 2107 2109 2109 2109 2109 2110 2110 2110 2110 2110 2111 2113 2113 2113 2113 2113 2111 2102 2097 2080 2063 2053 2042 2028 2020 2014 2008 2003 1997 1994 1993 1988 1985 1981 1974 1967 1961 1952 1947 1942 1940 1935 1931 1928 1923 1918 1915 1915 1914 1910 1905 1900 1897 1893 1890 1883 1879 1876 1872 1870 1869 1866 1861 1854 1847 1845 1842 1840 1833 1823 1814 1797 1781 1763 1739 1722 1714 1711 1705 1700 1694 1691 1690 1688 1687 1687 1686 1686 1686 1686 1686 1687 1687 1687 1688 1692 1697 1702 1702 1706 1711 1716 1719 1723 1725 1726 1728 1729 1729 1730 1730 1730 1731 1731 1730 1730 1730 1729 1727 1727 1726 1726 1724 1724 1724 1723 1723 1721 1721 1719 1719 1718 1717 1716 1715 1714 1713 1712 1711 1710 1710 1708 1707 1706 1705 1704 1702 1701 1700 1698 1697 1695 1694 1693 1691 1689 1687 1686 1684 1682 1679 1678 1676 1674 1671 1670 1668 1666 1664 1662 1660 1658 1656 1654 1653 1652 1650 1648 1646 1645 1643 1642 1640 1639 1638 1636 1635 1634 1633 1632 1631 1631 1631 1631 1631 1631 1632 1633 1633 1635 1637 1640 1643 1645 1647 1649 1652 1655 1657 1662 1669 1689 1712 1729 1749 1762 1781 1794 1798 1804 1809 1813 1816 1821 1823 1825 1825 1826 1827 1827 1827 1827 1827 1825 1821 1815 1803 1790 1769 1755 1743 1735 1725 1720 1715 1711 1701 1691 1683 1671 1661 1654 1646 1637 1634 1628 1621 1621 1617 1609 1598 1587 1579 1571 1567 1562 1559 1558 1558 1556 1555 1551 1546 1544 1542 1539 1536 1533 1529 1527 1525 1522 1520 1517 1515 1513 1513 1512 1512 1510 1509 1506 1502 1499 1498 1498 1495 1492 1490 1488 1487 1487 1486 1486 1486 1486 1486 1486 1486 1486 1484 1479
2046 2059 2080 2102 2127 2152 2154 2161 2166 2173 2189 2208 2236 2256 2261 2265 2280 2291 2308 2325 2329 2337 2338 2343 2343 2344 2353 2373 2373 2373 2367 2367 2367 2406 2413 2416 2417 2437 2445 2450 2462 2467 2477 2500 2528 2549 2561 2561 2561 2563 2563 2563 2569 2569 2569 2565 2523 2507 0 0 0 0 0 0 1289 1270 1264 1261 1261 1261 1261 1262 1264 1265 1265 1265 1265 1264 1263 1262 1261 1259 1258 1257 1251 1240 1230 1206 1181 1172 1168 1166 1165 1162 1162 1162 1163 1163 1163 1164 1164 1164 1166 1169 1172 1179 1187 1187 1189 1196 1209 1215 1226 1235 1246 1252 1254 1255 1255 1255 1255 1255 1256 1256 1256 1256 1255 1255 1255 1255 1256 1256 1257 1257 1257 1256 1256 1255 1255 1254 1252 1250 1248 1246 1240 1237 1230 1229 1228 1228 1228 1225 1225 1225 1227 1227 1227 1227 1228 1228 1229 1231 1231 1231 1231 1231 1232 1235 1237 1240 1240 1240 1241 1241 1243 1243 1243 1243 1243 1242 1240 1238 1238 1238 1239 1239 1239 1238 1238 1238 1237 1237 1237 1237 1237 1237 1238 1239 1240 1242 1243 1243 1243 1243 1243 1243 1243 1243 1243 1243 1244 1244 1244 1245 1245 1245 1245 1245 1246 1246 1246 1246 1246 1246 1245 1244 1244 1243 1243 1241 1238 1234 1231 1231 1230 1230 1230 1230 1230 1232 1233 1234 1235 1236 1237 1238 1238 1238 1239 1239 1240 1241 1241 1242 1242 1242 1243 1245 1246 1246 1246 1247 1247 1247 1247 1247 1247 1247 1247 1247 1247 1247 1247 1247 1247 1247 1247 1247 1247 1247 1247 1248 1248 1248 1248 1248 1249 1249 1249 1249 1250 1250 1250 1250 1250 1250 1250 1251 1251 1252 1253 1253 1253 1252 1252 1252 1258 1264 1283 1297 0 0 0 0 2057 2089 2097 2101 2103 2107 2107 2107 2107 2107 2108 2108 2109 2109 2110 2110 2110 2110 2110 2110 2108 2105 2102 2097 2084 2070 2058 2048 2034 2025 2020 2016 2009 2003 2000 1999 1995 1993 1989 1983 1978 1971 1964 1957 1952 1949 1945 1942 1938 1933 1928 1926 1925 1923 1919 1914 1908 1904 1900 1897 1892 1888 1884 1880 1877 1876 1875 1874 1867 1859 1854 1851 1850 1848 1840 1831 1818 1803 1786 1766 1745 1732 1721 1711 1703 1697 1693 1690 1688 1688 1688 1687 1686 1685 1685 1685 1685 1685 1686 1686 1687 1691 1695 1700 1701 1706 1709 1712 1717 1721 1723 1724 1726 1727 1728 1729 1729 1729 1729 1729 1729 1728 1728 1726 1725 1725 1725 1724 1724 1723 1723 1721 1721 1720 1719 1719 1718 1717 1716 1715 1714 1713 1712 1711 1710 1710 1708 1707 1706 1705 1704 1702 1701 1700 1698 1697 1695 1694 1693 1691 1689 1687 1686 1684 1682 1680 1678 1677 1675 1672 1671 1669 1667 1665 1663 1661 1659 1657 1655 1654 1652 1651 1648 1646 1645 1643 1642 1641 1639 1638 1636 1635 1634 1633 1632 1631 1631 1631 1631 1631 1631 1632 1632 1633 1635 1636 1639 1642 1644 1644 1647 1651 1654 1657 1661 1666 1672 1694 1716 1734 1748 1768 1786 1796 1801 1809 1813 1816 1821 1824 1826 1827 1828 1829 1829 1829 1828 1828 1825 1822 1815 1803 1786 1769 1757 1744 1735 1726 1719 1714 1704 1690 1682 1673 1665 1657 1649 1641 1634 1629 1622 1614 1608 1604 1596 1584 1578 1570 1565 1562 1556 1552 1551 1550 1549 1549 1547 1544 1541 1538 1533 1530 1527 1524 1524 1521 1518 1515 1512 1510 1509 1509 1509 1508 1506 1505 1503 1499 1498 1497 1496 1493 1490 1488 1486 1486 1485 1485 1485 1485 1485 1486 1486 1486 1486 1484 1479
2046 2059 2080 2102 2127 2152 2154 2163 2166 2173 2188 2208 2236 2256 2265 2277 2283 2300 2322 2332 2332 2353 2369 2369 2371 2371 2377 2390 2403 2421 2421 2421 2413 2413 2413 2416 2417 2437 2445 2450 2462 2467 2477 2491 2499 2522 2540 2541 2560 2560 2561 2563 2569 2569 2569 2565 2523 2507 0 0 0 0 0 0 1291 1270 1264 1262 1261 1262 1262 1262 1264 1265 1265 1265 1265 1264 1263 1262 1261 1259 1258 1256 1253 1244 1230 1209 1197 1183 1177 1176 1172 1170 1167 1166 1166 1166 1165 1165 1165 1166 1170 1170 1174 1181 1195 1197 1197 1205 1214 1215 1226 1235 1246 1251 1251 1251 1251 1251 1251 1251 1252 1253 1253 1253 1252 1252 1252 1253 1253 1253 1254 1254 1254 1254 1253 1253 1253 1251 1249 1248 1248 1247 1246 1246 1242 1240 1237 1234 1234 1232 1231 1232 1232 1232 1234 1234 1234 1234 1234 1237 1239 1240 1240 1240 1239 1239 1239 1241 1241 1241 1241 1241 1240 1239 1238 1238 1237 1236 1235 1233 1233 1233 1234 1234 1234 1233 1232 1232 1232 1232 1232 1232 1232 1232 1232 1233 1234 1237 1242 1243 1243 1244 1244 1244 1244 1245 1245 1245 1246 1246 1246 1246 1247 1247 1247 1247 1247 1247 1247 1247 1247 1247 1246 1246 1245 1244 1243 1241 1237 1234 1230 1230 1230 1229 1229 1229 1229 1230 1231 1231 1232 1233 1236 1236 1237 1237 1237 1238 1238 1240 1241 1241 1242 1242 1243 1244 1245 1246 1246 1247 1247 1248 1248 1248 1248 1248 1248 1248 1248 1248 1248 1248 1248 1248 1248 1248 1248 1248 1248 1248 1248 1248 1249 1249 1249 1249 1249 1249 1250 1250 1250 1250 1250 1250 1250 1251 1251 1252 1253 1253 1253 1252 1252 1252 1259 1263 1278 1298 0 0 0 0 2057 2090 2095 2099 2103 2106 2106 2106 2106 2106 2106 2106 2106 2107 2108 2108 2108 2107 2107 2106 2105 2104 2100 2097 2090 2077 2066 2052 2041 2031 2023 2017 2013 2007 2004 2002 2000 1999 1997 1992 1985 1979 1972 1967 1964 1962 1959 1954 1949 1944 1941 1937 1933 1930 1927 1923 1915 1912 1907 1904 1900 1897 1893 1890 1886 1886 1884 1883 1879 1874 1865 1861 1859 1858 1850 1843 1836 1826 1812 1792 1773 1758 1741 1724 1712 1702 1698 1690 1689 1688 1688 1687 1685 1685 1685 1684 1684 1684 1684 1684 1686 1687 1690 1693 1698 1700 1704 1707 1711 1715 1718 1721 1723 1724 1725 1726 1727 1727 1728 1728 1728 1727 1727 1726 1725 1724 1724 1723 1723 1722 1721 1721 1721 1719 1719 1718 1718 1717 1716 1715 1714 1712 1711 1711 1710 1710 1708 1707 1706 1705 1703 1702 1701 1700 1698 1697 1695 1694 1693 1691 1689 1688 1686 1684 1682 1680 1679 1677 1675 1674 1672 1669 1667 1665 1663 1661 1659 1657 1656 1654 1652 1651 1649 1647 1645 1644 1642 1641 1640 1638 1636 1635 1634 1633 1632 1631 1631 1631 1631 1631 1631 1631 1632 1632 1634 1635 1637 1640 1643 1644 1646 1648 1652 1656 1660 1664 1669 1679 1697 1724 1739 1758 1776 1790 1797 1803 1810 1816 1821 1825 1827 1828 1829 1829 1829 1829 1828 1828 1825 1822 1815 1803 1786 1770 1757 1750 1738 1727 1718 1714 1703 1681 1673 1667 1658 1651 1644 1637 1630 1627 1619 1611 1603 1595 1587 1578 1572 1566 1560 1554 1549 1546 1544 1543 1543 1540 1538 1537 1535 1534 1533 1529 1523 1520 1519 1518 1515 1511 1507 1506 1506 1506 1504 1502 1501 1500 1497 1495 1494 1494 1494 1491 1488 1485 1484 1483 1482 1482 1482 1482 1482 1484 1486 1486 1486 1485 1479
0 0 0 2102 2127 2152 2154 2163 2164 2172 2185 2207 2233 2255 2265 2280 2297 2310 2323 2335 2339 2358 2375 2377 2378 2388 2398 2419 2427 2445 2466 2466 2466 2456 2451 2445 2445 2445 2445 2450 2462 2467 2477 2491 2499 2500 2502 2509 2518 2544 2556 2558 2569 2569 2569 2565 2523 2506 0 0 0 0 0 0 0 1277 1272 1271 1266 1263 1263 1263 1263 1264 1264 1264 1264 1264 1263 1262 1261 1259 1258 1257 1254 1248 1235 1217 1208 1200 1195 1190 1186 1180 1177 1174 1174 1174 1174 1175 1178 1179 1182 1182 1183 1190 1200 1205 1207 1212 1215 1218 1226 1235 1245 1248 1249 1249 1249 1248 1247 1247 1247 1248 1248 1248 1248 1247 1246 1246 1246 1249 1249 1250 1250 1251 1251 1251 1251 1248 1248 1247 1247 1247 1247 1247 1242 1242 1241 1241 1240 1239 1239 1238 1238 1238 1238 1239 1239 1239 1239 1241 1242 1244 1244 1244 1244 1243 1243 1243 1243 1243 1242 1241 1239 1235 1234 1232 1229 1226 1226 1226 1226 1226 1229 1229 1229 1229 1226 1226 1226 1226 1226 1227 1227 1227 1227 1227 1229 1234 1239 1243 1244 1245 1246 1246 1246 1246 1246 1247 1247 1247 1247 1247 1248 1248 1248 1248 1248 1248 1248 1248 1248 1247 1247 1247 1245 1245 1243 1241 1237 1234 1230 1230 1229 1228 1228 1228 1228 1228 1229 1229 1229 1231 1233 1233 1234 1235 1236 1236 1237 1238 1240 1241 1242 1242 1243 1244 1245 1246 1246 1247 1247 1248 1249 1249 1249 1249 1249 1249 1249 1249 1249 1249 1248 1248 1248 1248 1248 1248 1248 1248 1248 1248 1249 1249 1249 1249 1249 1250 1250 1250 1250 1250 1250 1250 1250 1251 1251 1252 1253 1253 1253 1252 1252 1252 1259 1261 1270 1298 0 0 0 0 2047 2084 2094 2097 2102 2106 2106 2106 2103 2103 2103 2103 2104 2104 2104 2105 2105 2105 2104 2104 2103 2102 2097 2096 2093 2081 2069 2058 2049 2039 2030 2023 2019 2013 2009 2007 2006 2005 2003 1997 1991 1982 1976 1974 1974 1972 1966 1961 1956 1955 1952 1948 1943 1938 1933 1932 1927 1922 1917 1914 1912 1907 1904 1899 1896 1893 1891 1890 1887 1881 1876 1870 1867 1862 1858 1853 1848 1842 1833 1814 1798 1779 1761 1742 1726 1712 1703 1695 1689 1688 1688 1687 1685 1685 1683 1682 1682 1682 1683 1683 1683 1685 1686 1687 1692 1698 1698 1701 1705 1709 1714 1716 1719 1720 1722 1723 1724 1725 1726 1726 1726 1725 1725 1725 1724 1723 1723 1722 1722 1722 1721 1721 1719 1719 1719 1718 1717 1717 1716 1715 1714 1712 1711 1711 1710 1709 1707 1707 1705 1705 1703 1702 1701 1700 1698 1697 1695 1694 1693 1692 1690 1688 1686 1684 1683 1680 1679 1677 1676 1674 1672 1670 1668 1666 1663 1662 1660 1658 1657 1654 1653 1651 1649 1647 1645 1644 1643 1641 1640 1638 1637 1635 1634 1633 1632 1632 1631 1631 1631 1631 1631 1631 1631 1632 1633 1635 1636 1638 1641 1644 1645 1647 1650 1654 1658 1664 1667 1675 1682 1700 1730 1749 1769 1787 1794 1799 1808 1816 1822 1825 1827 1830 1832 1832 1832 1832 1830 1828 1825 1822 1815 1806 1786 1768 1758 1750 1738 1727 1717 1709 1693 1679 1671 1656 1649 1643 1635 1632 1625 1616 1613 1604 1596 1588 1581 1573 1565 1559 1553 1547 1543 1541 1540 1540 1536 1533 1530 1530 1529 1527 1527 1526 1521 1517 1514 1513 1511 1509 1504 1502 1501 1501 1500 1500 1498 1496 1495 1493 1491 1491 1491 1489 1486 1483 1482 1481 1481 1478 1477 1477 1477 1478 1483 1485 1485 1485 1479
0 0 0 0 0 0 0 2161 2163 2163 2171 2186 2212 2239 2265 2286 2308 2328 2339 2345 2346 2360 2375 2388 2395 2401 2407 2422 2436 2453 2472 2473 2474 2474 2473 2474 2475 2489 2499 2499 2499 2498 2498 2498 2499 2500 2502 2509 2518 2524 2526 2526 2527 2527 2527 2525 2519 2485 0 0 0 0 0 0 0 0 1294 1282 1270 1270 1268 1265 1264 1264 1264 1264 1264 1264 1263 1262 1261 1259 1258 1258 1254 1250 1243 1226 1213 1203 1199 1197 1195 1193 1192 1192 1192 1192 1192 1195 1198 1200 1203 1205 1210 1214 1214 1216 1219 1223 1226 1229 1231 1239 1242 1242 1246 1246 1246 1246 1245 1244 1244 1244 1244 1244 1243 1242 1238 1238 1238 1240 1243 1243 1245 1245 1245 1245 1244 1244 1244 1247 1247 1247 1247 1247 1247 1247 1247 1247 1247 1245 1244 1243 1243 1243 1244 1245 1245 1245 1245 1245 1246 1246 1246 1246 1246 1245 1245 1245 1245 1245 1243 1241 1234 1230 1227 1226 1223 1222 1220 1219 1219 1219 1220 1225 1225 1225 1224 1224 1223 1223 1223 1224 1225 1226 1226 1227 1229 1234 1239 1242 1244 1245 1246 1247 1247 1247 1247 1248 1248 1248 1249 1249 1249 1250 1250 1250 1250 1250 1250 1249 1249 1248 1248 1247 1246 1245 1243 1241 1237 1233 1229 1229 1229 1227 1226 1226 1226 1226 1226 1227 1228 1229 1230 1232 1233 1234 1235 1235 1236 1236 1239 1241 1242 1242 1243 1244 1244 1246 1246 1247 1248 1249 1249 1249 1249 1250 1250 1250 1250 1250 1250 1249 1249 1249 1249 1249 1249 1249 1248 1248 1248 1249 1249 1249 1249 1249 1250 1250 1250 1250 1250 1250 1250 1250 1250 1251 1251 1252 1253 1253 1253 1252 1252 1252 1259 1260 1270 1286 0 0 0 0 2045 2081 2093 2094 2101 2101 2102 2102 2102 2102 2100 2099 2099 2099 2099 2101 2101 2101 2101 2101 2100 2100 2096 2095 2093 2086 2071 2062 2054 2047 2039 2031 2025 2020 2015 2012 2010 2008 2007 2004 1998 1992 1988 1985 1983 1980 1977 1971 1966 1961 1959 1954 1949 1943 1938 1935 1933 1930 1926 1924 1920 1913 1910 1906 1902 1899 1896 1893 1888 1886 1882 1879 1877 1874 1869 1867 1864 1861 1847 1833 1814 1797 1776 1758 1738 1722 1709 1700 1691 1689 1688 1686 1685 1685 1683 1682 1680 1680 1680 1680 1681 1681 1684 1686 1687 1691 1695 1698 1698 1703 1708 1712 1715 1717 1719 1720 1722 1722 1724 1724 1724 1724 1724 1724 1724 1723 1722 1722 1722 1721 1721 1720 1719 1719 1718 1717 1717 1716 1715 1714 1713 1712 1711 1711 1709 1708 1707 1706 1705 1704 1703 1701 1701 1699 1698 1697 1695 1694 1693 1692 1690 1688 1687 1685 1683 1681 1680 1678 1676 1674 1672 1670 1669 1667 1665 1662 1660 1659 1657 1655 1653 1651 1649 1647 1645 1644 1643 1642 1640 1639 1637 1635 1634 1633 1632 1632 1631 1631 1630 1630 1630 1630 1630 1631 1632 1634 1634 1636 1639 1641 1643 1644 1647 1649 1654 1658 1661 1669 1675 1684 1704 1740 1762 1777 1791 1797 1802 1814 1822 1825 1827 1831 1834 1834 1834 1834 1833 1831 1828 1825 1817 1807 1786 1768 1758 1750 1738 1727 1713 1698 1681 1671 1661 1653 1642 1638 1633 1629 1622 1613 1609 1599 1590 1583 1575 1569 1563 1557 1552 1544 1537 1534 1534 1533 1531 1528 1525 1523 1523 1521 1520 1517 1515 1510 1509 1505 1505 1505 1503 1500 1498 1498 1498 1497 1494 1492 1490 1490 1489 1489 1488 1487 1485 1482 1480 1479 1478 1476 1475 1474 1474 1474 1476 1482 1482 1482 1479
0 0 0 0 0 0 0 0 2152 2155 2161 2169 2190 2217 2250 2287 2314 2328 2340 2345 2348 2360 2375 2388 2395 2408 2420 2434 2445 2454 2472 2473 2474 2475 2475 2483 2504 2533 2545 2545 2545 2532 2531 2517 2510 2509 2509 2509 2518 2524 2526 2526 2527 2527 2527 2525 2511 2485 0 0 0 0 0 0 0 0 0 1288 1271 1271 1268 1266 1264 1264 1264 1264 1264 1264 1263 1262 1261 1260 1259 1259 1256 1253 1243 1233 1219 1214 1207 1206 1206 1206 1210 1211 1211 1214 1214 1216 1218 1222 1230 1230 1230 1230 1230 1231 1235 1239 1240 1241 1241 1241 1242 1243 1243 1243 1243 1240 1240 1240 1239 1237 1234 1233 1232 1231 1231 1232 1233 1234 1234 1234 1234 1234 1234 1235 1235 1235 1240 1245 1247 1247 1247 1247 1248 1249 1249 1249 1249 1249 1249 1248 1247 1247 1247 1247 1248 1248 1248 1249 1249 1249 1249 1249 1249 1248 1247 1246 1246 1245 1243 1241 1233 1228 1224 1223 1220 1219 1218 1217 1217 1217 1217 1219 1222 1222 1222 1222 1221 1221 1221 1221 1223 1224 1224 1225 1229 1234 1239 1242 1244 1245 1247 1248 1248 1248 1249 1249 1249 1249 1250 1250 1251 1251 1251 1251 1250 1250 1250 1250 1250 1249 1248 1248 1246 1245 1242 1240 1237 1233 1228 1228 1227 1226 1226 1226 1225 1225 1226 1226 1227 1228 1230 1231 1232 1233 1234 1235 1236 1236 1238 1240 1242 1242 1243 1243 1244 1245 1246 1248 1248 1249 1249 1250 1250 1250 1250 1250 1250 1250 1250 1250 1250 1250 1249 1249 1249 1249 1249 1249 1249 1249 1249 1249 1249 1250 1250 1250 1250 1250 1250 1250 1250 1251 1251 1251 1251 1252 1252 1252 1252 1253 1253 1253 1255 1260 1270 1296 0 0 0 0 2045 2074 2090 2094 2096 2096 2097 2098 2098 2098 2093 2093 2093 2093 2094 2094 2095 2096 2097 2097 2097 2097 2095 2095 2093 2086 2076 2067 2061 2054 2043 2037 2031 2028 2022 2019 2016 2012 2010 2008 2004 2000 1996 1994 1991 1988 1984 1978 1972 1964 1961 1959 1955 1950 1944 1941 1939 1936 1932 1929 1924 1919 1917 1915 1912 1909 1904 1900 1897 1894 1892 1889 1886 1884 1880 1879 1878 1876 1862 1846 1831 1817 1800 1780 1753 1732 1720 1708 1694 1689 1688 1686 1685 1685 1683 1682 1680 1679 1678 1678 1678 1678 1679 1683 1685 1685 1688 1692 1696 1698 1702 1707 1712 1714 1715 1717 1717 1719 1721 1723 1723 1723 1722 1722 1722 1722 1722 1721 1721 1720 1720 1719 1719 1718 1718 1717 1717 1716 1715 1714 1712 1711 1710 1710 1708 1707 1706 1706 1705 1703 1703 1701 1700 1699 1698 1697 1695 1694 1693 1691 1690 1688 1687 1685 1684 1682 1680 1678 1676 1674 1673 1671 1669 1667 1665 1662 1661 1660 1657 1655 1653 1651 1649 1648 1646 1645 1643 1642 1641 1639 1637 1635 1635 1633 1632 1632 1631 1631 1630 1630 1630 1630 1630 1630 1631 1632 1633 1635 1637 1640 1642 1644 1647 1649 1653 1656 1660 1664 1668 1677 1687 1709 1745 1760 1775 1788 1801 1810 1821 1825 1827 1831 1834 1835 1836 1836 1836 1834 1832 1828 1820 1807 1786 1768 1758 1745 1731 1716 1699 1686 1675 1663 1652 1646 1640 1631 1625 1619 1613 1607 1603 1594 1586 1578 1569 1564 1559 1554 1550 1543 1536 1532 1529 1526 1522 1520 1520 1518 1516 1514 1512 1508 1507 1506 1504 1504 1502 1499 1498 1497 1497 1497 1496 1496 1493 1492 1490 1487 1486 1486 1485 1485 1483 1480 1477 1476 1476 1475 1474 1473 1473 1473 1474 1476 1476 1476 1473
0 0 0 0 0 0 0 0 0 0 0 0 2174 2206 2242 2286 2314 2328 2340 2345 2348 2360 2373 2388 2395 2408 2420 2434 2445 2454 2472 2473 2474 2475 2475 2483 2504 2533 2548 2550 2553 2553 2553 2553 2546 2541 2529 2526 2526 2524 2526 2526 2527 2527 2527 2525 2511 2500 2469 0 0 0 0 0 0 0 0 0 1276 1275 1268 1266 1264 1264 1264 1264 1264 1264 1263 1262 1262 1260 1260 1259 1257 1253 1247 1234 1234 1233 1233 1233 1231 1226 1221 1221 1221 1227 1236 1239 1241 1244 1245 1245 1249 1249 1250 1251 1252 1252 1251 1250 1247 1243 1242 1239 1237 1237 1236 1234 1227 1226 1226 1226 1223 1223 1223 1223 1224 1224 1224 1224 1224 1220 1220 1220 1222 1225 1227 1232 1235 1241 1246 1247 1247 1249 1250 1251 1251 1251 1251 1251 1250 1250 1250 1251 1251 1251 1251 1251 1251 1251 1252 1252 1252 1252 1251 1251 1250 1247 1246 1245 1243 1238 1230 1224 1221 1220 1218 1216 1216 1215 1214 1214 1214 1215 1218 1218 1218 1218 1218 1218 1218 1219 1221 1221 1222 1225 1229 1234 1239 1242 1244 1245 1247 1248 1248 1249 1249 1250 1251 1251 1251 1251 1251 1251 1251 1251 1251 1251 1251 1251 1251 1250 1249 1248 1246 1245 1242 1240 1237 1234 1228 1228 1226 1225 1224 1224 1224 1225 1225 1225 1226 1228 1230 1231 1232 1232 1234 1234 1235 1236 1238 1238 1240 1241 1242 1243 1244 1245 1246 1248 1248 1249 1250 1250 1250 1251 1251 1251 1251 1251 1251 1251 1250 1250 1250 1250 1250 1250 1250 1250 1250 1250 1250 1250 1250 1250 1250 1250 1250 1250 1251 1251 1251 1251 1251 1251 1251 1252 1252 1252 1252 1253 1253 1254 1255 1260 1270 1296 0 0 0 0 2045 2067 2085 2094 2096 2096 2096 2096 2095 2093 2091 2090 2089 2089 2089 2089 2089 2091 2092 2093 2093 2093 2093 2093 2090 2086 2076 2071 2062 2056 2046 2040 2036 2033 2029 2023 2018 2014 2012 2009 2005 2001 1998 1995 1992 1989 1985 1981 1975 1969 1965 1962 1958 1954 1950 1947 1944 1940 1934 1930 1926 1925 1923 1921 1919 1915 1910 1906 1903 1899 1898 1898 1895 1890 1887 1884 1880 1877 1871 1864 1851 1837 1818 1796 1777 1761 1741 1725 1709 1698 1691 1686 1686 1685 1684 1682 1680 1679 1677 1677 1676 1676 1676 1678 1682 1683 1683 1686 1689 1694 1696 1701 1705 1710 1712 1713 1714 1716 1718 1719 1720 1720 1720 1720 1720 1720 1720 1720 1720 1720 1720 1719 1718 1718 1717 1717 1716 1715 1714 1713 1712 1711 1710 1708 1707 1706 1706 1705 1704 1703 1702 1701 1700 1699 1698 1696 1695 1694 1692 1691 1689 1688 1687 1685 1684 1682 1680 1678 1676 1674 1673 1671 1669 1667 1666 1664 1662 1660 1658 1655 1654 1652 1650 1648 1646 1645 1643 1642 1641 1639 1637 1636 1635 1634 1633 1631 1631 1631 1630 1630 1630 1630 1630 1630 1630 1631 1633 1635 1636 1638 1641 1644 1647 1649 1652 1656 1660 1663 1665 1673 1683 1691 1709 1742 1758 1773 1785 1809 1819 1824 1827 1831 1834 1835 1837 1837 1837 1837 1836 1828 1820 1807 1786 1768 1756 1741 1730 1711 1691 1678 1666 1657 1646 1639 1632 1628 1612 1604 1599 1593 1587 1583 1576 1568 1561 1556 1551 1548 1544 1540 1533 1530 1523 1520 1516 1515 1514 1513 1513 1511 1509 1505 1503 1501 1500 1500 1500 1497 1494 1491 1491 1491 1492 1492 1492 1489 1488 1486 1484 1484 1483 1483 1481 1478 1476 1474 1473 1473 1472 1472 1472 1472 1472 1472 1473 1472 1471
