1946 1946 1963 1986 2002 2017 2020 2042 2067 2094 2109 2135 2164 2179 2189 2201 2209 2222 2224 2236 2237 2247 2254 2266 2288 2313 2336 2339 2349 2364 2379 2391 2391 2391 2391 2394 2394 2410 2441 2475 2498 2519 2541 2560 2594 2610 2612 2618 2618 2620 2622 2624 2636 2656 2679 2696 2709 2723 2734 2741 2742 2752 2757 2758 2760 2760 2766 2781 2798 2814 2830 2848 2868 2882 2888 2893 2895 2896 2902 2908 2923 2938 2943 2953 2963 2968 2974 2984 2991 2996 3004 3014 3023 3033 3040 3047 3048 3049 3049 3054 3074 3090 3098 3102 3107 3112 3117 3124 3130 3139 3146 3154 3157 3164 3175 3179 3180 3185 3190 3197 3197 3198 3205 3219 3234 3239 3239 3239 3236 3236 3236 3241 3246 3253 3263 3271 3277 3277 3277 3277 3277 3277 3285 3294 3300 3301 3305 3308 3312 3312 3312 3312 3312 3309 3308 3307 3303 3300 3298 3297 3296 3296 3296 3296 3296 3296 3295 3294 3291 3281 3275 3273 3270 3268 3267 3267 3267 3261 3251 3228 3222 3222 3222 3222 3222 3217 3202 3188 3171 3158 3146 3135 3134 3134 3134 3134 3128 3105 3105 3104 3104 3103 3086 3063 3041 3040 3035 3027 3027 2997 2904 2812 2778 2761 2730 2700 2695 2611 0 0 0 0 0 1185 1184 1183 1183 1182 1181 1180 1179 1178 1178 1177 1177 1177 1176 1176 1176 1176 1175 1175 1175 1175 1175 1176 1176 1176 1176 1176 1176 1176 1175 1175 1175 1174 1174 1173 1173 1173 1172 1171 1171 1170 1170 1170 1171 1171 1171 1171 1171 1170 1170 1170 1170 1171 1171 1171 1171 1172 1172 1172 1173 1173 1174 1174 1175 1175 1175 1175 1175 1176 1176 1176 1176 1176 1176 1176 1176 1176 1176 1176 1176 1176 1176 1175 1175 1175 1175 1175 1174 1174 1173 1173 1173 1173 1173 1173 1173 1172 1170 1170 1170 1169 1168 1168 1168 1168 1168 1168 1168 1167 1166 1166 1167 1167 1167 1167 1167 1167 1167 1169 1170 1171 1171 1171 1172 1174 1175 1175 1175 1175 1176 1176 1176 1176 1176 1176 1177 1177 1177 1177 1177 1177 1176 1176 1176 1176 1176 1176 1176 1176 1176 1176 1176 1176 1176 1176 1175 1175 1172 1172 1172 1171 1170 1170 1170 1168 1168 1168 1168 1168 1168 1167 1167 1167 1167 1169 1169 1169 1169 1169 1169 1169 1170 1171 1171 1172 1173 1174 1175 1175 1175 1176 1176 1176 1177 1178 1178 1179 1179 1179 1179 1179 1179 1180 1180 1180 1180 1180 1180 1180 1180 1180 1180 1180 1179 1179 1178 1178 1177 1176 1176 1176 1174 1171 1171 1171 1169 1168 1168 1168 1167 1167 1167 1169 1169 1169 1169 1165 1165 1165 1165 1166 1166 1166 1164 1164 1164 1165 1169 1173 1174 1174 1175 1177 1179 1179 1180 1180 1181 1181 1182 1182 1182 1182 1181 1181 1181 1182 1182 1182 1182 1182 1182 1182 1183 1183 1183 1183 1182 1182 1181 1181 1180 1178 1175 1174 1168 1166 1165 1165 1165 1166 1167 1169 1169 1169 1168 1167 1167 1165 1164 1163 1162 1162 1162 1162 1163 1165 1169 1171 1172 1174 1178 1178 1179 1179 1179 1181 1182 1184 1184 1185 1186 1187 1187 1187 1187 1188 1188 1189 1190 1190 1191 1191 1191 1192 1192 1193 1194 1194 1194 1194 1194 1194 1194 1194 1193 1193 1193 1193 1193 1193 1193 1193 1194 1194 1194 1194 1194 1195 1195 1195 1195 1194 1194 1194 1193 1192 1191 1184 1181 1173 1165 0 0 0 877 872 868 868 877 892 892 892 0 0 0 0 0 0 0 0 0 0 0 0 0 0 0 0 0 0 0 0 0 0 0 0 0 0 0 0 0 0 0 0 0 0
1966 1966 1984 2003 2017 2019 2034 2060 2089 2105 2124 2146 2165 2179 2192 2202 2212 2222 2224 2236 2237 2249 2254 2266 2289 2317 2341 2352 2359 2368 2379 2393 2393 2393 2394 2394 2394 2413 2451 2475 2498 2519 2544 2569 2611 2621 2622 2622 2622 2624 2624 2630 2649 2667 2689 2699 2717 2733 2745 2750 2753 2756 2761 2765 2765 2767 2779 2796 2806 2817 2830 2850 2868 2882 2888 2893 2895 2897 2905 2919 2932 2943 2949 2958 2967 2977 2979 2984 2991 2996 3008 3015 3024 3033 3040 3047 3048 3049 3049 3064 3093 3111 3115 3118 3120 3124 3130 3134 3135 3143 3150 3156 3160 3164 3175 3179 3187 3190 3196 3200 3201 3205 3212 3225 3234 3243 3243 3243 3238 3238 3238 3246 3249 3260 3270 3278 3278 3278 3278 3278 3278 3284 3295 3305 3308 3309 3309 3316 3316 3316 3316 3315 3314 3313 3312 3311 3306 3304 3303 3302 3300 3299 3299 3298 3298 3298 3296 3295 3294 3287 3281 3281 3281 3283 3283 3283 3281 3276 3260 3240 3221 3221 3221 3219 3219 3217 3202 3189 3172 3158 3146 3135 3135 3135 3148 3149 3149 3149 3119 3118 3106 3105 3086 3054 3026 3016 3012 3005 2995 2981 2899 2812 2778 2761 2730 2695 2658 2609 0 0 0 0 0 1182 1181 1181 1180 1180 1180 1179 1178 1178 1177 1177 1177 1177 1176 1176 1175 1175 1175 1175 1175 1175 1175 1175 1175 1176 1175 1175 1175 1175 1175 1175 1174 1173 1172 1171 1170 1170 1169 1169 1169 1169 1169 1169 1169 1169 1169 1169 1168 1168 1168 1169 1169 1169 1169 1170 1170 1171 1171 1171 1172 1172 1173 1173 1174 1174 1175 1175 1175 1175 1176 1176 1176 1176 1176 1176 1176 1176 1176 1176 1176 1176 1175 1175 1175 1175 1175 1175 1174 1173 1173 1173 1173 1172 1172 1171 1170 1170 1170 1168 1168 1167 1166 1166 1165 1164 1164 1163 1163 1161 1161 1161 1162 1162 1162 1162 1163 1164 1166 1167 1168 1168 1168 1170 1172 1173 1174 1174 1175 1175 1175 1176 1176 1176 1176 1176 1176 1176 1176 1177 1176 1176 1176 1176 1176 1176 1176 1176 1176 1176 1176 1176 1175 1175 1175 1175 1175 1173 1171 1171 1169 1169 1168 1166 1165 1164 1164 1164 1164 1164 1164 1164 1164 1164 1165 1165 1167 1167 1167 1167 1167 1167 1167 1167 1167 1168 1170 1173 1173 1173 1174 1175 1176 1176 1177 1177 1178 1178 1179 1179 1179 1179 1179 1179 1180 1180 1179 1180 1180 1179 1180 1180 1179 1179 1178 1178 1178 1177 1175 1174 1173 1171 1169 1165 1164 1164 1163 1162 1162 1161 1161 1161 1161 1161 1161 1161 1160 1158 1157 1157 1157 1157 1157 1157 1157 1158 1159 1160 1164 1167 1173 1173 1173 1175 1178 1179 1179 1180 1181 1181 1182 1182 1182 1182 1181 1181 1181 1182 1182 1182 1182 1182 1182 1182 1182 1182 1182 1182 1182 1182 1179 1179 1178 1178 1170 1161 1158 1157 1155 1155 1155 1157 1159 1159 1159 1157 1154 1154 1154 1153 1152 1149 1147 1146 1146 1146 1146 1149 1151 1154 1155 1155 1157 1168 1172 1177 1179 1180 1182 1183 1184 1185 1185 1186 1186 1187 1187 1188 1188 1189 1189 1190 1190 1190 1191 1192 1192 1193 1194 1194 1194 1194 1194 1194 1194 1193 1193 1193 1193 1193 1193 1193 1193 1193 1194 1194 1194 1194 1194 1194 1194 1194 1194 1194 1194 1193 1192 1192 1191 1184 1182 1173 1165 0 0 0 862 860 860 860 860 860 0 875 0 0 0 0 0 0 0 0 0 0 0 0 0 0 0 0 0 0 0 0 0 0 0 0 0 0 0 0 0 0 0 0 0 0
1969 1969 1987 2004 2017 2026 2044 2065 2095 2115 2143 2166 2173 2181 2195 2206 2214 2222 2224 2239 2251 2263 2272 2282 2289 2324 2355 2365 2369 2370 2379 2393 2396 2399 2403 2411 2412 2422 2451 2475 2498 2518 2553 2581 2611 2621 2622 2624 2628 2630 2630 2631 2652 2674 2690 2701 2726 2742 2750 2754 2755 2760 2765 2768 2773 2778 2794 2816 2826 2830 2837 2851 2869 2882 2888 2893 2900 2905 2914 2928 2943 2947 2959 2967 2974 2982 2988 2989 2991 2996 3009 3018 3026 3033 3042 3049 3053 3054 3061 3071 3106 3122 3127 3129 3131 3131 3138 3138 3144 3148 3154 3158 3160 3168 3175 3181 3192 3201 3203 3208 3208 3211 3218 3227 3234 3243 3243 3243 3245 3247 3248 3251 3260 3268 3278 3282 3282 3282 3283 3283 3284 3295 3306 3313 3314 3314 3317 3322 3322 3322 3322 3322 3321 3321 3321 3315 3309 3309 3309 3307 3303 3302 3302 3299 3299 3299 3296 3296 3296 3294 3289 3289 3289 3294 3294 3294 3294 3285 3266 3245 3222 3215 3215 3213 3208 3208 3199 3189 3174 3158 3141 3135 3135 3135 3158 3165 3165 3165 3150 3137 3127 3110 3086 3054 3026 3005 2995 2993 2980 2957 2899 2820 2791 2764 2730 2695 2658 2606 0 0 0 0 0 1181 1180 1180 1180 1179 1179 1179 1178 1178 1177 1177 1177 1176 1176 1176 1175 1175 1175 1175 1175 1175 1175 1175 1175 1175 1175 1175 1175 1175 1174 1174 1173 1172 1171 1170 1169 1168 1168 1167 1167 1167 1167 1167 1167 1167 1167 1167 1167 1167 1167 1167 1168 1168 1169 1170 1170 1170 1170 1171 1171 1172 1173 1173 1174 1174 1174 1174 1175 1175 1175 1175 1175 1175 1176 1176 1176 1176 1176 1176 1176 1176 1175 1175 1175 1175 1175 1174 1174 1173 1173 1172 1172 1172 1171 1169 1168 1168 1167 1166 1166 1166 1165 1163 1162 1161 1161 1159 1159 1159 1159 1159 1159 1159 1159 1160 1160 1161 1162 1162 1162 1163 1164 1166 1170 1172 1172 1173 1173 1175 1175 1175 1175 1176 1176 1176 1176 1176 1176 1176 1176 1176 1176 1176 1176 1176 1176 1176 1176 1175 1175 1175 1175 1175 1175 1175 1174 1172 1170 1168 1167 1166 1166 1164 1163 1162 1162 1161 1161 1161 1161 1161 1161 1160 1160 1160 1161 1163 1163 1164 1165 1165 1165 1165 1166 1166 1169 1170 1171 1172 1174 1174 1175 1176 1176 1177 1177 1178 1179 1179 1179 1179 1179 1179 1180 1180 1180 1180 1180 1180 1180 1179 1179 1179 1178 1178 1177 1176 1175 1174 1171 1168 1165 1162 1160 1159 1157 1154 1154 1154 1154 1155 1155 1155 1154 1153 1151 1150 1149 1149 1149 1149 1149 1150 1150 1155 1155 1156 1156 1161 1168 1172 1173 1175 1178 1179 1179 1180 1181 1181 1182 1182 1182 1182 1182 1182 1182 1182 1182 1182 1182 1182 1182 1182 1182 1182 1182 1182 1182 1180 1178 1177 1177 1176 1169 1161 1157 1156 1152 1152 1152 1152 1152 1152 1152 1150 1148 1147 1147 1147 1145 1144 1141 1139 1134 1134 1134 1134 1135 1141 1144 1146 1146 1159 1171 1177 1179 1180 1182 1183 1184 1185 1185 1185 1186 1187 1187 1188 1188 1188 1189 1190 1190 1191 1191 1192 1192 1193 1194 1194 1194 1194 1194 1194 1193 1193 1193 1193 1193 1193 1193 1193 1193 1193 1193 1193 1193 1194 1194 1194 1194 1194 1194 1193 1193 1192 1192 1192 1190 1184 1182 1176 1166 0 0 0 862 852 852 852 851 0 0 0 0 0 0 0 0 0 0 0 0 0 0 0 0 0 0 0 0 0 0 0 0 0 0 0 0 0 0 0 0 0 0 0 0 0
1977 1977 1990 2004 2017 2026 2055 2084 2106 2140 2160 2179 2184 2186 2198 2209 2222 2236 2241 2253 2267 2275 2279 2285 2303 2333 2361 2370 2371 2372 2379 2391 2396 2408 2411 2412 2413 2428 2451 2468 2491 2515 2553 2581 2611 2621 2622 2624 2629 2640 2648 2649 2652 2680 2697 2715 2735 2753 2761 2763 2763 2764 2767 2773 2778 2789 2823 2844 2848 2850 2854 2859 2869 2882 2888 2896 2901 2911 2925 2938 2958 2961 2975 2983 2986 2989 2993 2993 2994 3006 3016 3022 3028 3034 3042 3049 3058 3064 3070 3084 3106 3122 3127 3133 3134 3136 3141 3147 3150 3154 3155 3158 3161 3170 3175 3183 3193 3204 3212 3216 3218 3219 3222 3229 3234 3243 3247 3248 3250 3254 3256 3263 3273 3281 3286 3290 3293 3293 3294 3295 3296 3304 3314 3322 3322 3322 3323 3325 3327 3329 3329 3329 3330 3330 3330 3321 3316 3314 3314 3312 3307 3307 3307 3306 3305 3299 3299 3298 3298 3298 3295 3294 3294 3294 3294 3294 3294 3286 3270 3246 3230 3213 3207 3204 3201 3201 3196 3189 3174 3158 3141 3135 3135 3135 3158 3178 3178 3178 3164 3153 3138 3117 3087 3054 3026 3005 2995 2993 2977 2943 2899 2838 2799 2782 2747 2695 2658 2606 0 0 0 0 0 1180 1179 1179 1178 1178 1178 1178 1178 1178 1176 1176 1176 1176 1176 1176 1175 1175 1175 1175 1175 1175 1175 1175 1175 1175 1175 1175 1174 1174 1174 1173 1172 1171 1170 1169 1167 1167 1167 1166 1166 1166 1166 1166 1166 1166 1166 1166 1166 1166 1166 1166 1167 1167 1168 1169 1169 1170 1170 1170 1171 1171 1172 1173 1173 1174 1174 1174 1175 1175 1175 1175 1175 1175 1175 1175 1176 1176 1176 1176 1176 1176 1175 1175 1175 1175 1175 1174 1174 1173 1173 1172 1171 1171 1170 1169 1167 1166 1165 1164 1164 1164 1162 1161 1159 1158 1157 1157 1157 1157 1157 1157 1157 1157 1157 1157 1158 1158 1159 1161 1161 1161 1162 1165 1168 1171 1171 1172 1173 1173 1175 1175 1175 1175 1175 1176 1176 1176 1176 1176 1176 1176 1176 1176 1176 1176 1176 1176 1176 1175 1175 1175 1175 1174 1174 1174 1173 1171 1169 1167 1165 1164 1163 1162 1161 1160 1160 1159 1159 1159 1158 1158 1156 1156 1156 1157 1160 1160 1161 1162 1162 1163 1163 1163 1164 1166 1168 1169 1170 1172 1173 1174 1174 1176 1176 1177 1177 1178 1178 1179 1179 1179 1179 1180 1180 1180 1180 1180 1180 1180 1180 1179 1179 1179 1178 1177 1177 1175 1174 1172 1170 1167 1164 1160 1159 1157 1155 1153 1152 1151 1151 1151 1151 1151 1151 1148 1147 1146 1146 1144 1144 1144 1145 1145 1146 1147 1150 1152 1154 1160 1165 1170 1172 1175 1178 1178 1179 1179 1181 1181 1182 1182 1182 1182 1182 1182 1182 1182 1182 1182 1182 1182 1182 1182 1182 1182 1182 1182 1181 1180 1177 1176 1175 1173 1166 1161 1156 1154 1150 1148 1148 1148 1150 1150 1150 1148 1147 1146 1145 1143 1143 1142 1139 1134 1130 1126 1126 1126 1129 1133 1138 1142 1146 1159 1171 1177 1179 1180 1182 1183 1184 1184 1184 1185 1186 1186 1187 1187 1188 1188 1189 1190 1190 1190 1191 1192 1192 1193 1194 1194 1194 1194 1194 1193 1193 1193 1193 1193 1193 1193 1192 1192 1192 1192 1193 1193 1193 1193 1194 1194 1194 1194 1194 1193 1192 1192 1192 1192 1189 1184 1181 1176 1166 0 0 0 862 852 851 851 849 842 0 0 0 0 0 0 0 0 0 0 0 0 0 0 0 0 0 0 0 0 0 0 0 0 0 0 0 0 0 0 0 0 0 0 0 0
1982 1982 1993 2008 2023 2028 2061 2100 2127 2144 2168 2181 2184 2186 2200 2218 2234 2243 2254 2269 2282 2284 2292 2302 2319 2343 2368 2374 2377 2379 2379 2391 2396 2411 2412 2414 2423 2429 2441 2457 2475 2510 2553 2581 2609 2615 2620 2622 2630 2647 2661 2669 2672 2681 2703 2728 2749 2766 2767 2767 2770 2770 2770 2773 2782 2802 2830 2857 2867 2867 2869 2870 2876 2886 2894 2901 2908 2921 2935 2953 2958 2974 2987 2998 2998 2998 3001 3002 3002 3013 3022 3033 3038 3040 3044 3054 3066 3073 3077 3088 3106 3122 3127 3134 3138 3139 3145 3151 3156 3162 3163 3166 3169 3172 3175 3183 3194 3209 3217 3221 3222 3224 3227 3230 3234 3243 3249 3250 3259 3268 3273 3282 3287 3290 3294 3300 3302 3302 3304 3305 3306 3310 3319 3324 3325 3326 3328 3332 3334 3335 3336 3337 3337 3337 3335 3328 3322 3322 3322 3319 3316 3316 3315 3315 3311 3305 3303 3302 3301 3301 3300 3296 3295 3295 3295 3294 3294 3287 3275 3252 3238 3219 3207 3201 3193 3193 3190 3189 3183 3166 3141 3135 3135 3135 3158 3178 3178 3178 3170 3159 3143 3129 3100 3071 3046 3028 3007 2993 2977 2943 2899 2846 2811 2794 2766 2724 2663 2606 0 0 0 0 0 1180 1178 1177 1177 1177 1177 1177 1177 1177 1176 1176 1176 1176 1176 1175 1175 1175 1175 1175 1175 1175 1175 1175 1175 1175 1174 1174 1174 1173 1173 1172 1171 1170 1169 1168 1166 1166 1166 1166 1165 1164 1164 1164 1164 1165 1165 1165 1165 1165 1165 1165 1166 1167 1167 1168 1169 1169 1169 1169 1170 1170 1172 1172 1172 1173 1173 1173 1174 1174 1175 1175 1175 1175 1175 1175 1175 1176 1176 1176 1176 1176 1176 1175 1175 1175 1175 1174 1173 1173 1172 1171 1170 1169 1169 1168 1165 1164 1163 1162 1162 1160 1159 1157 1155 1154 1153 1153 1153 1154 1154 1155 1155 1155 1156 1156 1157 1157 1158 1159 1160 1161 1162 1164 1168 1171 1171 1172 1173 1173 1174 1175 1175 1175 1175 1175 1176 1176 1176 1176 1176 1176 1176 1176 1176 1176 1176 1175 1175 1175 1175 1174 1174 1174 1173 1173 1172 1171 1169 1166 1165 1164 1162 1160 1160 1158 1157 1156 1156 1155 1155 1155 1154 1154 1154 1156 1158 1159 1159 1160 1160 1162 1162 1162 1163 1164 1166 1168 1169 1171 1172 1174 1174 1175 1176 1177 1177 1178 1178 1178 1179 1179 1179 1180 1180 1180 1180 1179 1179 1179 1179 1179 1179 1178 1178 1177 1177 1175 1174 1171 1169 1165 1163 1160 1158 1156 1154 1151 1149 1148 1148 1148 1148 1147 1145 1143 1143 1143 1142 1142 1142 1142 1142 1143 1144 1145 1146 1151 1154 1160 1165 1168 1171 1175 1176 1178 1179 1179 1181 1181 1181 1181 1181 1182 1182 1182 1182 1182 1182 1182 1182 1182 1182 1182 1182 1182 1182 1181 1180 1179 1177 1174 1173 1171 1166 1161 1155 1152 1150 1146 1146 1146 1148 1148 1148 1146 1145 1144 1143 1141 1141 1140 1138 1133 1129 1126 1126 1126 1128 1131 1135 1139 1145 1159 1171 1177 1178 1180 1181 1183 1184 1184 1184 1185 1186 1186 1187 1187 1188 1188 1189 1189 1190 1190 1191 1192 1192 1193 1193 1194 1194 1194 1193 1193 1193 1193 1193 1193 1192 1192 1192 1192 1192 1192 1192 1193 1193 1193 1193 1193 1193 1193 1193 1192 1192 1191 1191 1191 1187 1184 1181 1176 1166 0 0 0 876 853 851 851 849 842 0 0 0 0 0 0 0 0 0 0 0 0 0 0 0 0 0 0 0 0 0 0 0 0 0 0 0 0 0 0 0 0 0 0 0 0
1998 1998 2002 2010 2023 2035 2073 2107 2134 2153 2170 2181 2184 2186 2200 2218 2238 2244 2262 2273 2289 2301 2311 2322 2335 2356 2374 2380 2380 2384 2384 2391 2396 2411 2415 2422 2430 2430 2433 2446 2475 2508 2550 2579 2602 2603 2610 2620 2633 2654 2671 2675 2678 2693 2718 2740 2761 2777 2780 2780 2782 2781 2781 2782 2788 2807 2832 2859 2876 2879 2880 2882 2884 2897 2912 2914 2917 2929 2957 2967 2976 2985 2993 3000 3006 3006 3010 3011 3011 3021 3033 3043 3051 3051 3056 3066 3077 3082 3083 3089 3105 3113 3127 3135 3138 3139 3145 3153 3161 3167 3175 3181 3183 3183 3185 3192 3200 3209 3220 3225 3228 3232 3232 3232 3238 3243 3251 3260 3272 3275 3288 3297 3301 3301 3302 3310 3310 3311 3311 3311 3314 3317 3322 3324 3327 3327 3329 3334 3337 3339 3339 3340 3340 3340 3337 3330 3328 3327 3326 3326 3325 3324 3323 3323 3321 3316 3306 3303 3303 3302 3301 3298 3296 3294 3294 3291 3289 3289 3276 3257 3241 3227 3211 3201 3193 3193 3193 3193 3193 3184 3158 3130 3130 3130 3151 3181 3181 3181 3171 3160 3143 3129 3105 3083 3060 3042 3025 3007 2977 2943 2899 2858 2823 2808 2790 2753 2708 2655 0 0 0 0 0 1179 1176 1176 1176 1176 1177 1177 1177 1177 1176 1176 1176 1176 1175 1175 1175 1175 1175 1175 1175 1174 1174 1174 1174 1174 1174 1174 1174 1173 1172 1172 1170 1168 1167 1167 1166 1165 1165 1165 1165 1163 1163 1163 1163 1163 1163 1163 1163 1163 1163 1164 1165 1166 1166 1167 1167 1168 1169 1169 1170 1170 1171 1171 1172 1172 1173 1173 1174 1174 1174 1175 1175 1175 1175 1175 1175 1175 1175 1176 1176 1176 1176 1175 1175 1174 1174 1174 1173 1173 1172 1171 1170 1169 1168 1166 1164 1163 1161 1160 1160 1159 1156 1155 1152 1151 1151 1151 1151 1152 1153 1154 1154 1154 1155 1155 1156 1156 1157 1158 1159 1160 1160 1164 1168 1171 1171 1172 1173 1173 1174 1174 1175 1175 1175 1175 1175 1176 1176 1176 1176 1176 1176 1176 1176 1176 1175 1175 1175 1175 1175 1174 1174 1173 1172 1171 1170 1170 1168 1166 1164 1162 1161 1160 1158 1157 1155 1155 1155 1154 1154 1153 1153 1153 1154 1155 1156 1157 1157 1158 1160 1160 1161 1161 1162 1163 1165 1167 1169 1170 1172 1173 1174 1175 1176 1176 1177 1177 1178 1178 1179 1179 1179 1179 1179 1179 1179 1179 1179 1179 1179 1179 1179 1178 1177 1177 1176 1175 1173 1171 1169 1165 1162 1159 1157 1155 1153 1149 1147 1145 1144 1144 1143 1142 1141 1140 1139 1139 1139 1139 1139 1140 1140 1140 1141 1143 1145 1150 1153 1160 1164 1168 1171 1174 1175 1177 1178 1179 1180 1180 1181 1181 1181 1181 1182 1182 1182 1182 1182 1182 1182 1182 1182 1182 1182 1182 1181 1181 1180 1178 1177 1173 1172 1169 1166 1161 1155 1152 1150 1146 1146 1146 1147 1147 1147 1144 1143 1140 1138 1138 1138 1137 1137 1132 1128 1126 1126 1126 1128 1131 1134 1138 1145 1158 1171 1174 1176 1177 1179 1182 1183 1184 1184 1185 1186 1186 1187 1187 1188 1188 1189 1189 1190 1190 1191 1192 1192 1192 1193 1193 1193 1193 1193 1193 1193 1193 1193 1193 1192 1192 1192 1192 1192 1192 1192 1192 1193 1193 1193 1193 1193 1193 1192 1192 1192 1191 1190 1190 1187 1184 1181 1171 1166 0 0 0 877 868 854 854 851 0 0 0 0 0 0 0 0 0 0 0 0 0 0 0 0 0 0 0 0 0 0 0 0 0 0 0 0 0 0 0 0 0 0 0 0 0
1998 1998 2002 2010 2014 2039 2073 2107 2134 2153 2170 2184 2187 2188 2204 2219 2238 2246 2265 2286 2306 2318 2326 2336 2346 2363 2380 2393 2393 2394 2398 2398 2398 2412 2415 2430 2430 2432 2437 2446 2472 2500 2525 2558 2583 2590 2605 2618 2633 2654 2671 2679 2686 2699 2724 2746 2763 2781 2794 2795 2797 2797 2795 2797 2797 2810 2834 2860 2876 2883 2886 2886 2893 2912 2925 2930 2935 2949 2957 2967 2976 2985 2993 3000 3010 3013 3015 3016 3019 3028 3038 3049 3056 3060 3068 3078 3086 3086 3087 3092 3105 3110 3127 3135 3138 3139 3145 3153 3161 3170 3180 3187 3195 3198 3201 3205 3210 3216 3227 3232 3232 3236 3236 3238 3244 3250 3259 3267 3279 3282 3297 3297 3303 3306 3311 3315 3321 3321 3321 3323 3323 3325 3328 3329 3330 3330 3330 3334 3339 3342 3342 3342 3342 3342 3339 3336 3333 3333 3332 3332 3332 3331 3331 3331 3324 3321 3315 3309 3305 3304 3303 3298 3297 3294 3294 3291 3289 3289 3277 3262 3248 3238 3224 3203 3193 3193 3193 3194 3194 3194 3187 3132 3120 3120 3120 3144 3172 3172 3172 3161 3146 3130 3107 3086 3072 3054 3040 3024 3004 2975 2921 2870 2837 2831 2811 2774 2746 2656 0 0 0 0 0 1179 1176 1176 1176 1176 1176 1176 1176 1176 1176 1176 1176 1176 1175 1175 1175 1175 1175 1175 1175 1174 1174 1174 1174 1174 1174 1173 1173 1173 1172 1170 1169 1168 1167 1166 1165 1165 1164 1163 1163 1163 1162 1162 1162 1162 1162 1162 1163 1163 1163 1163 1164 1165 1166 1166 1167 1167 1168 1169 1170 1170 1170 1171 1172 1172 1172 1173 1173 1174 1174 1174 1175 1175 1175 1175 1175 1175 1175 1175 1176 1176 1176 1175 1175 1174 1174 1174 1173 1172 1172 1170 1169 1168 1167 1166 1163 1161 1160 1159 1159 1157 1155 1153 1151 1150 1150 1150 1150 1151 1151 1152 1152 1152 1153 1154 1155 1155 1157 1157 1159 1159 1160 1164 1167 1170 1171 1171 1172 1173 1174 1174 1175 1175 1175 1175 1175 1175 1176 1176 1176 1176 1176 1176 1175 1175 1175 1175 1175 1175 1175 1174 1174 1173 1172 1170 1169 1168 1167 1164 1163 1161 1160 1159 1158 1156 1154 1154 1153 1152 1152 1152 1152 1152 1153 1154 1155 1155 1156 1157 1158 1159 1160 1160 1161 1162 1165 1167 1169 1170 1171 1172 1174 1175 1176 1176 1177 1177 1178 1178 1178 1179 1179 1179 1179 1179 1179 1179 1179 1179 1179 1179 1179 1178 1177 1177 1175 1174 1173 1171 1168 1164 1161 1157 1155 1155 1150 1148 1146 1144 1142 1141 1141 1140 1137 1137 1137 1137 1137 1138 1138 1138 1139 1140 1140 1143 1145 1150 1153 1160 1164 1168 1171 1174 1175 1177 1178 1178 1179 1180 1181 1181 1181 1181 1181 1182 1182 1182 1182 1182 1181 1181 1181 1181 1181 1181 1180 1180 1179 1177 1175 1173 1171 1168 1165 1160 1154 1151 1149 1147 1146 1146 1145 1145 1145 1142 1141 1139 1137 1135 1135 1134 1133 1132 1127 1126 1126 1126 1128 1131 1134 1138 1145 1157 1167 1174 1176 1177 1178 1181 1183 1183 1184 1185 1186 1186 1187 1187 1188 1188 1189 1189 1190 1190 1191 1191 1191 1192 1192 1193 1193 1193 1193 1193 1193 1193 1193 1192 1192 1192 1192 1192 1192 1192 1192 1192 1192 1192 1192 1192 1192 1192 1191 1190 1190 1190 1189 1189 1186 1185 1181 1159 1155 0 0 0 877 868 873 873 873 0 0 0 0 0 0 0 0 0 0 0 0 0 0 0 0 0 0 0 0 0 0 0 0 0 0 0 0 0 0 0 0 0 0 0 0 0
1998 1998 2002 2010 2014 2039 2073 2107 2134 2153 2170 2184 2187 2188 2204 2219 2238 2246 2273 2301 2322 2334 2336 2342 2348 2364 2386 2406 2416 2416 2420 2420 2421 2421 2424 2431 2431 2438 2443 2446 2472 2494 2519 2555 2577 2590 2605 2618 2635 2654 2671 2680 2690 2707 2724 2750 2766 2785 2806 2815 2815 2815 2806 2806 2806 2816 2838 2860 2876 2884 2888 2892 2904 2918 2930 2939 2940 2951 2957 2967 2976 2985 2993 3000 3010 3013 3017 3023 3027 3032 3040 3049 3061 3070 3079 3084 3090 3090 3091 3092 3105 3110 3127 3137 3137 3139 3145 3153 3161 3170 3180 3190 3198 3202 3205 3213 3219 3225 3233 3237 3237 3238 3241 3246 3252 3258 3267 3276 3280 3290 3300 3302 3304 3308 3311 3315 3321 3327 3328 3330 3330 3331 3333 3333 3333 3333 3333 3337 3343 3345 3345 3345 3344 3343 3341 3340 3337 3337 3337 3338 3338 3338 3338 3336 3334 3333 3328 3320 3309 3305 3305 3303 3298 3294 3294 3291 3289 3289 3281 3269 3262 3252 3240 3211 3194 3194 3194 3203 3212 3212 3212 3179 3126 3126 3126 3131 3166 3166 3166 3163 3146 3130 3112 3096 3082 3067 3055 3038 3021 2999 2973 2933 2899 2874 2835 2790 2750 2671 0 0 0 0 0 1179 1176 1176 1176 1176 1176 1176 1176 1176 1176 1176 1176 1176 1175 1175 1175 1175 1175 1175 1175 1174 1174 1174 1174 1173 1173 1173 1173 1172 1171 1170 1168 1166 1166 1166 1165 1164 1163 1163 1163 1162 1162 1161 1161 1161 1162 1162 1162 1162 1162 1162 1163 1163 1165 1166 1167 1167 1168 1169 1169 1170 1170 1171 1171 1172 1172 1173 1173 1173 1174 1174 1174 1175 1175 1175 1175 1175 1175 1175 1176 1176 1176 1175 1175 1174 1174 1174 1173 1172 1171 1170 1169 1168 1166 1164 1162 1161 1159 1158 1157 1156 1153 1153 1151 1150 1150 1150 1150 1151 1151 1151 1151 1152 1152 1153 1154 1155 1155 1157 1158 1159 1160 1164 1167 1169 1171 1171 1172 1173 1174 1174 1174 1174 1175 1175 1175 1175 1175 1175 1176 1176 1176 1175 1175 1175 1175 1175 1175 1175 1174 1173 1173 1172 1172 1170 1169 1167 1165 1163 1161 1159 1158 1158 1157 1155 1154 1153 1152 1151 1151 1151 1151 1151 1152 1152 1154 1154 1155 1156 1157 1158 1159 1159 1160 1162 1164 1166 1168 1170 1171 1172 1173 1175 1176 1176 1177 1177 1178 1178 1178 1179 1179 1179 1179 1179 1179 1179 1179 1179 1179 1178 1178 1178 1177 1176 1175 1173 1173 1171 1168 1164 1160 1155 1153 1153 1150 1148 1145 1143 1141 1139 1138 1137 1136 1135 1135 1135 1136 1136 1136 1137 1137 1138 1139 1141 1144 1149 1153 1160 1164 1168 1171 1174 1175 1177 1177 1178 1179 1180 1181 1181 1181 1181 1181 1181 1181 1181 1181 1181 1181 1181 1181 1181 1181 1180 1180 1179 1178 1176 1175 1173 1170 1167 1163 1158 1154 1151 1150 1148 1145 1144 1143 1143 1141 1141 1139 1138 1135 1133 1132 1132 1131 1130 1127 1127 1127 1128 1129 1131 1134 1138 1145 1157 1166 1174 1176 1177 1178 1181 1183 1183 1184 1185 1186 1186 1186 1187 1188 1188 1189 1189 1190 1190 1190 1191 1191 1191 1192 1192 1193 1193 1192 1192 1192 1192 1192 1192 1192 1192 1192 1192 1192 1192 1192 1192 1192 1192 1192 1191 1191 1191 1191 1189 1189 1188 1187 1187 1186 1184 1179 1159 1130 0 0 0 877 868 874 874 874 0 0 0 0 0 0 0 0 0 0 0 0 0 0 0 0 0 0 0 0 0 0 0 0 0 0 0 0 0 0 0 0 0 0 0 0 0
1990 1990 2000 2003 2014 2039 2067 2097 2126 2148 2164 2184 2187 2188 2204 2219 2238 2252 2286 2312 2327 2336 2340 2344 2351 2372 2388 2406 2424 2429 2435 2442 2447 2450 2450 2450 2446 2446 2446 2446 2474 2493 2517 2553 2562 2590 2605 2620 2639 2654 2663 2680 2694 2713 2729 2753 2769 2789 2810 2820 2823 2823 2823 2823 2823 2831 2847 2863 2878 2886 2889 2895 2908 2922 2935 2943 2944 2951 2957 2962 2968 2976 2986 2994 3003 3013 3018 3024 3031 3037 3043 3054 3066 3078 3087 3091 3092 3092 3095 3097 3105 3113 3128 3137 3137 3139 3145 3153 3159 3171 3181 3191 3198 3202 3206 3213 3224 3232 3238 3240 3241 3242 3246 3252 3257 3266 3275 3284 3290 3297 3301 3305 3306 3308 3312 3318 3323 3327 3328 3331 3334 3337 3337 3337 3336 3336 3336 3342 3345 3349 3349 3349 3347 3346 3345 3345 3342 3339 3339 3339 3342 3342 3342 3342 3341 3339 3335 3326 3317 3310 3309 3306 3305 3300 3300 3299 3298 3295 3287 3277 3271 3265 3253 3234 3203 3203 3203 3205 3212 3212 3212 3188 3143 3114 3114 3114 3158 3163 3163 3163 3146 3130 3119 3104 3089 3078 3072 3046 3028 3015 2994 2962 2925 2893 2858 2815 2765 2681 0 0 0 0 0 1179 1176 1175 1175 1175 1176 1176 1176 1176 1176 1176 1176 1176 1176 1176 1176 1175 1175 1175 1175 1175 1174 1174 1174 1173 1173 1173 1172 1172 1170 1169 1167 1166 1166 1164 1164 1163 1162 1162 1161 1161 1161 1161 1161 1161 1161 1161 1161 1161 1162 1162 1163 1163 1164 1165 1166 1167 1168 1168 1169 1169 1170 1171 1171 1171 1172 1173 1173 1173 1174 1174 1174 1174 1175 1175 1175 1175 1175 1175 1176 1176 1176 1175 1175 1174 1174 1174 1173 1172 1171 1170 1169 1167 1166 1164 1162 1160 1158 1157 1157 1155 1153 1152 1151 1150 1149 1149 1150 1150 1150 1150 1150 1151 1152 1153 1153 1154 1155 1157 1158 1159 1161 1164 1167 1169 1170 1171 1171 1172 1173 1173 1174 1174 1174 1174 1175 1175 1175 1175 1176 1176 1176 1175 1175 1175 1175 1175 1175 1175 1174 1173 1173 1172 1171 1170 1168 1166 1164 1162 1160 1158 1158 1157 1156 1154 1152 1151 1151 1151 1151 1150 1150 1150 1150 1150 1152 1153 1154 1155 1156 1158 1158 1159 1160 1162 1163 1166 1168 1169 1171 1172 1173 1174 1175 1176 1176 1177 1177 1178 1178 1178 1178 1178 1178 1178 1178 1178 1179 1179 1178 1178 1177 1177 1177 1176 1174 1173 1172 1171 1168 1164 1159 1154 1150 1150 1150 1147 1144 1141 1139 1137 1137 1136 1136 1135 1134 1134 1134 1135 1135 1137 1137 1137 1138 1141 1145 1149 1153 1158 1163 1168 1171 1174 1176 1177 1177 1178 1179 1180 1180 1181 1181 1181 1181 1181 1181 1181 1181 1181 1181 1181 1181 1181 1181 1180 1180 1179 1178 1176 1175 1173 1170 1167 1163 1158 1154 1152 1150 1148 1145 1144 1143 1142 1141 1139 1138 1136 1134 1132 1131 1131 1130 1128 1128 1128 1129 1129 1131 1133 1135 1142 1146 1156 1166 1171 1176 1177 1178 1181 1183 1183 1184 1185 1186 1186 1187 1187 1188 1188 1189 1189 1190 1190 1190 1191 1191 1191 1191 1191 1192 1192 1192 1192 1192 1192 1191 1191 1191 1191 1191 1191 1192 1192 1192 1192 1192 1191 1191 1191 1191 1190 1190 1188 1188 1188 1187 1186 1182 1182 1176 1158 1130 0 0 0 892 866 866 866 874 0 0 0 0 0 0 0 0 0 0 0 0 0 0 0 0 0 0 0 0 0 0 0 0 0 0 0 0 0 0 0 0 0 0 0 0 0
1984 1984 1988 2000 2014 2039 2067 2091 2112 2136 2162 2186 2189 2192 2205 2225 2242 2270 2302 2326 2331 2337 2342 2349 2356 2372 2388 2406 2425 2432 2448 2463 2467 2467 2467 2459 2454 2454 2454 2457 2474 2490 2515 2548 2554 2588 2611 2631 2640 2654 2663 2681 2706 2716 2740 2763 2785 2803 2815 2820 2825 2828 2829 2830 2832 2843 2854 2867 2879 2888 2892 2901 2911 2925 2938 2946 2949 2951 2957 2962 2968 2976 2986 2994 3003 3011 3019 3026 3032 3040 3047 3057 3070 3080 3095 3098 3100 3101 3102 3106 3115 3126 3137 3137 3139 3142 3145 3153 3159 3171 3184 3191 3198 3202 3207 3216 3226 3236 3243 3243 3244 3246 3251 3257 3263 3272 3276 3284 3293 3300 3301 3306 3308 3308 3314 3318 3325 3328 3331 3335 3343 3343 3343 3342 3342 3342 3342 3345 3349 3353 3353 3353 3352 3350 3347 3346 3342 3341 3341 3341 3345 3345 3345 3345 3344 3343 3340 3330 3322 3315 3312 3309 3306 3306 3305 3305 3301 3295 3287 3282 3282 3281 3278 3259 3229 3205 3205 3205 3212 3212 3212 3192 3148 3103 3103 3103 3132 3166 3166 3166 3152 3140 3127 3116 3103 3092 3073 3051 3038 3024 3002 2977 2950 2912 2874 2830 2766 2682 0 0 0 0 0 1179 1176 1176 1176 1176 1176 1176 1176 1176 1176 1176 1176 1176 1176 1176 1176 1175 1175 1175 1175 1175 1174 1174 1174 1173 1173 1172 1172 1171 1170 1168 1166 1165 1164 1164 1163 1162 1162 1161 1161 1161 1160 1160 1160 1160 1160 1160 1161 1161 1162 1162 1162 1163 1164 1165 1166 1167 1168 1168 1169 1169 1170 1171 1171 1171 1172 1173 1173 1173 1174 1174 1174 1175 1175 1175 1175 1175 1175 1175 1175 1175 1175 1175 1175 1174 1174 1173 1173 1172 1171 1170 1168 1167 1165 1163 1161 1159 1158 1157 1156 1155 1153 1152 1151 1150 1150 1150 1150 1149 1149 1150 1150 1150 1150 1152 1153 1154 1155 1157 1158 1158 1161 1164 1166 1168 1169 1170 1171 1172 1172 1173 1173 1174 1174 1174 1175 1175 1175 1175 1176 1176 1176 1175 1175 1175 1175 1175 1175 1174 1173 1173 1172 1172 1171 1168 1168 1166 1164 1162 1160 1158 1156 1155 1154 1153 1151 1150 1150 1150 1149 1149 1149 1149 1149 1150 1151 1152 1154 1155 1155 1157 1158 1159 1160 1161 1163 1166 1168 1168 1170 1172 1173 1174 1175 1175 1176 1176 1176 1177 1177 1177 1177 1177 1178 1178 1178 1178 1178 1178 1178 1178 1177 1177 1176 1175 1174 1173 1171 1170 1168 1163 1159 1153 1149 1148 1147 1147 1144 1141 1138 1137 1135 1135 1135 1135 1133 1133 1133 1134 1135 1136 1136 1137 1138 1141 1145 1149 1153 1157 1163 1168 1172 1174 1176 1177 1177 1178 1179 1180 1180 1181 1181 1181 1181 1181 1181 1181 1181 1181 1181 1181 1181 1181 1181 1180 1180 1179 1178 1176 1175 1173 1170 1167 1163 1157 1154 1152 1150 1148 1145 1143 1143 1142 1141 1139 1138 1135 1134 1132 1131 1130 1128 1128 1128 1128 1129 1132 1134 1136 1139 1143 1147 1156 1165 1171 1176 1177 1179 1181 1182 1183 1184 1185 1186 1186 1187 1187 1188 1188 1189 1189 1189 1190 1190 1190 1191 1191 1191 1191 1191 1191 1191 1191 1191 1191 1191 1191 1191 1191 1191 1191 1191 1191 1191 1191 1191 1191 1191 1190 1189 1189 1188 1188 1187 1187 1187 1186 1182 1178 1176 1158 0 0 0 0 892 864 864 864 874 0 0 0 0 0 0 0 0 0 0 0 0 0 0 0 0 0 0 0 0 0 0 0 0 0 0 0 0 0 0 0 0 0 0 0 0 0
1984 1984 1988 2000 2014 2039 2067 2091 2107 2126 2162 2186 2195 2203 2213 2231 2247 2282 2319 2337 2338 2339 2344 2352 2361 2373 2388 2411 2425 2433 2452 2469 2475 2475 2475 2475 2465 2465 2465 2468 2476 2490 2511 2542 2549 2588 2617 2636 2654 2655 2663 2682 2709 2729 2755 2780 2802 2810 2815 2820 2825 2830 2835 2838 2842 2852 2861 2875 2886 2896 2905 2911 2920 2934 2942 2947 2951 2953 2957 2962 2968 2976 2986 2994 3003 3011 3019 3026 3037 3048 3056 3064 3072 3083 3100 3102 3104 3107 3114 3117 3130 3142 3151 3151 3151 3152 3152 3153 3159 3171 3185 3194 3198 3204 3207 3217 3228 3240 3245 3246 3247 3249 3254 3259 3265 3272 3276 3284 3293 3303 3306 3308 3312 3318 3323 3329 3333 3335 3337 3344 3350 3350 3350 3345 3344 3344 3344 3348 3352 3356 3357 3357 3357 3354 3353 3352 3351 3350 3348 3348 3347 3347 3347 3347 3346 3345 3345 3332 3325 3323 3316 3311 3309 3308 3308 3307 3303 3297 3289 3289 3289 3291 3291 3291 3255 3221 3215 3215 3212 3212 3212 3193 3158 3128 3112 3112 3112 3158 3165 3165 3165 3155 3141 3128 3119 3111 3091 3070 3050 3033 3011 2989 2958 2922 2884 2836 2783 2696 0 0 0 0 1194 1179 1176 1176 1176 1176 1176 1176 1176 1176 1176 1176 1176 1176 1176 1176 1176 1175 1175 1175 1175 1174 1174 1174 1174 1173 1173 1172 1171 1171 1170 1168 1166 1164 1164 1163 1162 1162 1161 1161 1160 1159 1159 1159 1159 1159 1160 1160 1160 1160 1161 1162 1162 1163 1164 1165 1166 1167 1168 1168 1169 1169 1169 1171 1171 1171 1172 1173 1173 1173 1174 1174 1174 1175 1175 1175 1175 1175 1175 1175 1175 1175 1175 1175 1174 1174 1173 1173 1172 1172 1171 1170 1168 1166 1165 1162 1160 1159 1157 1156 1156 1155 1153 1152 1152 1151 1150 1149 1149 1149 1149 1149 1149 1149 1150 1151 1152 1153 1154 1156 1158 1158 1161 1163 1164 1167 1169 1169 1171 1172 1172 1172 1173 1174 1174 1174 1174 1175 1175 1175 1175 1176 1176 1176 1176 1176 1175 1175 1175 1174 1173 1173 1172 1171 1170 1168 1167 1166 1164 1160 1158 1156 1155 1154 1153 1152 1150 1149 1148 1148 1148 1147 1147 1148 1148 1149 1150 1151 1153 1154 1155 1157 1157 1158 1159 1160 1162 1166 1167 1168 1170 1172 1172 1173 1175 1175 1175 1176 1176 1176 1177 1177 1177 1177 1178 1178 1178 1178 1178 1178 1178 1178 1177 1177 1176 1175 1174 1173 1171 1169 1167 1163 1159 1152 1149 1147 1147 1145 1142 1140 1138 1137 1135 1135 1134 1134 1133 1133 1133 1133 1135 1136 1136 1136 1138 1141 1145 1148 1152 1156 1163 1168 1172 1174 1176 1177 1178 1178 1179 1180 1180 1181 1181 1181 1181 1181 1181 1181 1181 1181 1181 1181 1181 1181 1181 1180 1180 1179 1178 1177 1175 1173 1170 1167 1164 1157 1154 1152 1149 1148 1145 1143 1143 1141 1140 1139 1137 1135 1133 1132 1131 1130 1128 1128 1128 1128 1131 1132 1134 1136 1140 1144 1147 1156 1163 1171 1176 1177 1180 1181 1182 1183 1184 1185 1186 1186 1187 1187 1188 1188 1189 1189 1189 1190 1190 1190 1191 1191 1191 1191 1191 1191 1191 1191 1191 1191 1191 1191 1191 1191 1191 1191 1191 1191 1191 1190 1190 1190 1190 1190 1189 1189 1187 1187 1187 1186 1186 1186 1182 1176 1161 1154 0 0 0 0 869 864 864 864 874 0 0 0 0 0 0 0 0 0 0 0 0 0 0 0 0 0 0 0 0 0 0 0 0 0 0 0 0 0 0 0 0 0 0 0 0 0
1984 1984 1988 2000 2025 2049 2075 2091 2107 2126 2162 2187 2206 2208 2219 2238 2253 2282 2319 2337 2338 2339 2344 2353 2364 2373 2382 2411 2426 2436 2455 2470 2475 2487 2493 2493 2493 2487 2482 2482 2482 2483 2500 2506 2541 2588 2617 2636 2656 2661 2665 2686 2716 2744 2766 2788 2802 2810 2815 2820 2825 2830 2836 2843 2848 2858 2870 2884 2904 2917 2920 2923 2930 2939 2946 2950 2954 2959 2961 2963 2973 2983 2992 2999 3003 3011 3019 3030 3044 3057 3065 3070 3074 3084 3100 3110 3113 3115 3126 3130 3141 3146 3151 3159 3159 3159 3162 3163 3170 3186 3197 3204 3206 3206 3211 3219 3232 3241 3245 3247 3249 3252 3255 3260 3266 3272 3276 3284 3294 3305 3313 3317 3320 3324 3329 3334 3339 3341 3342 3347 3353 3353 3353 3351 3349 3349 3349 3351 3355 3358 3359 3359 3359 3358 3358 3357 3357 3353 3352 3352 3352 3350 3350 3348 3347 3347 3346 3342 3340 3331 3324 3317 3312 3311 3309 3309 3307 3299 3292 3292 3292 3300 3300 3300 3281 3244 3219 3218 3215 3213 3212 3193 3178 3160 3137 3131 3131 3131 3160 3168 3168 3168 3152 3135 3126 3126 3112 3087 3070 3048 3025 2996 2965 2931 2892 2843 2783 2696 0 0 0 0 1191 1179 1176 1176 1176 1177 1177 1177 1176 1176 1176 1176 1176 1176 1176 1176 1176 1175 1175 1175 1175 1174 1174 1174 1174 1173 1173 1172 1171 1170 1169 1168 1166 1164 1164 1163 1162 1161 1161 1160 1160 1159 1159 1159 1159 1159 1160 1160 1160 1160 1161 1162 1163 1163 1164 1165 1166 1167 1167 1168 1169 1169 1170 1171 1171 1172 1172 1173 1173 1173 1174 1174 1174 1174 1174 1174 1175 1175 1175 1175 1175 1175 1175 1175 1174 1174 1173 1173 1172 1172 1170 1170 1168 1166 1165 1162 1160 1159 1157 1156 1156 1155 1154 1152 1152 1151 1150 1149 1149 1149 1149 1149 1149 1149 1149 1150 1151 1152 1154 1155 1156 1158 1160 1162 1163 1166 1168 1169 1171 1172 1172 1172 1173 1173 1174 1174 1174 1175 1175 1175 1175 1175 1176 1176 1176 1175 1175 1175 1175 1174 1173 1172 1171 1171 1170 1168 1166 1165 1163 1159 1157 1156 1155 1154 1153 1152 1150 1149 1147 1147 1147 1146 1146 1146 1147 1148 1149 1151 1152 1154 1155 1155 1156 1157 1159 1160 1162 1166 1167 1168 1170 1171 1172 1173 1174 1175 1175 1176 1176 1176 1176 1177 1177 1177 1177 1177 1178 1178 1178 1178 1178 1177 1177 1177 1176 1175 1174 1172 1171 1169 1167 1162 1158 1152 1149 1147 1145 1143 1141 1139 1138 1136 1135 1135 1134 1133 1133 1133 1133 1133 1135 1136 1136 1136 1138 1141 1145 1148 1151 1155 1163 1168 1172 1174 1176 1177 1178 1178 1179 1180 1180 1181 1181 1181 1181 1181 1181 1181 1181 1181 1181 1181 1181 1181 1181 1180 1180 1180 1179 1178 1175 1173 1171 1169 1165 1157 1154 1152 1149 1148 1145 1142 1141 1140 1139 1139 1136 1134 1133 1132 1130 1129 1128 1128 1128 1129 1131 1132 1134 1136 1140 1144 1147 1156 1163 1170 1176 1177 1180 1181 1182 1183 1184 1185 1186 1186 1187 1187 1188 1188 1188 1189 1189 1190 1190 1190 1191 1191 1191 1191 1191 1191 1191 1191 1191 1191 1191 1191 1191 1191 1191 1191 1190 1190 1190 1190 1190 1190 1189 1189 1188 1187 1186 1186 1186 1186 1186 1186 1184 1176 1161 1153 0 0 0 0 869 866 866 866 873 0 0 0 0 0 0 0 0 0 0 0 0 0 0 0 0 0 0 0 0 0 0 0 0 0 0 0 0 0 0 0 0 0 0 0 0 0
1987 1987 1993 2011 2041 2069 2089 2101 2107 2126 2165 2200 2215 2218 2233 2241 2253 2282 2319 2338 2339 2341 2344 2355 2365 2373 2382 2412 2424 2441 2457 2471 2483 2494 2508 2508 2508 2502 2489 2486 2486 2486 2496 2506 2541 2581 2617 2636 2656 2665 2688 2706 2727 2756 2774 2789 2802 2810 2814 2818 2825 2830 2837 2844 2851 2864 2882 2896 2905 2917 2927 2932 2936 2939 2946 2951 2955 2961 2966 2972 2980 2990 2999 3004 3005 3012 3021 3035 3051 3066 3074 3078 3078 3085 3101 3116 3125 3129 3133 3140 3141 3146 3151 3159 3166 3169 3169 3173 3185 3200 3211 3215 3216 3217 3217 3227 3234 3241 3245 3248 3250 3255 3257 3263 3266 3273 3276 3285 3295 3307 3316 3322 3326 3331 3335 3338 3342 3345 3347 3351 3357 3358 3358 3359 3359 3360 3360 3360 3362 3362 3360 3360 3360 3360 3360 3360 3360 3360 3358 3355 3355 3354 3353 3350 3350 3348 3348 3343 3342 3337 3333 3327 3321 3318 3317 3315 3311 3308 3301 3301 3301 3305 3305 3305 3289 3260 3234 3223 3221 3220 3214 3201 3191 3184 3169 3131 3131 3131 3148 3168 3168 3168 3159 3140 3132 3129 3114 3101 3085 3064 3033 3006 2975 2944 2897 2843 2783 2700 0 0 0 0 1187 1176 1176 1176 1176 1177 1177 1177 1176 1176 1176 1176 1176 1176 1176 1176 1176 1175 1175 1175 1175 1174 1174 1174 1174 1173 1173 1172 1171 1170 1169 1168 1166 1165 1164 1163 1162 1161 1160 1159 1159 1159 1159 1159 1159 1159 1160 1160 1160 1160 1161 1162 1163 1164 1164 1165 1166 1166 1167 1168 1169 1169 1170 1171 1171 1172 1172 1173 1173 1173 1174 1174 1174 1174 1174 1174 1175 1175 1175 1175 1175 1175 1175 1174 1174 1174 1173 1173 1172 1172 1170 1170 1168 1167 1165 1163 1160 1159 1157 1156 1156 1155 1154 1152 1152 1151 1150 1149 1149 1149 1148 1148 1148 1148 1149 1150 1150 1152 1153 1154 1156 1158 1160 1162 1163 1166 1167 1169 1170 1171 1172 1172 1173 1173 1173 1174 1174 1175 1175 1175 1175 1175 1176 1176 1176 1176 1175 1175 1174 1174 1173 1172 1171 1170 1170 1168 1166 1165 1163 1159 1157 1155 1155 1154 1153 1152 1150 1148 1147 1147 1147 1146 1146 1146 1147 1148 1149 1151 1152 1154 1155 1155 1156 1157 1159 1160 1162 1165 1167 1168 1170 1171 1172 1173 1174 1175 1175 1176 1176 1176 1176 1176 1177 1177 1177 1177 1177 1177 1177 1177 1177 1177 1177 1177 1176 1175 1174 1172 1171 1169 1166 1162 1158 1152 1149 1146 1144 1141 1140 1139 1138 1136 1135 1134 1132 1132 1132 1132 1133 1133 1135 1136 1136 1137 1139 1141 1145 1148 1149 1155 1163 1168 1171 1174 1176 1177 1178 1178 1179 1180 1180 1180 1181 1181 1181 1181 1181 1181 1181 1181 1181 1181 1181 1181 1181 1181 1180 1180 1179 1178 1175 1173 1171 1169 1165 1157 1154 1151 1149 1148 1145 1141 1139 1139 1138 1137 1136 1134 1133 1131 1130 1129 1129 1129 1129 1130 1131 1132 1134 1136 1139 1144 1148 1156 1163 1170 1174 1177 1180 1181 1182 1183 1184 1185 1186 1186 1187 1187 1188 1188 1188 1189 1189 1190 1190 1190 1190 1190 1190 1191 1191 1191 1191 1191 1191 1191 1191 1191 1191 1190 1190 1190 1190 1190 1189 1189 1189 1189 1188 1188 1187 1186 1185 1184 1184 1184 1186 1186 1186 1176 1161 1151 0 0 0 0 871 869 869 869 869 895 0 0 0 0 0 0 0 0 0 0 0 0 0 0 0 0 0 0 0 0 0 0 0 0 0 0 0 0 0 0 0 0 0 0 0 0
1987 1987 1993 2011 2041 2069 2089 2102 2118 2145 2172 2201 2216 2221 2233 2238 2253 2275 2300 2322 2338 2341 2344 2355 2365 2371 2382 2412 2422 2441 2458 2476 2490 2507 2518 2518 2518 2505 2498 2492 2492 2492 2496 2506 2541 2581 2616 2630 2655 2665 2697 2725 2739 2764 2780 2792 2802 2810 2814 2818 2825 2830 2839 2846 2855 2872 2889 2896 2906 2918 2930 2941 2946 2946 2946 2952 2956 2966 2976 2985 2990 2997 3007 3010 3014 3017 3025 3036 3053 3069 3081 3083 3086 3086 3104 3122 3133 3139 3141 3144 3144 3146 3151 3159 3166 3175 3180 3188 3202 3216 3221 3221 3222 3225 3225 3231 3237 3241 3245 3249 3253 3258 3263 3268 3269 3274 3276 3288 3299 3307 3316 3324 3330 3336 3340 3344 3347 3349 3353 3357 3359 3363 3364 3365 3366 3367 3367 3367 3365 3362 3362 3362 3362 3362 3362 3362 3362 3361 3359 3358 3358 3357 3354 3354 3353 3350 3348 3347 3344 3342 3340 3335 3329 3323 3321 3320 3319 3316 3310 3308 3308 3307 3307 3307 3295 3274 3245 3229 3223 3221 3218 3210 3208 3205 3196 3176 3159 3153 3153 3153 3162 3162 3162 3152 3143 3132 3122 3107 3095 3076 3051 3012 2983 2951 2898 2843 2788 2700 0 0 0 0 1187 1176 1176 1176 1176 1177 1177 1177 1176 1176 1176 1176 1176 1176 1176 1176 1176 1175 1175 1175 1175 1174 1174 1173 1173 1173 1172 1172 1171 1170 1169 1167 1166 1165 1164 1163 1162 1161 1160 1159 1159 1159 1159 1159 1159 1160 1160 1160 1160 1161 1162 1162 1163 1164 1164 1165 1166 1166 1167 1168 1169 1169 1170 1171 1171 1172 1172 1173 1173 1173 1174 1174 1174 1174 1174 1175 1175 1175 1175 1175 1175 1175 1175 1174 1174 1174 1173 1173 1172 1171 1170 1170 1168 1167 1165 1163 1160 1160 1159 1157 1156 1155 1154 1153 1152 1151 1151 1150 1150 1149 1148 1148 1148 1148 1149 1150 1150 1151 1152 1154 1156 1158 1160 1162 1163 1166 1167 1169 1169 1171 1172 1172 1173 1173 1173 1174 1174 1174 1175 1175 1175 1175 1176 1176 1176 1176 1175 1175 1175 1174 1173 1172 1171 1170 1170 1168 1166 1164 1162 1159 1157 1155 1155 1154 1154 1152 1150 1148 1147 1147 1147 1146 1146 1146 1147 1148 1149 1151 1152 1153 1155 1155 1155 1157 1159 1161 1163 1165 1167 1169 1170 1171 1172 1173 1174 1175 1175 1175 1176 1176 1176 1176 1176 1176 1177 1177 1177 1177 1177 1177 1177 1177 1177 1176 1175 1175 1174 1172 1170 1169 1166 1162 1158 1152 1148 1145 1144 1141 1140 1138 1137 1136 1135 1134 1132 1132 1132 1132 1133 1133 1135 1136 1137 1137 1139 1141 1145 1148 1149 1155 1163 1167 1171 1174 1176 1177 1178 1178 1179 1180 1180 1180 1180 1180 1180 1180 1181 1181 1181 1181 1181 1181 1181 1181 1181 1181 1181 1180 1179 1178 1175 1173 1171 1169 1165 1157 1154 1151 1149 1147 1143 1141 1139 1138 1137 1137 1136 1134 1133 1131 1130 1129 1129 1129 1129 1130 1131 1132 1134 1136 1139 1143 1148 1157 1164 1170 1174 1177 1179 1182 1182 1183 1184 1185 1186 1186 1187 1187 1188 1188 1188 1188 1189 1189 1190 1190 1190 1190 1190 1191 1191 1191 1191 1191 1191 1190 1190 1190 1190 1190 1190 1190 1190 1189 1189 1189 1188 1188 1187 1187 1186 1186 1185 1184 1182 1182 1182 1182 1182 1175 1161 1153 0 0 0 914 883 878 868 868 868 873 0 0 0 0 0 0 0 0 0 0 0 0 0 0 0 0 0 0 0 0 0 0 0 0 0 0 0 0 0 0 0 0 0 0 0 0
1990 1990 1993 2011 2041 2069 2089 2104 2123 2147 2172 2201 2220 2226 2233 2240 2249 2273 2300 2322 2338 2341 2344 2353 2364 2371 2382 2412 2417 2441 2458 2477 2492 2510 2526 2526 2526 2519 2509 2500 2496 2496 2496 2519 2551 2581 2616 2629 2637 2665 2699 2734 2757 2774 2789 2796 2802 2810 2814 2818 2827 2830 2841 2848 2862 2880 2893 2898 2909 2919 2932 2946 2952 2954 2957 2963 2967 2975 2993 3001 3008 3008 3014 3016 3018 3021 3026 3037 3054 3072 3088 3090 3096 3100 3106 3123 3133 3139 3144 3144 3145 3145 3149 3159 3167 3177 3189 3202 3219 3226 3226 3226 3226 3226 3228 3233 3238 3241 3245 3249 3256 3261 3266 3271 3274 3280 3283 3292 3303 3311 3319 3324 3334 3339 3344 3349 3352 3353 3357 3358 3362 3366 3368 3368 3370 3370 3370 3370 3367 3365 3365 3364 3364 3364 3364 3364 3364 3363 3361 3361 3360 3359 3357 3355 3354 3351 3348 3347 3345 3344 3340 3337 3332 3329 3324 3323 3323 3322 3314 3314 3314 3311 3311 3311 3299 3286 3259 3238 3224 3221 3220 3220 3219 3214 3203 3195 3190 3173 3163 3163 3162 3162 3162 3152 3152 3141 3128 3113 3098 3081 3059 3024 2990 2952 2902 2843 2788 2699 0 0 0 0 1187 1176 1176 1176 1176 1177 1177 1177 1176 1176 1176 1176 1176 1176 1176 1176 1175 1175 1175 1175 1175 1174 1174 1173 1173 1173 1172 1172 1170 1169 1169 1167 1165 1165 1164 1163 1162 1160 1160 1159 1159 1159 1159 1160 1160 1161 1161 1161 1161 1161 1162 1162 1163 1164 1164 1165 1166 1166 1168 1168 1169 1170 1170 1171 1171 1172 1172 1173 1173 1174 1174 1174 1174 1175 1175 1175 1175 1175 1175 1175 1175 1175 1174 1174 1174 1174 1173 1173 1172 1171 1171 1169 1168 1167 1165 1164 1161 1160 1159 1158 1157 1156 1155 1154 1152 1152 1151 1151 1150 1149 1148 1148 1148 1148 1149 1150 1150 1151 1152 1154 1156 1159 1160 1162 1164 1165 1167 1169 1169 1171 1172 1172 1173 1173 1173 1173 1173 1174 1175 1175 1175 1175 1175 1176 1176 1176 1175 1175 1174 1174 1173 1172 1171 1170 1169 1168 1166 1163 1162 1159 1157 1156 1155 1154 1154 1152 1150 1148 1148 1147 1147 1147 1147 1147 1147 1149 1149 1150 1151 1153 1154 1155 1157 1158 1160 1162 1163 1165 1167 1169 1170 1171 1172 1173 1174 1174 1175 1175 1175 1175 1176 1176 1176 1176 1176 1177 1177 1177 1177 1177 1177 1177 1176 1176 1175 1174 1173 1171 1169 1167 1164 1162 1158 1151 1148 1145 1144 1141 1140 1138 1137 1136 1135 1135 1132 1132 1132 1133 1133 1134 1135 1137 1138 1139 1140 1142 1146 1148 1149 1156 1163 1167 1170 1174 1176 1177 1178 1179 1179 1180 1180 1180 1180 1180 1180 1180 1180 1181 1181 1181 1181 1181 1181 1181 1181 1181 1181 1180 1179 1177 1175 1173 1173 1171 1167 1159 1154 1151 1149 1147 1143 1141 1139 1138 1137 1136 1134 1134 1132 1132 1130 1129 1129 1129 1129 1130 1131 1132 1134 1136 1139 1143 1149 1157 1164 1171 1174 1177 1179 1182 1183 1184 1184 1185 1186 1186 1187 1187 1188 1188 1188 1188 1189 1189 1190 1190 1190 1190 1190 1190 1191 1191 1191 1191 1191 1190 1190 1190 1190 1190 1190 1190 1189 1189 1188 1188 1188 1187 1187 1187 1185 1185 1185 1183 1182 1182 1182 1181 1181 1175 1162 1153 0 0 0 914 897 886 876 866 866 866 0 0 0 0 0 0 0 0 0 0 0 0 0 0 0 0 0 0 0 0 0 0 0 0 0 0 0 0 0 0 0 0 0 0 0 0
1991 1991 1996 2016 2042 2064 2087 2106 2126 2148 2174 2204 2231 2231 2238 2243 2249 2273 2300 2322 2338 2344 2345 2353 2359 2364 2374 2377 2402 2430 2460 2478 2493 2510 2527 2534 2534 2534 2532 2522 2516 2516 2516 2527 2551 2582 2611 2625 2637 2665 2702 2736 2773 2790 2797 2802 2806 2813 2821 2830 2839 2846 2849 2859 2873 2886 2899 2905 2910 2921 2940 2952 2958 2964 2969 2973 2980 2988 2998 3007 3014 3016 3017 3018 3023 3028 3030 3039 3055 3075 3092 3100 3111 3116 3123 3126 3133 3139 3144 3144 3145 3145 3149 3159 3167 3182 3198 3216 3222 3226 3226 3227 3228 3228 3230 3233 3238 3241 3245 3249 3256 3261 3268 3274 3279 3285 3291 3298 3305 3312 3321 3330 3337 3342 3348 3352 3357 3357 3358 3359 3362 3367 3369 3371 3371 3371 3371 3371 3369 3369 3368 3368 3367 3367 3367 3367 3367 3366 3365 3364 3363 3363 3361 3357 3356 3353 3352 3348 3348 3346 3343 3339 3334 3332 3329 3327 3325 3323 3320 3320 3320 3319 3319 3316 3306 3293 3275 3246 3228 3222 3220 3220 3219 3214 3203 3195 3190 3182 3170 3150 3150 3150 3152 3152 3152 3148 3130 3118 3103 3088 3064 3036 2999 2957 2907 2843 2773 2688 0 0 0 0 1189 1177 1177 1177 1177 1177 1177 1177 1177 1176 1175 1175 1175 1175 1175 1175 1175 1175 1175 1175 1174 1174 1174 1173 1173 1173 1172 1171 1170 1169 1168 1166 1165 1165 1164 1163 1162 1161 1160 1159 1159 1159 1159 1160 1160 1161 1161 1161 1161 1161 1162 1162 1163 1164 1164 1165 1166 1166 1168 1169 1170 1170 1170 1171 1171 1173 1173 1174 1174 1174 1174 1175 1175 1175 1175 1175 1175 1175 1175 1175 1175 1175 1175 1174 1174 1174 1173 1173 1172 1171 1170 1169 1168 1167 1165 1164 1162 1161 1160 1159 1158 1157 1156 1154 1153 1152 1152 1152 1150 1149 1148 1148 1148 1149 1150 1150 1150 1151 1152 1154 1156 1159 1160 1163 1164 1165 1167 1169 1169 1170 1172 1172 1172 1173 1173 1173 1173 1174 1175 1175 1175 1175 1175 1175 1175 1175 1175 1175 1174 1174 1173 1172 1171 1170 1169 1168 1166 1163 1162 1159 1157 1156 1155 1154 1154 1152 1151 1149 1148 1148 1147 1147 1147 1148 1148 1149 1150 1151 1151 1152 1154 1155 1157 1159 1160 1163 1164 1165 1167 1169 1170 1171 1172 1173 1174 1174 1174 1175 1175 1175 1175 1176 1176 1176 1176 1176 1176 1176 1176 1176 1176 1176 1176 1175 1175 1174 1173 1171 1169 1167 1164 1162 1157 1151 1148 1145 1144 1141 1140 1138 1137 1136 1135 1135 1133 1133 1133 1134 1135 1135 1136 1138 1139 1139 1141 1143 1147 1149 1150 1156 1163 1166 1170 1174 1176 1177 1178 1179 1179 1180 1180 1180 1180 1180 1180 1180 1181 1181 1181 1181 1181 1181 1181 1181 1181 1181 1181 1180 1179 1177 1175 1174 1173 1171 1167 1160 1154 1151 1149 1147 1143 1141 1140 1138 1137 1136 1134 1134 1132 1132 1130 1129 1129 1129 1129 1129 1131 1132 1135 1137 1139 1143 1150 1157 1165 1172 1175 1177 1179 1182 1183 1184 1184 1185 1186 1186 1187 1187 1188 1188 1188 1188 1189 1189 1190 1190 1190 1190 1190 1190 1190 1191 1191 1190 1190 1190 1190 1190 1190 1190 1190 1189 1189 1189 1188 1187 1187 1187 1187 1186 1185 1184 1183 1183 1182 1182 1182 1180 1179 1175 1162 1155 0 0 0 916 897 886 876 866 858 858 858 0 0 0 0 0 0 0 0 0 0 0 0 0 0 0 0 0 0 0 0 0 0 0 0 0 0 0 0 0 0 0 0 0 0 0
1991 1991 1997 2018 2042 2064 2086 2107 2129 2151 2174 2204 2231 2234 2238 2243 2249 2273 2309 2337 2345 2354 2359 2359 2359 2364 2374 2377 2402 2430 2460 2479 2494 2511 2527 2540 2548 2548 2548 2546 2541 2538 2538 2541 2551 2582 2609 2625 2637 2665 2704 2751 2777 2795 2802 2804 2809 2816 2825 2841 2856 2858 2860 2865 2879 2892 2904 2910 2921 2927 2940 2952 2961 2969 2974 2977 2982 2989 2998 3007 3014 3021 3023 3027 3033 3036 3039 3046 3058 3078 3095 3105 3111 3116 3123 3126 3133 3138 3144 3145 3145 3147 3149 3159 3167 3186 3203 3216 3222 3226 3231 3233 3233 3234 3235 3235 3240 3241 3245 3249 3257 3263 3269 3275 3280 3290 3295 3299 3308 3320 3329 3334 3337 3342 3348 3353 3357 3357 3359 3359 3363 3367 3371 3371 3373 3373 3373 3372 3372 3371 3371 3370 3369 3369 3369 3370 3370 3370 3369 3367 3366 3366 3363 3362 3358 3358 3354 3353 3352 3352 3349 3346 3340 3337 3334 3331 3329 3329 3326 3325 3325 3325 3325 3322 3311 3298 3281 3260 3237 3226 3223 3220 3219 3214 3203 3195 3190 3184 3172 3147 3104 3104 3104 3149 3149 3149 3140 3125 3114 3094 3074 3040 3010 2965 2908 2844 2775 2665 0 0 0 0 1191 1179 1178 1178 1178 1177 1177 1177 1177 1176 1175 1175 1175 1175 1175 1175 1175 1175 1175 1175 1174 1174 1174 1174 1173 1173 1172 1171 1170 1169 1168 1166 1165 1165 1163 1162 1162 1161 1160 1159 1159 1159 1160 1160 1161 1162 1162 1162 1162 1162 1162 1162 1162 1164 1164 1165 1165 1166 1168 1169 1170 1170 1171 1171 1171 1173 1173 1174 1174 1174 1175 1175 1175 1175 1175 1175 1175 1175 1175 1175 1175 1175 1174 1174 1174 1174 1173 1173 1172 1171 1170 1169 1168 1167 1166 1165 1163 1161 1160 1159 1159 1158 1157 1155 1154 1154 1153 1152 1151 1149 1149 1149 1149 1149 1151 1151 1151 1152 1152 1154 1157 1159 1161 1163 1164 1165 1167 1169 1169 1170 1172 1172 1172 1173 1173 1173 1173 1174 1175 1175 1175 1175 1175 1175 1175 1175 1175 1175 1174 1173 1173 1172 1171 1170 1169 1168 1166 1163 1162 1159 1157 1156 1155 1154 1154 1152 1151 1149 1149 1148 1148 1148 1148 1148 1148 1149 1150 1150 1151 1152 1154 1155 1157 1159 1160 1163 1164 1165 1167 1168 1170 1171 1172 1172 1173 1174 1174 1174 1175 1175 1175 1176 1176 1176 1176 1176 1176 1176 1176 1176 1176 1176 1176 1175 1175 1174 1172 1171 1169 1167 1164 1162 1156 1151 1148 1145 1144 1142 1140 1139 1137 1136 1136 1136 1135 1135 1135 1135 1135 1136 1137 1138 1140 1141 1142 1145 1148 1149 1151 1157 1163 1166 1170 1174 1176 1177 1178 1179 1180 1180 1180 1180 1180 1180 1180 1180 1180 1181 1181 1181 1181 1181 1181 1181 1181 1181 1181 1180 1179 1177 1176 1174 1173 1171 1167 1160 1156 1151 1149 1147 1144 1141 1140 1138 1137 1136 1134 1134 1132 1132 1130 1129 1129 1129 1129 1129 1130 1133 1136 1138 1141 1145 1150 1157 1165 1173 1176 1177 1180 1182 1183 1184 1184 1185 1186 1186 1186 1187 1187 1188 1188 1189 1189 1189 1190 1190 1190 1190 1190 1190 1190 1191 1190 1190 1190 1190 1190 1190 1190 1190 1189 1189 1188 1188 1188 1187 1187 1186 1186 1185 1185 1183 1181 1181 1181 1180 1179 1178 1176 1175 1168 1155 0 0 0 0 897 886 876 866 858 858 858 0 0 0 0 0 0 0 0 0 0 0 0 0 0 0 0 0 0 0 0 0 0 0 0 0 0 0 0 0 0 0 0 0 0 0
1992 1992 2006 2023 2042 2064 2086 2107 2130 2151 2174 2204 2232 2237 2245 2248 2261 2304 2349 2377 2379 2379 2379 2364 2364 2364 2374 2377 2402 2430 2460 2486 2507 2519 2532 2542 2548 2549 2549 2549 2549 2549 2549 2551 2551 2582 2608 2625 2638 2671 2717 2751 2777 2795 2805 2807 2812 2816 2828 2847 2864 2871 2871 2874 2881 2892 2907 2916 2921 2927 2940 2952 2963 2970 2974 2978 2983 2989 2998 3007 3014 3021 3023 3028 3037 3045 3047 3049 3064 3083 3097 3106 3111 3116 3123 3126 3130 3137 3144 3148 3153 3156 3161 3168 3177 3190 3204 3217 3222 3226 3231 3234 3236 3237 3240 3240 3240 3242 3245 3249 3258 3264 3270 3276 3282 3290 3295 3300 3311 3331 3336 3336 3337 3342 3348 3353 3357 3358 3359 3361 3365 3369 3371 3372 3373 3374 3375 3375 3375 3373 3373 3373 3372 3372 3372 3373 3373 3373 3371 3370 3369 3368 3368 3365 3363 3362 3359 3357 3357 3357 3357 3354 3348 3344 3339 3336 3334 3331 3327 3327 3326 3326 3326 3322 3311 3299 3283 3267 3252 3239 3228 3219 3211 3199 3195 3193 3190 3185 3175 3157 3093 3093 3093 3140 3147 3147 3147 3134 3118 3104 3079 3044 3012 2965 2908 2858 2775 2659 0 0 0 0 1193 1180 1179 1179 1179 1178 1178 1177 1177 1176 1175 1175 1175 1175 1175 1175 1175 1175 1175 1175 1174 1174 1174 1174 1173 1173 1172 1171 1170 1169 1168 1166 1166 1164 1163 1162 1162 1161 1160 1160 1160 1160 1160 1161 1162 1162 1162 1162 1162 1162 1162 1162 1162 1163 1163 1164 1165 1166 1167 1169 1170 1170 1171 1171 1172 1173 1173 1174 1174 1175 1175 1175 1175 1175 1175 1175 1175 1175 1175 1175 1175 1175 1174 1174 1174 1174 1173 1173 1172 1171 1170 1169 1168 1167 1166 1165 1164 1163 1161 1161 1159 1158 1158 1156 1155 1154 1153 1152 1152 1151 1150 1150 1150 1151 1152 1152 1152 1152 1153 1154 1157 1159 1161 1163 1164 1165 1167 1169 1169 1171 1171 1172 1172 1173 1173 1173 1173 1174 1174 1175 1175 1175 1175 1175 1175 1175 1175 1175 1175 1174 1173 1172 1171 1170 1169 1168 1166 1164 1162 1159 1157 1156 1155 1154 1153 1152 1151 1149 1149 1148 1148 1148 1148 1148 1148 1149 1150 1151 1151 1152 1155 1156 1157 1159 1160 1163 1163 1165 1166 1168 1170 1171 1171 1172 1173 1173 1174 1174 1175 1175 1175 1175 1175 1176 1176 1176 1176 1176 1176 1176 1176 1176 1176 1175 1175 1174 1172 1171 1169 1167 1164 1162 1156 1151 1148 1146 1145 1143 1141 1139 1138 1137 1137 1137 1136 1136 1136 1136 1137 1137 1138 1140 1141 1142 1145 1148 1149 1149 1152 1158 1163 1166 1170 1174 1177 1177 1178 1179 1180 1180 1180 1180 1180 1180 1180 1180 1181 1181 1181 1181 1181 1181 1181 1181 1181 1181 1181 1180 1179 1177 1176 1175 1173 1171 1167 1160 1156 1151 1149 1147 1145 1143 1141 1139 1137 1135 1134 1134 1133 1132 1130 1130 1129 1129 1129 1129 1130 1133 1137 1140 1145 1150 1154 1158 1166 1173 1177 1178 1180 1182 1183 1183 1184 1185 1185 1186 1186 1187 1187 1188 1188 1189 1189 1189 1190 1190 1190 1190 1190 1190 1190 1190 1190 1190 1190 1190 1190 1190 1190 1189 1189 1189 1188 1188 1187 1187 1187 1186 1185 1184 1184 1182 1181 1180 1179 1179 1178 1176 1175 1175 1168 1155 0 0 0 0 879 878 871 860 849 849 849 863 0 0 0 0 0 0 0 0 0 0 0 0 0 0 0 0 0 0 0 0 0 0 0 0 0 0 0 0 0 0 0 0 0 0
2018 2018 2030 2046 2060 2072 2086 2113 2132 2154 2187 2216 2232 2246 2252 2264 2285 2331 2362 2377 2393 2405 2405 2405 2408 2408 2408 2412 2434 2455 2486 2515 2529 2534 2535 2542 2550 2551 2551 2552 2551 2551 2546 2546 2546 2573 2600 2625 2653 2683 2724 2752 2777 2795 2806 2815 2819 2828 2836 2851 2865 2874 2879 2881 2885 2895 2909 2917 2921 2929 2940 2953 2964 2971 2975 2979 2984 2991 2994 3003 3013 3021 3023 3030 3038 3047 3049 3055 3070 3087 3100 3107 3109 3113 3118 3123 3127 3135 3144 3151 3156 3164 3170 3175 3182 3190 3204 3218 3222 3226 3231 3238 3238 3238 3241 3241 3242 3246 3249 3252 3258 3265 3270 3276 3282 3292 3305 3315 3328 3336 3337 3339 3339 3342 3348 3353 3357 3359 3360 3364 3367 3371 3373 3374 3374 3375 3376 3376 3376 3376 3376 3375 3374 3374 3374 3376 3376 3376 3376 3374 3373 3372 3370 3369 3369 3367 3365 3362 3362 3362 3362 3360 3356 3351 3346 3342 3340 3334 3328 3328 3328 3327 3327 3322 3311 3300 3283 3268 3256 3243 3233 3219 3211 3199 3195 3193 3190 3185 3178 3167 3112 3112 3112 3131 3147 3147 3147 3134 3118 3104 3079 3044 3012 2965 2908 2858 2775 2659 0 0 0 0 1193 1180 1179 1179 1179 1179 1178 1177 1177 1176 1175 1175 1175 1175 1175 1175 1175 1175 1175 1175 1174 1174 1174 1174 1173 1173 1172 1171 1170 1169 1169 1167 1166 1164 1163 1162 1162 1161 1161 1161 1161 1161 1162 1162 1163 1163 1163 1162 1162 1162 1162 1162 1162 1163 1163 1163 1163 1164 1166 1168 1169 1170 1171 1171 1172 1173 1173 1174 1174 1175 1175 1175 1175 1175 1175 1175 1175 1175 1175 1175 1175 1174 1174 1174 1174 1173 1173 1172 1172 1171 1171 1169 1168 1167 1166 1165 1164 1164 1163 1162 1160 1159 1158 1157 1156 1155 1155 1154 1153 1153 1152 1152 1152 1152 1152 1153 1153 1153 1154 1154 1157 1160 1162 1163 1165 1166 1167 1169 1170 1171 1171 1172 1172 1173 1173 1173 1174 1174 1174 1174 1174 1175 1175 1175 1175 1175 1175 1175 1174 1174 1173 1172 1171 1170 1169 1168 1166 1164 1162 1159 1157 1156 1155 1154 1153 1152 1151 1150 1149 1149 1149 1149 1149 1149 1149 1150 1151 1151 1152 1153 1155 1156 1157 1159 1160 1161 1163 1165 1166 1168 1169 1170 1171 1172 1173 1173 1174 1174 1175 1175 1175 1175 1175 1176 1176 1176 1176 1176 1176 1176 1176 1176 1176 1175 1174 1173 1172 1170 1169 1167 1164 1162 1156 1151 1148 1146 1145 1143 1142 1141 1139 1138 1138 1138 1138 1138 1138 1138 1138 1138 1139 1141 1142 1144 1146 1148 1149 1150 1152 1158 1163 1167 1170 1174 1177 1177 1178 1179 1180 1180 1180 1180 1180 1180 1180 1181 1181 1181 1181 1181 1181 1181 1181 1181 1181 1181 1181 1180 1179 1177 1176 1175 1173 1169 1164 1160 1156 1151 1148 1147 1145 1143 1141 1139 1136 1135 1134 1134 1133 1132 1130 1130 1130 1130 1130 1130 1130 1134 1138 1142 1148 1152 1158 1165 1168 1174 1178 1179 1180 1182 1183 1183 1184 1185 1185 1186 1186 1187 1187 1188 1188 1189 1189 1189 1190 1190 1190 1190 1190 1190 1190 1190 1190 1190 1190 1190 1190 1190 1190 1189 1189 1188 1188 1188 1187 1187 1186 1186 1185 1184 1183 1182 1181 1179 1179 1179 1178 1174 1173 1173 1168 1146 0 0 0 0 853 852 840 839 826 826 826 847 847 0 0 0 0 0 0 0 0 0 0 0 0 0 0 0 0 0 0 0 0 0 0 0 0 0 0 0 0 0 0 0 0 0
2039 2039 2053 2068 2080 2084 2102 2117 2133 2156 2189 2218 2241 2247 2255 2273 2302 2339 2362 2377 2393 2405 2419 2429 2434 2434 2438 2441 2463 2481 2511 2531 2538 2540 2544 2544 2550 2552 2552 2554 2552 2552 2546 2546 2546 2559 2591 2626 2662 2709 2731 2758 2777 2795 2807 2825 2833 2841 2848 2858 2870 2881 2887 2889 2891 2897 2911 2917 2924 2929 2940 2953 2964 2971 2977 2982 2987 2991 2994 3003 3008 3009 3020 3030 3043 3051 3055 3060 3072 3088 3102 3107 3109 3113 3118 3123 3127 3135 3144 3154 3162 3166 3175 3182 3185 3191 3204 3218 3222 3226 3231 3239 3239 3240 3241 3241 3245 3253 3257 3262 3266 3266 3269 3276 3282 3292 3310 3331 3340 3340 3340 3340 3340 3342 3348 3354 3357 3360 3361 3364 3368 3374 3376 3376 3377 3377 3377 3376 3377 3377 3377 3377 3377 3377 3377 3377 3379 3379 3379 3378 3376 3376 3371 3371 3371 3369 3368 3367 3364 3364 3363 3361 3356 3352 3348 3344 3340 3335 3335 3334 3334 3333 3327 3320 3312 3301 3284 3271 3257 3243 3233 3225 3211 3199 3197 3196 3195 3195 3189 3175 3138 3129 3129 3129 3147 3147 3147 3134 3118 3104 3079 3044 3012 2966 2910 2858 2775 2659 0 0 0 0 1193 1181 1179 1179 1179 1179 1178 1177 1176 1175 1175 1175 1175 1175 1175 1175 1175 1175 1175 1175 1174 1174 1174 1173 1173 1173 1172 1171 1170 1169 1169 1168 1167 1164 1163 1162 1162 1162 1162 1162 1163 1163 1163 1164 1164 1164 1163 1163 1163 1162 1162 1162 1162 1163 1163 1163 1163 1164 1165 1168 1168 1169 1171 1171 1172 1172 1173 1174 1174 1175 1175 1175 1175 1175 1175 1175 1175 1175 1175 1175 1175 1174 1174 1174 1174 1173 1172 1172 1172 1171 1170 1169 1168 1167 1166 1165 1165 1164 1163 1162 1161 1159 1158 1157 1156 1156 1156 1156 1154 1153 1153 1153 1153 1153 1153 1153 1154 1155 1155 1157 1158 1160 1162 1164 1165 1166 1168 1169 1170 1171 1171 1172 1172 1173 1173 1173 1173 1174 1174 1174 1174 1174 1175 1175 1175 1175 1175 1174 1174 1173 1173 1172 1171 1170 1169 1168 1166 1164 1162 1159 1157 1156 1155 1155 1153 1152 1152 1151 1150 1150 1150 1150 1150 1150 1150 1150 1151 1151 1152 1153 1155 1156 1158 1159 1160 1161 1163 1165 1166 1167 1169 1170 1171 1172 1173 1173 1174 1174 1175 1175 1175 1175 1175 1176 1176 1176 1176 1176 1176 1176 1176 1176 1175 1175 1174 1173 1172 1170 1169 1167 1165 1163 1157 1153 1151 1148 1147 1145 1143 1143 1141 1140 1140 1139 1139 1139 1139 1140 1140 1141 1141 1141 1143 1145 1147 1148 1149 1150 1152 1158 1163 1167 1171 1174 1177 1177 1178 1179 1180 1180 1180 1181 1181 1181 1181 1181 1181 1181 1181 1181 1181 1181 1181 1181 1181 1181 1181 1180 1178 1177 1176 1175 1172 1168 1162 1157 1154 1151 1148 1146 1145 1143 1141 1139 1136 1135 1134 1134 1133 1131 1130 1130 1130 1131 1131 1131 1133 1135 1138 1143 1148 1154 1161 1168 1171 1175 1178 1179 1181 1182 1183 1183 1184 1185 1185 1186 1186 1186 1187 1188 1188 1188 1189 1189 1189 1189 1190 1190 1190 1190 1190 1190 1190 1190 1190 1190 1190 1189 1189 1189 1189 1188 1188 1187 1187 1186 1186 1185 1184 1184 1183 1181 1180 1179 1178 1178 1177 1174 1173 1173 1168 1144 0 0 0 0 853 842 819 812 812 812 826 847 847 0 0 0 0 0 0 0 0 0 0 0 0 0 0 0 0 0 0 0 0 0 0 0 0 0 0 0 0 0 0 0 0 0
2042 2042 2060 2083 2098 2106 2116 2126 2140 2161 2200 2226 2241 2254 2267 2282 2309 2340 2362 2372 2386 2405 2423 2437 2446 2447 2453 2456 2465 2490 2511 2531 2544 2551 2553 2558 2558 2558 2556 2556 2554 2554 2548 2548 2548 2559 2591 2627 2686 2724 2741 2758 2777 2795 2816 2830 2840 2853 2862 2870 2881 2889 2896 2898 2903 2907 2912 2917 2924 2929 2940 2955 2967 2973 2982 2988 2990 2992 2994 3003 3008 3009 3020 3034 3045 3055 3061 3066 3075 3091 3102 3107 3109 3113 3118 3123 3127 3135 3145 3158 3163 3170 3178 3189 3204 3214 3220 3223 3227 3228 3231 3239 3239 3241 3241 3242 3252 3262 3266 3267 3267 3270 3271 3277 3282 3297 3317 3337 3343 3343 3343 3343 3343 3346 3351 3356 3360 3361 3364 3365 3370 3374 3377 3377 3377 3377 3377 3377 3377 3377 3377 3378 3378 3378 3378 3379 3379 3380 3380 3380 3379 3377 3376 3375 3372 3371 3371 3369 3368 3366 3364 3361 3357 3352 3349 3345 3342 3341 3339 3338 3338 3334 3326 3319 3312 3301 3288 3271 3257 3245 3234 3226 3215 3206 3206 3206 3204 3204 3204 3184 3152 3120 3120 3120 3137 3137 3137 3129 3118 3098 3066 3032 3006 2965 2910 2858 2776 2663 0 0 0 0 1193 1181 1179 1179 1178 1178 1178 1177 1176 1175 1175 1175 1174 1174 1174 1175 1175 1175 1174 1174 1174 1174 1174 1173 1173 1173 1172 1171 1170 1169 1169 1168 1167 1165 1163 1163 1163 1163 1163 1163 1163 1164 1164 1164 1164 1164 1164 1163 1163 1162 1162 1162 1162 1163 1163 1163 1163 1164 1165 1166 1168 1169 1170 1171 1172 1172 1174 1174 1174 1175 1175 1175 1175 1175 1175 1175 1175 1175 1175 1175 1175 1174 1174 1174 1174 1173 1172 1172 1172 1171 1170 1169 1168 1167 1166 1165 1165 1165 1163 1163 1161 1160 1158 1157 1157 1157 1157 1157 1156 1155 1154 1154 1154 1154 1154 1154 1155 1156 1157 1159 1160 1162 1163 1165 1166 1166 1168 1169 1170 1171 1171 1172 1172 1172 1173 1173 1173 1174 1174 1174 1174 1174 1174 1174 1174 1174 1174 1174 1174 1174 1173 1172 1172 1170 1169 1168 1166 1164 1162 1159 1157 1157 1157 1156 1155 1154 1153 1152 1151 1151 1151 1151 1151 1151 1151 1151 1151 1152 1152 1154 1155 1157 1158 1159 1160 1161 1163 1165 1166 1167 1169 1170 1171 1172 1173 1173 1173 1174 1174 1175 1175 1175 1175 1175 1176 1176 1176 1176 1176 1176 1176 1176 1175 1175 1174 1173 1172 1170 1169 1167 1165 1163 1160 1155 1153 1150 1148 1146 1145 1145 1144 1142 1140 1140 1140 1140 1141 1141 1142 1142 1142 1142 1144 1146 1147 1148 1150 1151 1154 1160 1164 1168 1171 1174 1177 1177 1178 1179 1180 1180 1180 1181 1181 1181 1181 1181 1181 1181 1181 1181 1181 1181 1181 1181 1181 1181 1181 1180 1179 1177 1176 1175 1172 1168 1162 1157 1154 1151 1148 1146 1145 1143 1141 1139 1136 1135 1134 1134 1132 1130 1130 1130 1130 1132 1133 1133 1134 1137 1138 1143 1148 1154 1164 1170 1174 1177 1179 1180 1181 1182 1183 1183 1184 1185 1185 1186 1186 1186 1187 1187 1188 1188 1189 1189 1189 1189 1190 1190 1190 1190 1190 1190 1190 1190 1190 1190 1189 1189 1189 1188 1188 1188 1188 1187 1187 1186 1185 1185 1184 1183 1182 1181 1179 1179 1178 1177 1177 1173 1172 1170 1161 1144 0 0 0 0 0 842 819 812 812 812 833 847 0 0 0 0 0 0 0 0 0 0 0 0 0 0 0 0 0 0 0 0 0 0 0 0 0 0 0 0 0 0 0 0 0 0
2042 2042 2060 2083 2098 2111 2127 2136 2151 2176 2204 2235 2241 2267 2295 2309 2324 2343 2356 2368 2386 2405 2424 2440 2449 2454 2462 2473 2480 2490 2511 2531 2544 2551 2562 2567 2567 2567 2557 2557 2556 2555 2553 2553 2553 2559 2589 2627 2686 2724 2741 2764 2786 2799 2821 2830 2846 2863 2871 2880 2890 2897 2902 2904 2906 2908 2913 2917 2925 2934 2948 2961 2977 2981 2988 2993 2993 2993 2998 3004 3008 3009 3020 3034 3048 3062 3070 3073 3079 3091 3102 3111 3114 3119 3123 3127 3132 3141 3150 3158 3165 3170 3178 3191 3208 3218 3226 3232 3234 3234 3238 3239 3241 3241 3241 3249 3264 3272 3272 3272 3273 3273 3273 3277 3287 3304 3320 3337 3346 3348 3348 3348 3348 3348 3352 3358 3362 3364 3366 3366 3370 3374 3377 3378 3378 3378 3378 3378 3378 3378 3378 3378 3378 3379 3379 3379 3380 3380 3380 3380 3380 3377 3377 3375 3374 3372 3372 3371 3371 3369 3366 3361 3358 3355 3350 3347 3345 3344 3343 3343 3341 3334 3325 3318 3313 3305 3293 3279 3260 3248 3234 3227 3224 3215 3211 3211 3211 3211 3211 3199 3167 3116 3113 3113 3116 3116 3113 3109 3101 3081 3054 3018 2996 2962 2913 2858 2780 2663 0 0 0 0 1193 1181 1179 1179 1178 1178 1177 1176 1176 1175 1175 1175 1174 1174 1174 1174 1174 1174 1174 1174 1174 1174 1174 1173 1173 1173 1172 1171 1170 1169 1169 1168 1167 1165 1164 1164 1163 1163 1163 1163 1164 1164 1165 1165 1165 1165 1164 1164 1164 1164 1163 1163 1163 1163 1163 1163 1164 1164 1165 1166 1168 1168 1170 1171 1171 1172 1173 1174 1174 1175 1175 1175 1175 1175 1175 1175 1175 1175 1175 1175 1175 1174 1174 1174 1173 1173 1172 1172 1172 1171 1170 1169 1168 1167 1166 1165 1165 1165 1164 1163 1162 1161 1159 1158 1158 1157 1157 1157 1156 1156 1154 1154 1154 1155 1155 1156 1156 1157 1158 1159 1161 1163 1164 1165 1166 1167 1168 1169 1170 1171 1171 1172 1172 1172 1173 1173 1173 1173 1174 1174 1174 1174 1174 1174 1174 1174 1174 1174 1174 1174 1173 1173 1172 1170 1169 1168 1166 1164 1162 1159 1158 1158 1157 1157 1155 1154 1154 1153 1152 1152 1152 1152 1152 1152 1152 1153 1153 1153 1154 1154 1156 1157 1158 1159 1160 1161 1163 1165 1167 1167 1169 1170 1171 1172 1173 1173 1173 1174 1174 1174 1175 1175 1175 1175 1175 1175 1176 1176 1176 1176 1175 1175 1175 1174 1173 1173 1171 1170 1169 1167 1165 1163 1160 1156 1153 1151 1149 1147 1146 1146 1145 1143 1141 1141 1141 1141 1142 1143 1143 1144 1144 1144 1146 1147 1149 1150 1151 1152 1156 1160 1164 1168 1171 1174 1176 1177 1178 1179 1180 1180 1180 1180 1180 1181 1181 1181 1181 1181 1181 1181 1181 1181 1181 1181 1181 1181 1181 1180 1179 1177 1176 1175 1172 1168 1162 1157 1153 1151 1149 1146 1145 1143 1142 1140 1138 1136 1135 1133 1131 1130 1130 1130 1131 1132 1133 1134 1136 1137 1138 1143 1149 1157 1166 1170 1174 1177 1179 1180 1181 1182 1183 1183 1184 1185 1185 1185 1186 1186 1187 1187 1187 1188 1188 1189 1189 1189 1189 1190 1190 1190 1190 1190 1190 1189 1189 1189 1189 1189 1189 1188 1188 1188 1187 1187 1186 1186 1185 1185 1184 1183 1182 1181 1179 1178 1177 1177 1176 1173 1169 1163 1158 1143 0 0 0 0 0 0 0 0 0 0 0 0 0 0 0 0 0 0 0 0 0 0 0 0 0 0 0 0 0 0 0 0 0 0 0 0 0 0 0 0 0 0 0 0 0 0
2042 2042 2060 2083 2108 2133 2151 2162 2172 2184 2214 2247 2253 2290 2321 2340 2346 2350 2356 2368 2386 2405 2425 2441 2449 2454 2470 2482 2490 2491 2511 2527 2539 2551 2562 2577 2590 2593 2593 2593 2577 2574 2570 2570 2570 2573 2587 2627 2686 2724 2741 2764 2786 2799 2821 2830 2853 2870 2875 2880 2890 2897 2903 2908 2910 2910 2913 2918 2928 2943 2961 2972 2978 2985 2991 2993 2997 3000 3007 3013 3015 3020 3023 3040 3058 3072 3082 3086 3086 3094 3105 3113 3119 3124 3130 3135 3141 3148 3154 3162 3165 3169 3178 3193 3209 3221 3230 3234 3234 3239 3245 3250 3250 3250 3256 3258 3266 3281 3281 3281 3275 3275 3275 3280 3292 3307 3320 3337 3346 3349 3352 3352 3352 3353 3353 3358 3364 3366 3366 3367 3370 3374 3377 3378 3378 3378 3378 3378 3378 3378 3379 3379 3380 3380 3380 3380 3380 3380 3381 3381 3381 3378 3378 3376 3375 3375 3374 3374 3373 3371 3367 3362 3361 3360 3353 3349 3347 3347 3347 3347 3343 3335 3325 3318 3314 3310 3299 3284 3266 3248 3234 3229 3225 3219 3217 3217 3217 3217 3217 3210 3188 3145 3122 3117 3116 3112 3108 3093 3085 3065 3040 3018 2992 2962 2917 2859 2791 2670 0 0 0 0 0 1182 1179 1179 1178 1176 1176 1176 1176 1175 1175 1174 1174 1174 1174 1174 1174 1174 1174 1174 1174 1174 1173 1173 1173 1172 1172 1171 1170 1169 1168 1168 1167 1165 1164 1164 1163 1163 1163 1163 1164 1164 1166 1166 1166 1166 1166 1165 1164 1164 1164 1164 1163 1164 1164 1164 1164 1165 1165 1166 1168 1168 1170 1171 1171 1172 1173 1174 1174 1175 1175 1175 1175 1175 1175 1175 1175 1175 1175 1175 1175 1174 1174 1174 1173 1173 1172 1172 1171 1171 1170 1169 1168 1167 1166 1166 1165 1165 1164 1163 1163 1161 1160 1159 1159 1158 1158 1157 1157 1156 1156 1156 1156 1156 1156 1157 1157 1158 1159 1161 1162 1163 1164 1166 1167 1167 1168 1169 1170 1171 1171 1172 1172 1172 1173 1173 1173 1173 1173 1173 1174 1174 1174 1174 1174 1174 1174 1174 1174 1173 1173 1173 1172 1171 1170 1168 1166 1164 1163 1161 1160 1159 1158 1158 1156 1155 1155 1154 1154 1153 1153 1153 1153 1153 1154 1154 1154 1155 1155 1155 1157 1158 1158 1159 1161 1162 1163 1165 1167 1167 1169 1170 1171 1172 1173 1173 1173 1174 1174 1174 1174 1175 1175 1175 1175 1175 1175 1176 1176 1176 1175 1175 1175 1174 1173 1173 1171 1170 1169 1167 1165 1163 1161 1156 1154 1152 1150 1148 1146 1146 1146 1144 1143 1143 1143 1143 1145 1145 1145 1145 1146 1146 1148 1150 1151 1151 1152 1153 1158 1162 1166 1168 1171 1174 1175 1176 1177 1178 1180 1180 1180 1180 1180 1180 1180 1180 1180 1181 1181 1181 1181 1181 1181 1181 1181 1181 1181 1180 1179 1177 1176 1175 1173 1170 1164 1158 1154 1152 1150 1148 1145 1144 1143 1143 1141 1138 1136 1133 1131 1130 1130 1130 1132 1133 1134 1136 1137 1137 1138 1143 1148 1157 1166 1170 1174 1177 1179 1180 1181 1182 1183 1183 1184 1184 1184 1185 1185 1186 1186 1187 1187 1188 1188 1188 1188 1189 1189 1189 1190 1190 1190 1190 1189 1189 1189 1189 1189 1189 1188 1188 1188 1188 1188 1187 1186 1186 1185 1185 1184 1183 1182 1181 1179 1178 1176 1176 1176 1173 1169 1163 1151 1136 0 0 0 0 0 0 0 0 0 0 0 0 0 0 0 0 0 0 0 0 0 0 0 0 0 0 0 0 0 0 0 0 0 0 0 0 0 0 0 0 0 0 0 0 0 0
2042 2042 2060 2080 2108 2145 2178 2190 2190 2200 2228 2258 2270 2305 2339 2350 2351 2352 2356 2368 2390 2412 2430 2441 2449 2458 2472 2490 2497 2499 2511 2527 2539 2551 2564 2578 2599 2616 2618 2618 2618 2610 2605 2590 2589 2589 2589 2608 2652 2697 2741 2764 2786 2799 2821 2825 2853 2870 2875 2880 2890 2897 2903 2908 2911 2913 2916 2924 2935 2951 2965 2973 2981 2985 2991 2994 2998 3004 3012 3018 3022 3027 3038 3054 3071 3085 3092 3094 3095 3098 3105 3113 3119 3124 3131 3143 3150 3155 3160 3164 3164 3169 3179 3195 3210 3225 3234 3235 3238 3243 3253 3260 3264 3266 3271 3278 3281 3287 3288 3288 3288 3285 3285 3285 3297 3310 3320 3335 3341 3349 3352 3354 3354 3354 3358 3362 3368 3368 3368 3370 3370 3374 3377 3378 3379 3381 3381 3381 3381 3382 3382 3382 3382 3382 3381 3381 3381 3381 3381 3381 3381 3380 3380 3380 3379 3379 3379 3379 3377 3374 3370 3366 3364 3362 3357 3354 3350 3349 3348 3348 3343 3336 3325 3319 3316 3313 3302 3288 3274 3258 3243 3236 3229 3219 3218 3218 3218 3225 3225 3225 3204 3163 3130 3117 3116 3109 3108 3093 3085 3063 3040 3018 2992 2962 2917 2869 2791 2674 0 0 0 0 0 1180 1179 1178 1177 1176 1176 1176 1176 1175 1175 1174 1174 1174 1174 1174 1174 1174 1174 1174 1174 1174 1173 1173 1173 1172 1172 1172 1170 1169 1168 1168 1167 1166 1165 1164 1163 1163 1163 1163 1164 1164 1166 1166 1166 1166 1166 1165 1164 1164 1164 1164 1164 1164 1164 1164 1165 1165 1166 1167 1168 1168 1170 1171 1171 1172 1173 1173 1174 1175 1175 1175 1175 1175 1175 1175 1175 1175 1175 1175 1175 1174 1174 1173 1173 1173 1172 1172 1171 1170 1170 1169 1168 1167 1167 1166 1165 1165 1164 1163 1163 1162 1161 1160 1160 1159 1158 1158 1157 1157 1157 1157 1157 1157 1158 1158 1159 1160 1160 1162 1162 1163 1165 1166 1167 1167 1168 1169 1170 1171 1171 1172 1172 1172 1173 1173 1173 1173 1173 1173 1174 1174 1174 1173 1173 1173 1174 1174 1174 1173 1173 1173 1172 1171 1170 1169 1167 1165 1164 1162 1160 1160 1158 1158 1157 1156 1155 1155 1155 1154 1154 1154 1154 1154 1154 1155 1155 1156 1156 1156 1157 1158 1160 1161 1161 1162 1163 1165 1167 1168 1169 1170 1171 1172 1172 1173 1173 1173 1174 1174 1174 1174 1174 1175 1175 1175 1175 1176 1176 1176 1175 1175 1175 1174 1173 1172 1171 1170 1169 1167 1165 1163 1160 1157 1155 1153 1150 1149 1148 1147 1147 1146 1144 1144 1144 1145 1146 1147 1147 1147 1148 1148 1149 1150 1151 1152 1153 1155 1159 1162 1166 1168 1171 1174 1174 1176 1177 1178 1179 1179 1179 1179 1180 1180 1180 1180 1180 1180 1180 1181 1181 1181 1181 1181 1181 1181 1181 1180 1179 1177 1176 1174 1173 1171 1166 1159 1154 1152 1150 1149 1146 1145 1144 1144 1142 1142 1138 1134 1131 1131 1131 1131 1132 1134 1136 1137 1137 1137 1138 1142 1148 1158 1166 1170 1174 1176 1178 1180 1181 1182 1183 1183 1184 1184 1184 1185 1185 1185 1186 1186 1187 1187 1187 1188 1188 1188 1188 1188 1188 1188 1188 1188 1188 1188 1188 1188 1188 1188 1188 1188 1188 1188 1188 1187 1187 1186 1185 1185 1184 1183 1182 1181 1179 1178 1176 1176 1175 1173 1168 1163 1151 1134 0 0 0 0 0 0 926 925 904 904 904 0 0 0 0 0 0 0 0 0 0 0 0 0 0 0 0 0 0 0 0 0 0 0 0 0 0 0 0 0 0 0 0 0 0 0
2042 2042 2060 2080 2110 2145 2178 2190 2209 2220 2254 2264 2288 2314 2339 2350 2352 2354 2360 2374 2399 2414 2430 2441 2449 2458 2472 2490 2499 2501 2511 2527 2539 2551 2567 2581 2599 2616 2620 2630 2630 2630 2628 2617 2609 2608 2608 2608 2624 2661 2698 2736 2759 2782 2788 2822 2853 2870 2875 2879 2887 2894 2903 2908 2913 2917 2926 2934 2948 2959 2970 2978 2982 2988 2991 2995 2999 3006 3014 3024 3033 3039 3051 3064 3074 3085 3092 3097 3099 3100 3105 3113 3119 3124 3132 3144 3156 3163 3165 3166 3166 3169 3179 3195 3214 3228 3234 3237 3241 3249 3259 3264 3268 3269 3274 3282 3284 3289 3290 3292 3292 3290 3293 3294 3300 3311 3320 3327 3333 3341 3352 3354 3358 3361 3365 3370 3371 3371 3371 3371 3371 3374 3377 3378 3379 3381 3383 3383 3383 3384 3384 3385 3385 3385 3384 3383 3380 3380 3380 3380 3381 3381 3381 3381 3381 3383 3385 3385 3385 3380 3374 3371 3369 3368 3364 3358 3354 3350 3349 3349 3346 3337 3327 3321 3318 3313 3305 3294 3285 3273 3257 3244 3232 3220 3220 3220 3221 3228 3228 3228 3219 3188 3136 3115 3109 3108 3107 3093 3085 3063 3037 3016 2992 2962 2921 2881 2792 2677 0 0 0 0 0 1179 1177 1177 1176 1176 1176 1176 1176 1175 1174 1174 1174 1174 1174 1174 1174 1174 1173 1173 1173 1173 1173 1173 1173 1172 1172 1171 1170 1169 1168 1168 1168 1166 1165 1165 1164 1164 1164 1164 1164 1165 1166 1166 1166 1166 1166 1165 1164 1164 1164 1164 1164 1164 1164 1164 1165 1165 1166 1167 1167 1168 1169 1170 1171 1172 1172 1173 1174 1174 1174 1174 1174 1174 1174 1174 1174 1174 1174 1174 1174 1173 1173 1173 1172 1172 1172 1171 1171 1170 1169 1169 1168 1168 1167 1167 1165 1165 1164 1164 1163 1163 1162 1162 1160 1160 1159 1159 1158 1158 1158 1158 1158 1158 1159 1159 1160 1160 1162 1163 1163 1164 1165 1166 1167 1167 1167 1169 1170 1171 1171 1171 1172 1172 1173 1173 1173 1173 1173 1173 1173 1173 1173 1173 1173 1173 1173 1173 1173 1172 1172 1172 1172 1171 1170 1169 1167 1165 1164 1162 1162 1160 1159 1158 1158 1157 1156 1155 1155 1155 1155 1155 1155 1155 1155 1155 1156 1156 1156 1158 1159 1159 1160 1161 1161 1162 1163 1165 1167 1168 1169 1170 1171 1172 1172 1172 1173 1173 1173 1173 1174 1174 1174 1174 1174 1174 1175 1175 1175 1175 1175 1174 1174 1174 1173 1172 1171 1170 1169 1167 1165 1163 1160 1158 1156 1154 1152 1151 1150 1149 1149 1148 1148 1148 1148 1148 1148 1148 1148 1149 1149 1150 1150 1151 1152 1154 1155 1157 1160 1163 1166 1168 1171 1174 1174 1175 1176 1177 1178 1178 1179 1179 1179 1179 1179 1179 1180 1180 1180 1180 1180 1180 1180 1180 1180 1180 1180 1180 1179 1177 1176 1174 1173 1171 1166 1160 1155 1153 1151 1150 1147 1146 1146 1145 1145 1142 1140 1135 1131 1131 1131 1133 1134 1135 1137 1137 1137 1137 1137 1140 1148 1158 1166 1170 1174 1175 1178 1179 1181 1182 1182 1183 1183 1183 1183 1184 1184 1185 1185 1185 1186 1186 1186 1186 1186 1187 1187 1187 1187 1188 1188 1188 1188 1188 1188 1188 1188 1188 1188 1188 1188 1188 1188 1187 1187 1186 1186 1185 1184 1183 1182 1181 1179 1178 1176 1175 1174 1172 1168 1161 1150 1133 0 0 0 0 973 962 934 925 904 904 904 900 0 0 0 0 0 0 0 0 0 0 0 0 0 0 0 0 0 0 0 0 0 0 0 0 0 0 0 0 0 0 0 0 0 0
2052 2052 2065 2080 2110 2145 2178 2190 2209 2233 2254 2264 2288 2314 2339 2350 2357 2357 2372 2388 2404 2414 2430 2441 2447 2458 2472 2490 2499 2504 2515 2527 2541 2552 2568 2584 2600 2616 2620 2630 2642 2642 2642 2642 2623 2608 2608 2608 2624 2645 2676 2736 2759 2777 2788 2820 2837 2851 2859 2872 2879 2888 2898 2907 2913 2923 2934 2943 2956 2966 2976 2981 2985 2989 2992 2995 3001 3008 3015 3025 3034 3044 3056 3068 3075 3085 3092 3099 3100 3101 3107 3113 3119 3124 3133 3145 3156 3163 3167 3168 3168 3169 3180 3202 3219 3228 3234 3237 3242 3250 3260 3266 3269 3271 3275 3283 3284 3289 3294 3294 3298 3302 3305 3305 3305 3312 3319 3320 3327 3337 3347 3356 3361 3365 3373 3377 3377 3377 3373 3373 3373 3375 3377 3378 3379 3382 3384 3384 3385 3385 3385 3387 3387 3387 3387 3384 3380 3380 3380 3380 3381 3382 3382 3383 3383 3387 3389 3389 3389 3385 3381 3380 3378 3376 3371 3364 3358 3353 3352 3350 3347 3342 3333 3325 3324 3319 3312 3304 3297 3288 3276 3262 3251 3239 3227 3227 3227 3228 3228 3228 3219 3193 3137 3115 3109 3108 3107 3093 3082 3059 3035 3016 2993 2966 2930 2886 2843 2683 0 0 0 0 0 1178 1176 1176 1176 1176 1176 1176 1176 1175 1174 1174 1174 1173 1173 1173 1173 1173 1173 1173 1173 1173 1173 1173 1172 1172 1171 1171 1170 1169 1169 1168 1168 1166 1165 1165 1165 1165 1165 1165 1166 1166 1166 1166 1166 1166 1166 1165 1164 1164 1164 1164 1164 1164 1165 1165 1165 1165 1166 1167 1167 1168 1169 1169 1171 1171 1171 1172 1173 1173 1174 1174 1174 1174 1173 1173 1173 1173 1173 1173 1173 1173 1173 1172 1172 1172 1171 1171 1171 1170 1169 1169 1168 1168 1168 1167 1166 1165 1164 1164 1164 1164 1163 1162 1160 1160 1159 1159 1159 1159 1159 1159 1159 1159 1160 1160 1162 1162 1163 1163 1164 1164 1165 1166 1167 1167 1167 1169 1169 1169 1170 1171 1171 1172 1172 1172 1172 1172 1172 1172 1172 1172 1172 1172 1172 1172 1172 1172 1172 1172 1172 1172 1172 1171 1171 1169 1168 1166 1164 1164 1163 1162 1160 1160 1159 1158 1157 1156 1156 1156 1155 1156 1156 1156 1156 1156 1156 1157 1157 1158 1159 1160 1160 1161 1162 1163 1163 1165 1166 1168 1169 1170 1170 1171 1171 1171 1172 1172 1173 1173 1173 1173 1173 1173 1173 1173 1174 1174 1174 1174 1174 1174 1173 1173 1173 1171 1171 1170 1169 1167 1165 1163 1160 1158 1156 1154 1153 1153 1152 1152 1152 1151 1151 1151 1151 1151 1151 1151 1151 1151 1151 1151 1152 1153 1154 1155 1156 1158 1160 1164 1166 1168 1171 1174 1174 1175 1175 1176 1177 1178 1178 1178 1178 1178 1178 1178 1178 1178 1178 1179 1179 1179 1179 1179 1179 1179 1179 1179 1178 1177 1175 1173 1172 1171 1166 1160 1156 1153 1151 1150 1149 1148 1147 1147 1145 1145 1140 1139 1134 1134 1134 1135 1137 1138 1138 1138 1137 1137 1137 1140 1148 1158 1165 1170 1174 1175 1177 1179 1181 1182 1182 1182 1182 1182 1182 1182 1183 1184 1184 1185 1186 1186 1186 1186 1186 1186 1187 1187 1187 1187 1187 1187 1187 1187 1187 1187 1187 1188 1188 1188 1188 1188 1188 1188 1187 1186 1186 1185 1185 1183 1182 1181 1179 1178 1176 1174 1174 1172 1168 1161 1144 1118 1092 0 0 975 973 962 937 925 906 905 905 896 0 0 0 0 0 0 0 0 0 0 0 0 0 0 0 0 0 0 0 0 0 0 0 0 0 0 0 0 0 0 0 0 0 0
2074 2074 2080 2088 2110 2135 2163 2190 2209 2233 2254 2259 2288 2314 2338 2349 2363 2385 2405 2409 2410 2414 2428 2438 2443 2453 2461 2482 2498 2504 2517 2530 2543 2561 2574 2584 2600 2613 2620 2631 2642 2651 2651 2651 2637 2614 2614 2614 2624 2645 2676 2734 2759 2777 2788 2820 2837 2844 2850 2862 2874 2887 2897 2905 2914 2929 2942 2951 2962 2973 2982 2986 2987 2992 2994 2996 3003 3011 3016 3026 3034 3045 3059 3069 3078 3087 3096 3099 3101 3101 3107 3113 3119 3124 3133 3146 3156 3163 3168 3172 3173 3179 3193 3206 3219 3228 3235 3238 3242 3250 3261 3267 3270 3274 3277 3285 3289 3289 3295 3297 3305 3313 3313 3314 3315 3315 3319 3320 3327 3337 3347 3356 3366 3375 3380 3380 3380 3380 3376 3376 3376 3377 3380 3382 3382 3386 3388 3388 3389 3389 3389 3390 3390 3390 3388 3384 3380 3380 3380 3380 3382 3382 3385 3386 3387 3388 3389 3389 3389 3388 3388 3387 3387 3386 3380 3369 3363 3358 3356 3355 3354 3350 3343 3338 3333 3330 3323 3315 3307 3300 3290 3279 3266 3253 3245 3238 3237 3236 3230 3228 3219 3193 3140 3117 3108 3093 3092 3092 3082 3059 3035 3016 2993 2966 2934 2889 2843 2701 0 0 0 0 0 1176 1176 1176 1176 1176 1176 1176 1176 1175 1174 1173 1173 1173 1173 1173 1173 1173 1173 1173 1173 1173 1173 1173 1172 1172 1171 1171 1170 1170 1169 1168 1168 1167 1166 1165 1165 1165 1166 1166 1167 1167 1167 1167 1167 1167 1167 1166 1165 1165 1165 1165 1164 1164 1164 1165 1165 1165 1166 1167 1167 1168 1169 1169 1170 1170 1171 1171 1171 1172 1173 1173 1173 1173 1173 1173 1173 1173 1173 1173 1173 1172 1172 1172 1171 1171 1170 1170 1170 1170 1169 1168 1168 1168 1168 1167 1166 1166 1165 1164 1164 1164 1163 1162 1161 1160 1160 1160 1160 1160 1160 1160 1160 1161 1161 1162 1162 1163 1163 1164 1164 1164 1165 1166 1166 1167 1167 1168 1169 1169 1169 1169 1170 1171 1171 1171 1171 1171 1171 1171 1171 1171 1171 1171 1171 1171 1171 1171 1171 1171 1172 1172 1171 1171 1171 1169 1169 1167 1166 1165 1164 1162 1161 1161 1159 1159 1158 1156 1156 1156 1156 1156 1156 1156 1157 1157 1158 1158 1158 1159 1160 1160 1161 1162 1162 1163 1163 1164 1166 1168 1168 1169 1170 1171 1171 1171 1171 1171 1171 1171 1171 1171 1172 1172 1172 1172 1173 1173 1173 1173 1173 1173 1173 1173 1172 1171 1170 1169 1168 1167 1165 1163 1161 1158 1157 1155 1154 1154 1154 1154 1154 1154 1154 1154 1155 1155 1155 1155 1155 1154 1154 1154 1154 1154 1155 1156 1157 1159 1160 1164 1166 1168 1171 1174 1174 1175 1175 1176 1176 1176 1176 1176 1176 1176 1176 1176 1177 1177 1177 1177 1177 1178 1178 1178 1178 1178 1178 1178 1178 1176 1174 1173 1172 1170 1167 1160 1156 1153 1152 1151 1149 1149 1148 1147 1146 1145 1143 1141 1139 1139 1139 1140 1140 1140 1140 1140 1140 1140 1140 1140 1148 1158 1164 1170 1174 1175 1176 1178 1178 1180 1181 1181 1181 1181 1182 1182 1182 1183 1183 1184 1184 1185 1185 1185 1185 1186 1186 1186 1186 1186 1186 1186 1186 1186 1186 1186 1186 1187 1187 1188 1188 1188 1188 1188 1187 1187 1186 1185 1185 1183 1183 1181 1179 1178 1176 1174 1171 1171 1168 1163 1144 1118 1092 0 0 975 973 962 945 932 906 905 905 896 0 0 0 0 0 0 0 0 0 0 0 0 0 0 0 0 0 0 0 0 0 0 0 0 0 0 0 0 0 0 0 0 0 0
2093 2095 2095 2095 2110 2130 2154 2177 2207 2233 2237 2259 2285 2307 2326 2348 2363 2385 2405 2410 2410 2414 2418 2429 2434 2445 2453 2472 2497 2502 2519 2537 2554 2571 2583 2591 2600 2613 2620 2631 2645 2653 2653 2653 2648 2632 2632 2632 2634 2645 2676 2734 2759 2777 2797 2820 2837 2844 2844 2852 2867 2883 2894 2905 2916 2936 2949 2959 2968 2977 2982 2986 2989 2992 2996 3000 3005 3014 3017 3026 3036 3050 3062 3070 3078 3087 3096 3100 3104 3106 3109 3114 3119 3127 3136 3146 3156 3164 3171 3176 3179 3185 3197 3208 3219 3228 3235 3239 3243 3251 3261 3269 3275 3279 3284 3287 3292 3295 3297 3303 3309 3315 3316 3316 3317 3319 3319 3320 3327 3337 3347 3357 3368 3375 3382 3383 3383 3383 3381 3381 3381 3383 3386 3389 3389 3389 3394 3394 3395 3395 3394 3394 3393 3392 3389 3385 3380 3380 3380 3380 3381 3382 3385 3386 3388 3388 3389 3389 3389 3389 3389 3389 3389 3389 3383 3375 3367 3362 3361 3360 3358 3357 3352 3347 3341 3336 3331 3325 3317 3307 3296 3287 3277 3264 3256 3249 3244 3236 3222 3215 3208 3193 3158 3118 3090 3057 3057 3043 3043 3043 3029 3007 2993 2966 2934 2889 2843 2701 0 0 0 0 0 1175 1175 1175 1176 1177 1177 1177 1176 1175 1174 1173 1173 1173 1173 1173 1173 1172 1172 1172 1172 1172 1172 1172 1172 1172 1171 1171 1170 1170 1169 1168 1168 1167 1166 1166 1166 1166 1167 1167 1167 1168 1168 1168 1168 1167 1167 1166 1166 1165 1165 1165 1165 1165 1165 1165 1165 1165 1166 1167 1167 1167 1168 1169 1169 1170 1171 1171 1171 1171 1171 1172 1172 1172 1172 1172 1172 1172 1172 1172 1171 1171 1170 1170 1170 1170 1170 1169 1169 1169 1168 1168 1168 1168 1168 1167 1166 1166 1166 1165 1165 1164 1164 1164 1163 1162 1161 1161 1161 1161 1161 1161 1161 1161 1162 1163 1163 1163 1163 1164 1164 1165 1165 1165 1166 1167 1167 1167 1168 1168 1168 1168 1169 1169 1169 1169 1170 1170 1170 1170 1170 1170 1170 1170 1170 1170 1170 1170 1171 1171 1171 1171 1171 1171 1170 1169 1169 1167 1166 1165 1164 1163 1162 1161 1160 1160 1158 1158 1157 1157 1156 1156 1156 1157 1157 1158 1158 1159 1159 1160 1160 1161 1162 1162 1163 1164 1164 1164 1166 1168 1168 1169 1170 1170 1171 1171 1171 1171 1171 1171 1171 1171 1170 1170 1171 1171 1172 1172 1172 1172 1172 1172 1172 1172 1172 1171 1170 1169 1168 1167 1165 1163 1161 1160 1158 1156 1155 1155 1155 1155 1155 1155 1155 1155 1157 1157 1158 1158 1157 1157 1156 1156 1156 1156 1157 1157 1158 1160 1161 1164 1167 1169 1171 1174 1174 1174 1174 1174 1175 1175 1175 1175 1175 1175 1175 1175 1175 1175 1175 1175 1176 1176 1176 1176 1177 1177 1177 1177 1177 1176 1174 1173 1172 1170 1167 1160 1156 1155 1155 1154 1154 1151 1148 1147 1146 1146 1145 1145 1142 1142 1142 1142 1142 1142 1142 1142 1142 1144 1144 1147 1150 1159 1165 1170 1174 1176 1176 1177 1178 1179 1180 1180 1180 1180 1180 1180 1181 1182 1182 1183 1183 1183 1183 1183 1185 1185 1185 1185 1186 1185 1185 1185 1185 1185 1186 1186 1186 1187 1187 1187 1188 1188 1188 1188 1188 1187 1186 1186 1185 1184 1183 1181 1180 1178 1177 1174 1171 1170 1168 1163 1144 1118 1092 0 0 967 961 960 945 924 910 905 905 896 0 0 0 0 0 0 0 0 0 0 0 0 0 0 0 0 0 0 0 0 0 0 0 0 0 0 0 0 0 0 0 0 0 0
2095 2095 2104 2105 2110 2128 2146 2169 2195 2219 2223 2237 2257 2282 2311 2346 2363 2385 2405 2410 2410 2412 2414 2419 2424 2435 2449 2472 2487 2501 2519 2544 2564 2580 2592 2601 2608 2613 2623 2631 2645 2654 2654 2654 2648 2642 2642 2642 2644 2657 2690 2736 2759 2789 2816 2831 2841 2844 2844 2844 2861 2877 2892 2905 2917 2938 2955 2966 2972 2977 2982 2986 2989 2992 2996 3006 3014 3017 3023 3029 3044 3060 3072 3077 3081 3087 3096 3103 3108 3112 3116 3120 3127 3132 3140 3146 3156 3164 3171 3180 3187 3191 3199 3212 3221 3228 3235 3239 3243 3251 3264 3272 3277 3280 3287 3293 3296 3298 3301 3304 3310 3315 3318 3318 3319 3320 3320 3325 3334 3344 3353 3361 3368 3377 3382 3384 3385 3385 3386 3386 3386 3388 3391 3394 3397 3397 3398 3401 3402 3402 3402 3399 3397 3392 3389 3385 3380 3380 3380 3382 3382 3383 3385 3386 3388 3388 3388 3388 3388 3388 3388 3390 3390 3390 3384 3378 3373 3368 3364 3363 3363 3362 3358 3354 3348 3342 3339 3334 3322 3310 3300 3293 3283 3270 3257 3249 3244 3236 3220 3207 3194 3183 3160 3123 3090 3056 3028 3022 3001 2994 2992 2992 2977 2965 2934 2889 2843 2701 0 0 0 0 0 1175 1175 1175 1176 1177 1177 1177 1176 1175 1173 1173 1173 1172 1172 1172 1172 1172 1172 1172 1172 1172 1172 1172 1172 1171 1171 1171 1170 1170 1169 1169 1168 1167 1167 1167 1167 1167 1167 1167 1168 1168 1168 1168 1168 1168 1168 1168 1167 1167 1167 1166 1166 1165 1165 1165 1165 1165 1166 1166 1166 1166 1167 1168 1169 1169 1170 1170 1170 1171 1171 1171 1170 1170 1170 1170 1170 1170 1170 1170 1170 1169 1169 1169 1169 1169 1169 1169 1169 1169 1168 1168 1168 1168 1168 1168 1167 1167 1166 1165 1165 1165 1165 1164 1164 1163 1163 1163 1163 1162 1162 1162 1162 1162 1163 1163 1163 1163 1163 1164 1164 1165 1165 1165 1166 1166 1167 1167 1167 1167 1167 1167 1168 1168 1168 1168 1168 1169 1169 1169 1169 1169 1168 1168 1168 1168 1168 1169 1169 1169 1169 1170 1170 1170 1170 1169 1169 1169 1167 1166 1166 1165 1164 1163 1163 1162 1160 1160 1159 1159 1159 1158 1158 1158 1158 1159 1159 1159 1159 1160 1161 1162 1162 1163 1163 1164 1164 1165 1166 1168 1168 1169 1169 1169 1169 1169 1169 1169 1169 1169 1169 1169 1169 1169 1169 1169 1170 1171 1171 1171 1171 1171 1171 1171 1170 1170 1169 1169 1168 1166 1165 1164 1162 1161 1161 1160 1159 1158 1157 1157 1156 1156 1156 1156 1158 1158 1159 1159 1159 1159 1159 1159 1159 1160 1162 1163 1164 1164 1164 1165 1167 1169 1171 1173 1173 1173 1174 1173 1173 1173 1173 1173 1173 1173 1173 1173 1173 1173 1173 1173 1173 1174 1175 1175 1175 1176 1176 1176 1176 1174 1174 1173 1172 1170 1167 1163 1159 1158 1158 1158 1158 1157 1157 1156 1156 1153 1149 1147 1147 1147 1148 1149 1149 1149 1149 1149 1149 1149 1149 1151 1154 1160 1167 1171 1174 1176 1176 1177 1177 1177 1179 1179 1179 1179 1179 1179 1180 1180 1181 1182 1182 1182 1182 1183 1184 1184 1184 1185 1184 1184 1184 1184 1184 1184 1184 1185 1185 1186 1186 1187 1187 1188 1188 1188 1188 1187 1186 1186 1186 1185 1183 1182 1180 1178 1177 1174 1171 1167 1166 1166 1166 1140 1101 0 0 0 945 945 941 919 910 908 908 905 0 0 0 0 0 0 0 0 0 0 0 0 0 0 0 0 0 0 0 0 0 0 0 0 0 0 0 0 0 0 0 0 0 0
2095 2095 2110 2112 2117 2128 2146 2167 2193 2211 2222 2237 2257 2273 2305 2336 2362 2382 2395 2401 2410 2412 2413 2416 2423 2435 2449 2467 2481 2501 2521 2546 2569 2586 2600 2611 2617 2624 2629 2635 2646 2654 2654 2654 2649 2649 2649 2655 2662 2675 2697 2736 2748 2789 2830 2844 2844 2844 2844 2844 2861 2877 2892 2905 2917 2944 2961 2971 2972 2978 2982 2983 2987 2989 2996 3006 3014 3023 3030 3036 3050 3064 3074 3082 3089 3096 3104 3107 3110 3115 3120 3123 3127 3136 3143 3149 3157 3164 3177 3186 3196 3198 3205 3216 3227 3233 3239 3246 3250 3257 3265 3272 3277 3280 3287 3294 3298 3301 3303 3305 3310 3315 3318 3321 3321 3322 3325 3334 3343 3351 3358 3365 3371 3377 3383 3384 3387 3389 3390 3392 3392 3393 3395 3397 3399 3399 3401 3406 3408 3408 3408 3403 3398 3394 3391 3385 3381 3381 3381 3382 3382 3382 3383 3384 3387 3388 3388 3387 3387 3388 3390 3390 3390 3390 3386 3382 3378 3372 3367 3366 3366 3365 3364 3359 3355 3350 3348 3343 3332 3316 3303 3293 3284 3270 3261 3253 3247 3233 3217 3205 3192 3183 3163 3149 3119 3056 3028 3022 2994 2957 2954 2952 2951 2942 2915 2889 2843 2695 0 0 0 0 0 1176 1176 1176 1176 1176 1176 1176 1175 1174 1173 1173 1173 1172 1172 1172 1172 1172 1171 1171 1172 1172 1172 1172 1172 1171 1171 1171 1170 1170 1169 1169 1169 1168 1167 1167 1167 1167 1167 1168 1168 1168 1169 1169 1169 1168 1168 1168 1168 1168 1167 1167 1166 1166 1166 1166 1166 1166 1166 1166 1166 1166 1166 1168 1168 1169 1169 1169 1169 1169 1169 1169 1169 1168 1168 1168 1168 1168 1168 1169 1169 1169 1169 1168 1168 1168 1168 1168 1168 1168 1168 1168 1168 1168 1168 1168 1168 1167 1166 1165 1165 1165 1165 1164 1164 1164 1163 1163 1163 1163 1163 1163 1163 1163 1163 1163 1164 1164 1164 1164 1165 1165 1165 1165 1166 1166 1166 1167 1167 1167 1166 1166 1166 1166 1167 1167 1168 1168 1168 1168 1168 1167 1167 1167 1167 1167 1167 1168 1168 1168 1168 1169 1169 1169 1169 1169 1169 1169 1168 1167 1167 1166 1165 1164 1163 1163 1162 1162 1162 1161 1161 1161 1161 1161 1161 1161 1161 1161 1161 1161 1162 1163 1164 1165 1165 1165 1165 1166 1166 1167 1168 1168 1168 1169 1169 1169 1168 1168 1168 1167 1167 1167 1167 1167 1167 1168 1169 1170 1170 1170 1170 1170 1170 1170 1170 1169 1169 1167 1167 1166 1165 1164 1162 1162 1162 1161 1161 1161 1161 1160 1159 1159 1159 1160 1160 1160 1159 1159 1159 1160 1163 1164 1165 1165 1165 1165 1165 1165 1166 1166 1168 1169 1170 1171 1172 1172 1172 1171 1171 1171 1171 1171 1172 1172 1172 1171 1171 1171 1171 1171 1171 1171 1173 1173 1174 1174 1174 1174 1174 1174 1174 1173 1172 1170 1168 1168 1166 1165 1164 1164 1163 1162 1161 1160 1160 1157 1152 1149 1149 1149 1151 1153 1154 1154 1154 1154 1154 1153 1154 1154 1156 1162 1168 1171 1173 1175 1176 1176 1177 1177 1177 1177 1177 1176 1176 1176 1176 1177 1178 1179 1179 1180 1181 1182 1182 1182 1182 1182 1182 1182 1183 1183 1183 1184 1184 1184 1184 1185 1186 1187 1187 1188 1188 1188 1188 1187 1187 1186 1186 1185 1183 1182 1180 1179 1177 1175 1171 1168 1168 1167 1166 1156 1130 0 0 0 928 926 920 919 911 908 908 905 0 0 0 0 0 0 0 0 0 0 0 0 0 0 0 0 0 0 0 0 0 0 0 0 0 0 0 0 0 0 0 0 0 0
2094 2094 2114 2124 2128 2128 2146 2167 2193 2204 2222 2237 2257 2273 2305 2336 2362 2380 2392 2400 2406 2409 2412 2413 2422 2435 2449 2467 2481 2501 2521 2546 2569 2587 2601 2611 2617 2629 2635 2644 2650 2650 2650 2650 2650 2650 2661 2672 2685 2698 2714 2736 2747 2789 2830 2855 2855 2855 2855 2855 2861 2877 2892 2906 2928 2951 2964 2971 2974 2978 2981 2981 2982 2983 2989 3006 3014 3023 3030 3036 3050 3064 3074 3082 3089 3096 3104 3107 3110 3115 3120 3123 3129 3136 3143 3151 3162 3172 3184 3196 3207 3210 3215 3221 3228 3234 3241 3247 3254 3260 3266 3272 3277 3282 3288 3294 3298 3302 3304 3306 3310 3314 3318 3321 3322 3327 3331 3335 3344 3353 3359 3365 3371 3378 3384 3387 3388 3389 3391 3394 3395 3396 3397 3398 3399 3399 3401 3407 3415 3415 3415 3408 3402 3398 3395 3392 3389 3389 3384 3383 3382 3382 3383 3384 3387 3388 3388 3387 3387 3388 3390 3391 3391 3391 3390 3385 3382 3372 3371 3371 3369 3368 3368 3364 3361 3361 3358 3348 3337 3323 3309 3295 3284 3273 3262 3254 3247 3233 3217 3204 3192 3182 3171 3165 3160 3137 3103 3056 2994 2957 2954 2924 2918 2917 2902 2889 2841 2694 0 0 0 0 0 1176 1175 1175 1175 1175 1175 1175 1175 1173 1173 1172 1172 1172 1172 1172 1171 1171 1171 1171 1171 1171 1171 1171 1171 1171 1171 1171 1171 1170 1170 1170 1169 1169 1168 1168 1168 1168 1169 1169 1169 1169 1169 1169 1169 1169 1168 1168 1168 1168 1168 1167 1167 1166 1166 1166 1166 1166 1166 1166 1166 1166 1166 1166 1167 1167 1167 1167 1167 1166 1166 1166 1167 1167 1167 1167 1167 1167 1167 1167 1167 1168 1168 1168 1168 1167 1167 1167 1167 1167 1167 1167 1168 1168 1168 1168 1168 1167 1166 1166 1166 1166 1165 1165 1165 1165 1164 1164 1164 1164 1164 1164 1164 1164 1164 1164 1164 1165 1165 1165 1165 1165 1165 1165 1165 1166 1166 1166 1166 1165 1165 1165 1165 1165 1165 1165 1166 1166 1166 1166 1166 1166 1165 1165 1165 1166 1166 1167 1167 1167 1167 1167 1167 1168 1169 1169 1169 1169 1168 1168 1167 1167 1167 1166 1165 1165 1164 1164 1163 1163 1163 1162 1162 1162 1162 1163 1163 1163 1163 1163 1163 1164 1164 1165 1165 1165 1166 1166 1166 1167 1167 1168 1168 1168 1168 1168 1165 1165 1165 1165 1165 1165 1165 1165 1166 1166 1167 1167 1167 1168 1168 1168 1168 1168 1168 1168 1167 1167 1166 1166 1165 1165 1165 1163 1163 1163 1163 1162 1162 1162 1162 1162 1163 1164 1164 1164 1164 1164 1164 1166 1167 1167 1167 1166 1166 1166 1167 1167 1167 1167 1168 1169 1170 1170 1170 1171 1170 1170 1170 1169 1169 1169 1169 1169 1169 1169 1169 1169 1168 1168 1168 1169 1170 1171 1172 1172 1172 1172 1173 1173 1173 1173 1173 1171 1171 1169 1168 1168 1165 1165 1164 1164 1164 1162 1161 1160 1155 1155 1155 1155 1156 1157 1158 1164 1165 1165 1165 1165 1166 1167 1167 1167 1171 1173 1173 1173 1173 1173 1172 1172 1172 1172 1172 1172 1172 1171 1171 1171 1171 1172 1172 1172 1174 1174 1176 1179 1179 1179 1179 1179 1181 1181 1182 1183 1184 1184 1184 1184 1186 1186 1187 1188 1188 1188 1188 1188 1187 1187 1186 1185 1184 1182 1181 1180 1179 1176 1171 1168 1168 1167 1166 1158 1138 0 0 0 928 920 915 912 910 908 908 905 0 0 0 0 0 0 0 0 0 0 0 0 0 0 0 0 0 0 0 0 0 0 0 0 0 0 0 0 0 0 0 0 0 0
