1750 1750 1768 1789 1811 1840 1862 1878 1899 1918 1943 1962 1967 1989 2009 2021 2036 2044 2055 2067 2075 2084 2095 2101 2107 2114 2125 2136 2147 2160 2168 2174 2177 2181 2191 2198 2207 2216 2225 2242 2253 2262 2270 2275 2283 2303 2324 2349 2350 2350 2352 2358 2363 2366 2369 2372 2378 2400 2425 2439 2454 2466 2479 2488 2495 2504 2515 2522 2529 2537 2543 2549 2557 2566 2577 2584 2585 2586 2591 2598 2610 2624 2626 2627 2628 2628 2628 2632 2635 2639 2646 2649 2665 2669 2674 2677 2689 2703 2709 2721 2735 2740 2740 2743 2743 2745 2755 2772 2784 2787 2788 2789 2789 2795 2800 2808 2815 2821 2828 2831 2835 2837 2840 2843 2857 2862 2862 2864 2865 2868 2868 2868 2863 2852 2843 2840 2840 2842 2842 2855 2869 2873 2874 2876 2876 2876 2877 2877 2880 2881 2881 2884 2891 2893 2893 2893 2893 2893 2900 2915 2925 2928 2930 2937 2937 2937 2933 2925 2917 2916 2914 2914 2914 2911 2910 2908 2905 2905 2898 2893 2892 2889 2879 2866 2849 2840 2840 2840 2877 2877 2877 2877 2872 2861 2845 2824 2824 2824 2840 2873 2883 2886 2888 2891 2891 2891 2882 2861 2858 2848 2840 2827 2814 2803 2799 2786 2786 2786 2818 2833 2835 2843 2848 2877 2891 2891 2891 2887 2883 2874 2864 2853 2844 2833 2829 2829 2829 2842 2842 2842 2829 2796 2777 2775 2775 2775 2775 2775 2770 2752 2739 2715 2680 2638 2611 2574 0 0 0 1984 1980 1980 1980 1980 1980 1978 1975 1974 1974 1973 1973 1972 1971 1966 1951 1933 1912 1877 1865 1853 1838 1838 1834 1831 1828 1825 1825 1825 1826 1827 1827 1828 1828 1832 1836 1841 1841 1841 1842 1842 1842 1845 1847 1847 1847 1852 1856 1860 1862 1862 1862 1862 1857 1855 1855 1855 1857 1859 1861 1861 1861 1860 1854 1849 1845 1842 1840 1839 1839 1834 1830 1824 1819 1819 1819 1819 1818 1814 1811 1808 1807 1805 1804 1804 1804 1806 1808 1808 1808 1804 1802 1802 1802 1800 1799 1796 1792 1787 1787 1787 1789 1792 1792 1794 1795 1795 1795 1795 1794 1787 1782 1778 1773 1773 1773 1777 1782 1782 1782 1774 1774 1774 1779 1780 1781 1781 1782 1783 1785 1785 1785 1785 1785 1782 1781 1780 1780 1779 1777 1774 1772 1770 1767 1765 1763 1761 1760 1757 1755 1753 1750 1748 1748 1747 1746 1746 1746 1746 1746 1746 1746 1749 1752 1754 1756 1758 1760 1763 1767 1769 1771 1774 1775 1777 1780 1783 1786 1786 1787 1788 1790 1790 1790 1790 1790 1789 1788 1788 1788 1787 1787 1786 1785 1784 1783 1782 1782 1781 1779 1778 1776 1775 1774 1773 1772 1771 1769 1768 1768 1767 1766 1765 1762 1762 1760 1760 1759 1759 1759 1759 1759 1759 1759 1759 1759 1759 1759 1759 1759 1759 1759 1759 1759 1759 1759 1759 1759 1759 1758 1758 1758 1758 1757 1756 1756 1755 1755 1754 1754 1753 1753 1752 1751 1751 1751 1750 1750 1749 1749 1748 1748 1747 1747 1746 1745 1745 1743 1743 1743 1742 1742 1742 1742 1741 1741 1741 1740 1740 1739 1739 1739 1739 1740 1740 1740 1740 1740 1741 1744 1746 1748 1748 1748 1753 1777 1792 1808 1832 1839 1842 1843 1843 1846 1846 1846 1846 1846 1843 1841 1840 1839 1838 1836 1833 1831 1830 1830 1829 1828 1828 1827 1825 1824 1822 1820 1819 1818 1817 1814 1809 1808 1806 1805 1805 1799 1782 1767 1750 1742 1730 1708 1693 1680 1673 1665 1651 1647 1625 0 0 0 0 0 0 0 0 0 0 0 0 0 0 0 0 0 0 0 0 0 0 0 0 0 0 0 0 0 0 0 0
1757 1757 1781 1802 1822 1840 1863 1878 1899 1921 1943 1961 1966 1979 1997 2021 2036 2044 2055 2066 2075 2084 2092 2104 2112 2119 2126 2143 2156 2172 2174 2175 2177 2181 2191 2201 2209 2218 2231 2237 2241 2247 2251 2255 2278 2302 2323 2342 2349 2350 2353 2358 2366 2369 2371 2375 2380 2402 2422 2438 2453 2462 2468 2474 2479 2487 2505 2521 2529 2537 2543 2549 2557 2566 2577 2586 2587 2590 2591 2597 2605 2616 2620 2622 2622 2623 2624 2625 2630 2637 2643 2649 2658 2666 2672 2677 2689 2703 2706 2716 2726 2733 2735 2736 2738 2742 2752 2757 2765 2772 2779 2783 2787 2791 2795 2802 2808 2812 2820 2831 2837 2847 2850 2852 2857 2857 2857 2855 2855 2853 2853 2853 2850 2842 2838 2838 2838 2841 2841 2853 2869 2873 2874 2874 2876 2876 2877 2877 2879 2880 2880 2882 2885 2886 2886 2886 2886 2886 2893 2907 2915 2919 2919 2922 2925 2925 2925 2920 2916 2911 2911 2910 2910 2910 2905 2904 2903 2901 2890 2880 2875 2874 2866 2858 2849 2822 2822 2822 2842 2843 2865 2865 2865 2859 2838 2824 2821 2821 2821 2863 2880 2886 2887 2891 2891 2891 2880 2860 2846 2837 2835 2824 2811 2788 2768 2767 2767 2767 2810 2832 2833 2835 2842 2864 2875 2875 2875 2870 2864 2854 2849 2842 2840 2829 2815 2815 2815 2824 2824 2824 2805 2782 2750 2732 2732 2732 2747 2752 2752 2752 2739 2713 2675 2629 2585 2553 0 0 0 1984 1978 1978 1978 1978 1978 1978 1974 1974 1973 1973 1973 1973 1970 1966 1951 1938 1912 1876 1859 1846 1832 1830 1829 1828 1827 1823 1818 1818 1818 1820 1822 1822 1823 1824 1827 1830 1831 1831 1832 1833 1835 1838 1839 1839 1839 1843 1845 1849 1853 1855 1855 1855 1853 1853 1853 1854 1857 1859 1859 1859 1857 1853 1851 1846 1842 1838 1836 1830 1826 0 0 0 1810 1809 1808 1808 1808 1807 1802 1798 1791 1784 1784 1784 1791 1799 1801 1802 1802 1801 1800 1800 1794 1791 1791 1788 1783 1779 1778 1778 1778 0 0 0 0 0 0 0 0 0 0 0 0 0 0 0 0 0 0 0 0 0 0 0 1763 1772 1777 1780 1782 1784 1784 1784 1783 1779 1779 1777 1777 1776 1775 1773 1772 1770 1767 1765 1763 1761 1760 1757 1754 1752 1750 1748 1747 1746 1746 1746 1746 1746 1745 1745 1745 1747 1749 1752 1755 1758 1760 1763 1765 1769 1771 1773 1775 1776 1779 1782 1784 1785 1786 1788 1789 1789 1789 1789 1789 1789 1788 1788 1788 1787 1787 1786 1785 1784 1783 1783 1782 1781 1780 1779 1777 1776 1774 1773 1772 1771 1769 1769 1768 1767 1766 1764 1762 1761 1760 1760 1759 1759 1759 1758 1758 1758 1758 1758 1759 1759 1759 1759 1758 1758 1758 1758 1758 1758 1759 1759 1758 1758 1758 1758 1758 1757 1757 1756 1756 1756 1755 1754 1754 1753 1753 1752 1752 1751 1751 1750 1750 1749 1749 1748 1748 1748 1747 1747 1745 1745 1743 1743 1742 1742 1741 1741 1741 1741 1741 1741 1740 1740 1739 1739 1739 1739 1740 1741 1741 1741 1742 1743 1744 1746 1748 1748 1751 1759 1785 1795 1814 1836 1842 1843 1843 1844 1848 1848 1848 1848 1846 1844 1842 1841 1840 1839 1836 1833 1831 1831 1830 1830 1829 1828 1827 1826 1825 1824 1822 1821 1820 1818 1814 1809 1808 1806 1805 1803 1800 1788 1767 1754 1742 1733 1708 1700 1682 1674 1672 1662 1651 1651 0 0 0 0 0 0 0 0 0 0 0 0 0 0 0 0 0 0 0 0 0 0 0 0 0 0 0 0 0 0 0 0
1765 1765 1788 1816 1833 1848 1863 1878 1899 1923 1943 1946 1962 1979 1997 2021 2038 2046 2059 2067 2076 2084 2092 2104 2112 2120 2131 2148 2167 2174 2175 2178 2180 2183 2192 2202 2210 2224 2231 2237 2241 2241 2242 2246 2269 2297 2322 2340 2349 2350 2355 2358 2366 2370 2372 2378 2387 2403 2422 2438 2450 2458 2462 2462 2463 2477 2498 2516 2526 2537 2543 2549 2557 2566 2577 2586 2587 2590 2591 2597 2604 2610 2618 2618 2618 2620 2620 2625 2630 2636 2643 2649 2658 2665 2672 2677 2689 2703 2706 2710 2716 2723 2730 2733 2733 2736 2738 2744 2753 2761 2767 2772 2775 2777 2784 2789 2795 2803 2811 2824 2837 2847 2850 2852 2852 2850 2842 2836 2835 2834 2833 2831 2831 2831 2834 2834 2837 2838 2841 2848 2858 2866 2866 2867 2869 2876 2877 2877 2877 2875 2875 2875 2878 2882 2882 2882 2882 2882 2882 2892 2900 2904 2905 2907 2908 2908 2914 2914 2914 2908 2908 2907 2907 2907 2903 2901 2897 2892 2880 2869 2864 2864 2861 2858 2844 2807 2792 2792 2792 2805 2821 2836 2838 2838 2838 2810 2810 2810 2810 2836 2854 2866 2873 2879 2879 2879 2869 2845 2827 2826 2824 2823 2809 2788 2768 2767 2767 2767 2808 2832 2833 2835 2841 2855 2855 2855 2849 2846 2837 2827 2824 2824 2824 2814 2803 2803 2803 2804 2804 2804 2786 2759 2729 2695 2695 2695 2697 2716 2716 2716 2714 2703 2675 2624 2574 2529 0 0 0 1984 1977 1977 1977 1977 1977 1977 1974 1973 1973 1973 1972 1972 1969 1963 1950 1938 1912 1876 1855 1838 1826 1826 1825 1825 1825 1818 1811 1811 1811 1813 1814 1815 1815 1815 1815 1815 1819 1823 1825 1827 1829 1832 1833 1833 1833 1833 1833 1833 1837 1844 1848 1848 1848 1849 1849 1851 1853 1853 1853 1847 0 0 0 0 0 0 0 0 0 0 0 0 0 0 0 0 0 0 0 0 0 0 0 0 0 0 0 0 0 0 0 0 0 0 0 0 0 0 0 0 0 0 0 0 0 0 0 0 0 0 0 0 0 0 0 0 0 0 0 0 0 0 0 0 0 0 0 1763 1778 1781 1781 1781 1780 1778 1778 1777 1777 1776 1774 1773 1772 1770 1767 1765 1763 1761 1759 1757 1754 1752 1750 1748 1747 1746 1745 1745 1744 1744 1744 1744 1744 1746 1748 1750 1754 1757 1760 1762 1765 1768 1770 1773 1774 1776 1779 1782 1783 1785 1786 1788 1789 1789 1789 1789 1789 1789 1788 1788 1788 1787 1787 1786 1785 1784 1784 1783 1782 1781 1780 1779 1778 1776 1775 1774 1773 1771 1770 1769 1768 1767 1766 1765 1762 1761 1760 1759 1759 1758 1757 1757 1757 1757 1757 1757 1758 1758 1758 1758 1758 1758 1758 1758 1758 1758 1758 1758 1758 1757 1757 1757 1757 1757 1757 1756 1756 1756 1755 1754 1754 1753 1753 1752 1752 1752 1751 1750 1750 1749 1749 1749 1748 1748 1747 1747 1746 1745 1744 1743 1742 1742 1741 1741 1740 1740 1740 1740 1740 1740 1739 1739 1739 1740 1740 1741 1741 1742 1742 1744 1744 1746 1748 1752 1755 1765 1788 1801 1832 1843 1843 1843 1843 1844 1848 1849 1849 1849 1848 1845 1842 1842 1841 1839 1836 1833 1832 1831 1831 1830 1829 1828 1827 1827 1826 1826 1824 1823 1821 1818 1815 1811 1808 1806 1805 1803 1800 1788 1769 1756 1746 1744 1708 1704 1687 1685 1678 1678 1675 1662 0 0 0 0 0 0 0 0 0 0 0 0 0 0 0 0 0 0 0 0 0 0 0 0 0 0 0 0 0 0 0 0
1767 1767 1795 1823 1846 1858 1871 1883 1900 1923 1940 1944 1962 1979 1997 2029 2044 2052 2059 2067 2076 2086 2092 2107 2121 2127 2144 2163 2180 2180 2180 2180 2180 2183 2192 2203 2210 2224 2231 2237 2239 2240 2241 2242 2259 2292 2317 2340 2349 2355 2356 2358 2366 2370 2374 2380 2400 2413 2422 2438 2449 2457 2461 2461 2463 2477 2494 2508 2521 2530 2533 2536 2550 2563 2577 2586 2587 2590 2590 2594 2599 2609 2613 2614 2616 2616 2619 2625 2630 2636 2643 2649 2658 2665 2672 2682 2691 2704 2706 2706 2710 2713 2723 2725 2726 2728 2734 2744 2752 2758 2758 2760 2761 2762 2765 2772 2785 2794 2806 2822 2834 2847 2847 2847 2844 2829 2815 2813 2813 2810 2809 2813 2814 2817 2819 2826 2832 2835 2837 2846 2851 2852 2852 2852 2853 2855 2856 2856 2856 2853 2853 2853 2860 2869 2875 2875 2875 2872 2872 2872 2877 2888 2888 2889 2889 2889 2899 2908 2908 2908 2900 2896 2896 2896 2896 2893 2888 2864 2863 2858 2858 2857 2856 2849 2841 2807 2785 2776 2776 2776 2780 2800 2812 2812 2812 2808 2781 2781 2781 2799 2814 2840 2872 2872 2872 2872 2852 2828 2812 2812 2808 2804 2804 2785 2755 2755 2755 2767 2806 2826 2828 2832 2837 2837 2837 2823 2819 2806 2801 2798 2798 2796 2795 2795 2765 2765 2765 2781 2781 2781 2769 2737 2707 2680 2666 2666 2666 2688 2688 2688 2681 2661 2647 2618 2562 2495 0 0 0 1973 1971 1971 1971 1971 1971 1970 1970 1970 1971 1971 1971 1971 1968 1956 1941 1938 1906 1866 1837 1830 1820 1820 1819 1819 1819 1810 1800 1798 1798 1798 1801 1801 1801 1801 1795 1791 1786 1786 1786 1796 1802 1808 1811 1811 1811 1806 1790 1790 1789 1789 1786 1785 1784 1783 1782 1782 1783 1787 1787 1787 0 0 0 0 0 0 0 0 0 0 0 0 0 0 0 0 0 0 0 0 0 0 0 0 0 0 0 0 0 0 0 0 0 0 0 0 0 0 0 0 0 0 0 0 0 0 0 0 0 0 0 0 0 0 0 0 0 0 0 0 0 0 0 0 0 0 0 1719 1743 1770 1777 1778 1778 1778 1777 1777 1777 1776 1774 1773 1772 1770 1768 1766 1763 1761 1759 1756 1754 1751 1750 1748 1746 1745 1744 1744 1743 1743 1743 1743 1744 1745 1747 1750 1752 1756 1758 1761 1763 1767 1770 1773 1774 1776 1777 1780 1782 1784 1786 1788 1788 1788 1788 1788 1788 1788 1788 1788 1788 1787 1787 1786 1785 1784 1784 1783 1782 1781 1780 1779 1778 1776 1775 1774 1773 1771 1771 1769 1768 1767 1766 1765 1762 1761 1760 1759 1758 1757 1757 1756 1756 1756 1757 1757 1757 1757 1757 1757 1757 1758 1758 1758 1758 1758 1758 1758 1758 1757 1757 1757 1757 1757 1756 1756 1756 1755 1755 1754 1754 1753 1753 1752 1752 1752 1751 1750 1750 1749 1749 1749 1748 1748 1747 1747 1746 1745 1744 1743 1742 1742 1741 1741 1740 1740 1740 1740 1740 1740 1739 1739 1739 1740 1740 1741 1741 1742 1743 1744 1744 1745 1747 1753 1760 1772 1795 1808 1839 1843 1843 1844 1844 1846 1849 1849 1849 1849 1849 1847 1843 1842 1842 1840 1837 1834 1832 1831 1831 1830 1830 1829 1828 1827 1827 1826 1825 1823 1821 1818 1817 1814 1810 1806 1805 1803 1801 1789 1771 1760 1752 1745 1720 1704 1699 1692 1692 1692 1692 1687 1687 0 0 0 0 0 0 0 0 0 0 0 0 0 0 0 0 0 0 0 0 0 0 0 0 0 0 0 0 0 0 0
1776 1776 1803 1835 1858 1868 1872 1888 1903 1922 1939 1943 1961 1979 2005 2029 2044 2052 2059 2066 2076 2092 2107 2122 2127 2142 2158 2171 2180 2180 2180 2185 2185 2185 2196 2215 2232 2239 2240 2242 2242 2242 2242 2242 2247 2278 2317 2336 2348 2356 2357 2358 2367 2370 2375 2387 2403 2413 2424 2433 2447 2456 2459 2459 2461 2475 2492 2504 2510 2516 2518 2526 2540 2555 2570 2573 2577 2577 2579 2583 2588 2599 2604 2604 2607 2610 2619 2626 2632 2637 2644 2657 2660 2664 2672 2682 2691 2703 2704 2705 2706 2706 2706 2708 2709 2717 2731 2742 2747 2747 2747 2744 2744 2744 2747 2757 2772 2785 2791 2809 2825 2834 2834 2834 2827 2805 2787 2787 2787 2790 2793 2793 2793 2798 2798 2805 2812 2817 2821 2832 2839 2840 2840 2840 2834 2833 2833 2832 2828 2826 2826 2826 2837 2852 2852 2852 2851 2851 2851 2855 2861 2866 2873 2873 2875 2875 2882 2894 2894 2894 2886 2873 2873 2873 2869 2869 2861 2846 2845 2843 2840 2840 2832 2831 2817 2789 2775 2764 2748 2748 2748 2766 2783 2792 2792 2792 2769 2756 2756 2756 2814 2838 2856 2856 2856 2855 2833 2811 2789 2789 2789 2789 2789 2785 2752 2752 2752 2758 2806 2818 2819 2828 2828 2828 2815 2794 2785 2770 2761 2761 2761 2761 2761 2746 2735 2735 2735 2743 2750 2750 2750 2725 2692 2670 0 0 0 0 0 0 0 0 0 0 0 0 0 0 0 0 0 0 0 0 0 0 0 0 0 0 0 0 0 0 0 0 0 0 0 0 0 0 0 0 0 0 0 0 0 0 0 0 0 0 0 0 0 0 0 0 0 0 0 0 0 0 0 0 0 0 0 0 0 0 0 0 0 0 0 0 0 0 0 0 0 0 0 0 0 0 0 0 0 0 0 0 0 0 0 0 0 0 0 0 0 0 0 0 0 0 0 0 0 0 0 0 0 0 0 0 0 0 0 0 0 0 0 0 0 0 0 0 0 0 0 0 0 0 0 0 0 0 0 0 0 0 0 0 0 1742 1775 1776 1777 1777 1777 1777 1777 1776 1774 1773 1772 1770 1768 1766 1763 1761 1759 1756 1753 1751 1749 1748 1746 1744 1744 1743 1743 1743 1743 1743 1744 1745 1747 1749 1751 1755 1757 1759 1762 1766 1768 1772 1774 1775 1775 1778 1780 1783 1786 1787 1788 1788 1788 1788 1788 1788 1787 1787 1787 1787 1787 1786 1785 1784 1784 1783 1782 1781 1780 1779 1778 1776 1775 1774 1773 1772 1772 1770 1769 1768 1766 1765 1762 1761 1760 1759 1758 1757 1756 1755 1755 1755 1756 1757 1757 1757 1757 1757 1757 1757 1757 1757 1757 1757 1757 1757 1757 1757 1757 1757 1757 1757 1756 1756 1755 1755 1755 1754 1754 1753 1753 1752 1751 1751 1751 1750 1750 1749 1749 1748 1748 1748 1747 1747 1746 1745 1744 1743 1743 1742 1741 1741 1740 1740 1740 1740 1740 1740 1740 1740 1740 1740 1740 1741 1741 1742 1743 1743 1744 1744 1746 1754 1765 1779 1796 1817 1842 1846 1846 1847 1847 1847 1849 1850 1850 1850 1849 1848 1845 1843 1842 1840 1837 1834 1832 1831 1831 1831 1830 1830 1829 1828 1828 1827 1827 1824 1821 1819 1817 1815 1814 1812 1807 1805 1802 1790 1771 1761 1752 1746 1725 1716 1713 1702 1702 1702 1704 1704 1704 1684 0 0 0 0 0 0 0 0 0 0 0 0 0 0 0 0 0 0 0 0 0 0 0 0 0 0 0 0 0 0
1785 1785 1814 1840 1858 1868 1875 1889 1904 1922 1930 1943 1960 1979 2005 2029 2044 2052 2058 2067 2079 2092 2109 2127 2133 2150 2163 2174 2180 2186 2187 2191 2196 2203 2215 2230 2245 2247 2247 2247 2246 2243 2238 2238 2238 2271 2316 2336 2348 2357 2358 2359 2367 2371 2377 2388 2403 2413 2424 2432 2446 2456 2459 2459 2460 2475 2492 2501 2508 2511 2515 2522 2530 2548 2558 2567 2567 2571 2571 2572 2579 2585 2589 2594 2599 2609 2619 2626 2632 2642 2647 2657 2660 2664 2672 2682 2691 2700 2702 2702 2700 2699 2692 2692 2692 2698 2712 2732 2732 2732 2724 2723 2723 2724 2724 2744 2746 2753 2769 2778 2797 2804 2807 2807 2807 2781 2763 2763 2763 2771 2779 2779 2779 2779 2779 2783 2794 2804 2809 2811 2814 2817 2817 2817 2804 2802 2800 2800 2800 2800 2800 2802 2815 2815 2815 2820 2820 2820 2827 2835 2846 2852 2853 2856 2858 2863 2871 2875 2875 2875 2859 2844 2844 2844 2844 2844 2844 2830 2826 2823 2821 2821 2808 2794 2779 2749 2749 2726 2724 2724 2724 2739 2739 2739 2730 2720 2720 2730 2745 2755 2774 2801 2831 2831 2831 2827 2812 2787 2768 2762 2762 2762 2762 2752 2752 2752 2752 2758 2782 2787 2793 2800 2800 2800 2787 2764 2755 2738 2720 2711 2704 2695 2664 2645 2639 2633 2627 2589 2570 2540 2518 2512 2502 0 0 0 0 0 0 0 0 0 0 0 0 0 0 0 0 0 0 0 0 0 0 0 0 0 0 0 0 0 0 0 0 0 0 0 0 0 0 0 0 0 0 0 0 0 0 0 0 0 0 0 0 0 0 0 0 0 0 0 0 0 0 0 0 0 0 0 0 0 0 0 0 0 0 0 0 0 0 0 0 0 0 0 0 0 0 0 0 0 0 0 0 0 0 0 0 0 0 0 0 0 0 0 0 0 0 0 0 0 0 0 0 0 0 0 0 0 0 0 0 0 0 0 0 0 0 0 0 0 0 0 0 0 0 0 0 0 0 0 0 0 0 0 0 0 0 0 1770 1772 1777 1777 1777 1777 1777 1776 1774 1772 1772 1770 1768 1766 1763 1761 1758 1755 1753 1751 1748 1747 1746 1744 1744 1742 1742 1742 1742 1742 1743 1743 1745 1747 1749 1751 1755 1758 1760 1764 1767 1770 1773 1775 1775 1777 1780 1783 1785 1786 1786 1787 1787 1787 1787 1787 1787 1787 1786 1786 1786 1786 1785 1785 1784 1783 1782 1781 1780 1779 1778 1777 1776 1775 1774 1773 1772 1770 1770 1768 1767 1765 1764 1761 1760 1759 1758 1757 1756 1755 1755 1755 1755 1756 1756 1756 1756 1757 1757 1757 1757 1757 1757 1757 1756 1756 1756 1756 1756 1756 1756 1756 1756 1755 1755 1755 1754 1754 1754 1753 1752 1752 1751 1751 1750 1750 1749 1749 1748 1748 1747 1747 1747 1746 1746 1745 1744 1743 1743 1742 1742 1741 1741 1740 1740 1740 1740 1740 1740 1740 1740 1740 1740 1741 1742 1742 1743 1743 1743 1744 1746 1754 1773 1788 1802 1830 1850 1850 1850 1850 1850 1850 1850 1851 1851 1850 1850 1849 1847 1844 1843 1841 1838 1836 1833 1831 1831 1831 1831 1830 1829 1829 1828 1827 1827 1824 1823 1820 1818 1816 1814 1812 1809 1808 1802 1793 1775 1761 1752 1747 1733 1725 1716 1711 1710 1710 1710 1706 1706 1687 0 0 0 0 0 0 0 0 0 0 0 0 0 0 0 0 0 0 0 0 0 0 0 0 0 0 0 0 0 0
1787 1787 1814 1840 1858 1868 1875 1889 1904 1922 1927 1934 1954 1979 2005 2029 2035 2039 2056 2068 2080 2098 2111 2127 2136 2156 2166 2174 2183 2187 2191 2199 2208 2220 2228 2239 2245 2247 2247 2247 2246 2243 2238 2238 2238 2271 2316 2340 2348 2357 2360 2363 2368 2372 2381 2388 2403 2412 2424 2432 2439 2447 2448 2452 2460 2475 2483 2491 2498 2501 2508 2513 2519 2530 2539 2552 2560 2561 2561 2562 2568 2569 2575 2584 2598 2605 2616 2626 2632 2642 2647 2657 2660 2660 2662 2664 2667 2681 2684 2684 2684 2678 2676 2675 2675 2675 2689 2699 2699 2699 2688 2686 2686 2688 2696 2706 2712 2728 2740 2749 2751 2752 2753 2753 2753 2746 2746 2746 2762 2769 2769 2769 2765 2757 2757 2757 2775 2781 2782 2782 2782 2782 2781 2762 2754 2754 2754 2755 2755 2755 2755 2766 2787 2787 2787 2783 2783 2783 2789 2808 2814 2817 2821 2822 2824 2825 2829 2846 2846 2846 2834 2815 2815 2813 2813 2813 2809 2797 2781 2765 2759 2758 2739 2712 2679 2678 2597 2573 2549 2528 2479 2397 0 0 0 2566 2710 2715 2719 2719 2728 2769 2769 2769 2764 2742 2714 2692 2674 2663 2654 2643 2603 2561 2552 2546 2541 2541 2546 2534 2501 0 0 0 0 0 0 0 0 0 0 0 0 0 0 0 0 0 0 0 0 0 0 0 0 0 0 0 0 0 0 0 0 0 0 0 0 0 0 0 0 0 0 0 0 0 0 0 0 0 0 0 0 0 0 0 0 0 0 0 0 0 0 0 0 0 0 0 0 0 0 0 0 0 0 0 0 0 0 0 0 0 0 0 0 0 0 0 0 0 0 0 0 0 0 0 0 0 0 0 0 0 0 0 1332 1336 1336 1333 1333 1333 1333 1332 1332 1331 1330 1330 1330 1330 1330 1332 1333 1333 1333 1331 1331 1331 1332 1332 1332 1328 1325 1323 1321 1321 1321 1323 1327 1327 1327 1326 1326 1326 1328 1329 1329 1329 1322 1322 1321 1318 1317 1317 1318 1318 1319 1319 1318 1317 1317 1317 1318 1318 1318 1319 1319 0 0 0 0 0 1751 1770 1776 1776 1776 1776 1776 1776 1774 1772 1771 1770 1768 1766 1763 1761 1758 1755 1753 1751 1748 1747 1746 1744 1743 1742 1742 1742 1742 1742 1743 1743 1744 1746 1747 1750 1753 1756 1759 1763 1765 1768 1772 1774 1774 1777 1779 1782 1784 1784 1785 1786 1786 1787 1787 1787 1786 1786 1786 1786 1786 1786 1785 1785 1784 1783 1783 1782 1781 1779 1779 1777 1776 1775 1774 1773 1772 1771 1770 1769 1767 1765 1764 1762 1761 1759 1758 1756 1756 1755 1755 1755 1755 1756 1756 1756 1756 1756 1756 1756 1756 1756 1756 1756 1756 1756 1756 1756 1756 1756 1756 1756 1755 1755 1755 1754 1754 1753 1752 1752 1752 1751 1751 1750 1750 1750 1749 1749 1748 1748 1747 1747 1747 1746 1746 1745 1745 1743 1743 1742 1742 1741 1741 1740 1740 1740 1740 1740 1740 1740 1740 1740 1740 1742 1742 1743 1743 1743 1744 1744 1746 1758 1782 1796 1812 1841 1853 1853 1853 1853 1852 1852 1852 1852 1852 1852 1851 1850 1847 1845 1843 1842 1840 1837 1836 1833 1832 1832 1831 1831 1830 1829 1829 1829 1829 1827 1824 1821 1818 1816 1814 1812 1809 1808 1802 1796 1783 1764 1752 1750 1734 1733 1728 1724 1716 1716 1716 1717 1717 1717 0 0 0 0 0 0 0 0 0 0 0 0 0 0 0 0 0 0 0 0 0 0 0 0 0 0 0 0 0 0
1788 1788 1814 1840 1855 1868 1876 1889 1903 1915 1919 1928 1950 1979 2005 2026 2035 2039 2056 2068 2091 2110 2122 2130 2141 2156 2168 2174 2183 2190 2205 2218 2228 2236 2239 2242 2245 2247 2247 2247 2246 2244 2240 2240 2240 2271 2305 2337 2349 2357 2367 2371 2374 2381 2386 2387 2394 2400 2408 2411 2412 2414 2417 2426 2442 2453 2465 2472 2478 2481 2481 2489 2490 2495 2508 2526 2535 2542 2543 2543 2543 2554 2575 2583 2589 2597 2604 2624 2625 2642 2645 2647 2647 2645 2641 2641 2641 2646 2649 2649 2649 2645 2641 2641 2641 2641 2652 2655 2656 2656 2655 2643 2643 2643 2655 2659 2664 2675 2685 2702 2704 2706 2707 2707 2707 2707 2711 2728 2730 2730 2734 2739 2736 2736 2739 2742 2741 2742 2742 2741 2739 2737 2723 2703 2689 2676 2638 2619 2619 2619 2650 2695 2695 2699 2699 2697 2695 2694 2692 2687 2685 2672 2672 2672 2659 2651 2585 2558 2534 0 0 0 0 0 0 0 0 0 0 0 0 0 0 0 0 0 0 0 0 0 0 0 0 0 0 0 0 0 0 0 0 0 0 0 0 0 0 0 0 0 0 0 0 0 0 0 0 0 0 0 0 0 0 0 0 0 0 0 0 0 0 0 0 0 0 0 0 0 0 0 0 0 0 0 0 0 0 0 0 0 0 0 0 0 0 0 0 0 0 0 0 0 0 0 0 0 0 0 0 0 0 0 0 0 0 0 0 0 0 0 0 0 0 0 0 0 0 0 0 0 0 0 0 0 0 0 0 0 0 0 0 0 0 0 1343 1339 1335 1335 1335 1335 1334 1333 1333 1333 1333 1332 1332 1331 1328 1326 1321 1320 1320 1317 1317 1317 1317 1317 1317 1317 1317 1316 1316 1316 1314 1314 1314 1315 1318 1319 1319 1319 1319 1318 1318 1319 1318 1318 1317 1315 1315 1315 1315 1316 1316 1316 1316 1316 1315 1315 1314 1315 1315 1315 1315 1315 1312 1310 1310 1310 1311 1311 1311 1311 1311 1310 1310 1311 1311 1312 1312 1312 1308 1308 1308 1318 0 0 0 0 1750 1769 1774 1775 1775 1775 1775 1774 1774 1772 1771 1769 1768 1766 1763 1761 1758 1755 1753 1750 1748 1747 1746 1744 1743 1742 1741 1741 1741 1741 1742 1742 1743 1744 1747 1748 1752 1755 1757 1761 1764 1766 1770 1773 1774 1776 1778 1781 1781 1782 1783 1784 1785 1786 1786 1786 1786 1786 1786 1786 1786 1786 1785 1785 1784 1783 1783 1782 1781 1780 1779 1778 1776 1775 1775 1773 1772 1771 1770 1769 1767 1766 1764 1763 1761 1759 1758 1756 1756 1755 1755 1755 1755 1755 1755 1756 1756 1756 1756 1756 1756 1756 1756 1756 1756 1756 1756 1756 1756 1756 1755 1755 1754 1754 1754 1753 1753 1753 1752 1751 1751 1751 1750 1750 1750 1749 1749 1748 1748 1748 1747 1747 1747 1746 1746 1745 1744 1743 1743 1742 1742 1741 1741 1740 1740 1740 1740 1740 1740 1740 1740 1740 1741 1742 1743 1744 1744 1744 1744 1744 1747 1758 1787 1805 1824 1852 1854 1854 1854 1854 1854 1854 1854 1853 1853 1852 1851 1850 1847 1845 1843 1842 1841 1840 1837 1836 1835 1834 1833 1832 1831 1829 1829 1829 1829 1827 1825 1822 1818 1816 1813 1811 1809 1808 1803 1796 1788 1767 1752 1752 1750 1743 1735 1733 1728 1719 1719 1719 1719 1719 0 0 0 0 0 0 0 0 0 0 0 0 0 0 0 0 0 0 0 0 0 0 0 0 0 0 0 0 0 0
1791 1791 1813 1836 1855 1868 1876 1889 1903 1915 1919 1928 1950 1976 2005 2026 2035 2039 2056 2082 2107 2124 2130 2133 2141 2156 2168 2174 2183 2203 2224 2241 2244 2244 2245 2246 2246 2246 2246 2245 2244 2243 2243 2243 2247 2272 2302 2336 2355 2370 2381 2386 2389 2389 2389 2386 2385 2385 2384 2382 2381 2381 2381 2399 2412 2418 2421 2424 0 0 0 0 0 0 0 0 0 0 0 0 2494 2546 2552 2553 2553 2553 2553 2553 2565 2579 2592 2600 2600 2600 2600 2600 2600 2603 2605 2604 2604 2604 2590 2568 2564 2563 2554 2524 2524 2524 2524 2541 2561 2563 2563 2562 2561 2562 2556 2550 2550 2501 0 0 0 2665 2665 2665 2621 2591 2591 2591 2589 2589 2581 2554 0 0 0 0 0 0 0 0 0 0 0 0 0 0 0 0 0 0 0 0 0 0 0 0 0 0 0 0 0 0 0 0 0 0 0 0 0 0 0 0 0 0 0 0 0 0 0 0 0 0 0 0 0 0 0 0 0 0 0 0 0 0 0 0 0 0 0 0 0 0 0 0 0 0 0 0 0 0 0 0 0 0 0 0 0 0 0 0 0 0 0 0 0 0 0 0 0 0 0 0 0 0 0 0 0 0 0 0 0 0 0 0 0 0 0 0 0 0 0 0 0 0 0 0 0 0 0 0 0 0 0 0 0 0 0 0 0 0 0 0 0 0 0 0 0 0 0 0 1345 1326 1326 1326 1329 1329 1329 1329 1328 1327 1325 1323 1323 1325 1325 1324 1324 1324 1323 1320 1315 1315 1315 1317 1317 1317 1317 1317 1317 1317 1318 1318 1318 1316 1313 1312 1311 1311 1311 1312 1313 1315 1315 1315 1313 1312 1312 1312 1313 1313 1313 1312 1312 1312 1313 1313 1314 1313 1313 1313 1313 1313 1314 1314 1314 1313 1313 1313 1314 1314 1314 1314 1314 1313 1313 1313 1313 1314 1315 1314 1314 1313 1311 1310 1310 1309 1309 1309 1307 1306 1306 1306 1307 1307 1307 1307 1307 1307 1307 1307 1307 1315 0 0 0 0 1750 1769 1774 1774 1774 1774 1774 1774 1774 1772 1771 1769 1768 1766 1763 1761 1758 1755 1753 1751 1749 1747 1746 1744 1743 1742 1741 1741 1741 1741 1741 1742 1742 1744 1746 1747 1750 1752 1755 1759 1762 1765 1768 1771 1774 1774 1777 1779 1780 1781 1782 1783 1784 1784 1785 1786 1786 1786 1786 1786 1786 1785 1785 1785 1784 1784 1783 1782 1781 1780 1779 1778 1777 1776 1775 1774 1773 1772 1770 1770 1767 1766 1764 1763 1761 1760 1758 1757 1756 1755 1755 1755 1755 1755 1755 1755 1755 1755 1755 1755 1755 1755 1755 1755 1755 1755 1755 1755 1755 1755 1754 1754 1754 1754 1753 1753 1753 1752 1752 1751 1751 1750 1750 1749 1749 1749 1748 1748 1747 1747 1747 1747 1747 1746 1746 1745 1744 1743 1743 1742 1742 1741 1741 1741 1740 1740 1740 1740 1740 1740 1740 1740 1741 1742 1744 1744 1746 1746 1746 1748 1749 1760 1790 1809 1834 1854 1856 1856 1856 1856 1856 1855 1854 1854 1853 1852 1851 1850 1847 1845 1844 1843 1842 1840 1839 1838 1837 1836 1834 1833 1832 1830 1830 1830 1830 1828 1826 1823 1820 1815 1813 1810 1809 1808 1803 1796 1788 1770 1756 1752 1750 1745 1741 1733 1729 1720 1720 1720 1720 1720 0 0 0 0 0 0 0 0 0 0 0 0 0 0 0 0 0 0 0 0 0 0 0 0 0 0 0 0 0 0
1794 1794 1813 1836 1855 1871 1883 1898 1904 1915 1919 1928 1950 1976 2005 2026 2043 2056 2073 2094 2115 2124 2130 2133 2141 2157 2174 2183 2205 2222 2246 2253 2254 2254 2253 2249 2248 2246 2246 2244 2244 2244 2244 2248 2261 2279 2300 2336 2361 2378 2384 2387 2389 2389 2389 2385 2375 2362 2350 0 0 0 0 0 0 0 0 0 0 0 0 0 0 0 0 0 0 0 0 0 0 0 0 0 0 0 0 0 0 0 2517 2517 2517 2509 0 0 0 0 0 0 0 0 0 0 0 0 0 0 0 0 0 0 0 0 0 0 0 0 0 0 0 0 0 0 0 0 0 0 0 0 0 0 0 0 0 0 0 0 0 0 0 0 0 0 0 0 0 0 0 0 0 0 0 0 0 0 0 0 0 0 0 0 0 0 0 0 0 0 0 0 0 0 0 0 0 0 0 0 0 0 0 0 0 0 0 0 0 0 0 0 0 0 0 0 0 0 0 0 0 0 0 0 0 0 0 0 0 0 0 0 0 0 0 0 0 0 0 0 0 0 0 0 0 0 0 0 0 0 0 0 0 0 0 0 0 0 0 0 0 0 0 1353 1354 1354 1350 1345 0 0 0 0 1345 1344 1342 1342 1342 1341 1337 1337 1337 1337 1337 1339 1339 1339 1337 1335 1332 1330 1329 1328 1328 1327 1327 1327 1327 1326 1326 1325 1323 1320 1320 1319 1320 1319 1318 1318 1315 1315 1315 1315 1315 1319 1319 1319 1320 1320 1318 1318 1318 1316 1316 1316 1316 1315 1313 1313 1313 1314 1314 1314 1314 1314 1314 1314 1316 1316 1316 1315 1313 1311 1309 1309 1309 1309 1311 1312 1313 1313 1313 1311 1311 1311 1311 1311 1311 1311 1311 1312 1312 1312 1312 1310 1310 1310 1309 1309 1310 1310 1312 1312 1312 1313 1313 1313 1312 1312 1312 1312 1313 1313 1313 1313 1313 1313 1313 1313 1310 1309 1309 1308 1308 1308 1306 1305 1305 1305 1306 1306 1306 1306 1306 1306 1306 1306 1306 1311 1325 0 0 0 1750 1769 1774 1774 1774 1774 1774 1772 1771 1771 1770 1769 1768 1766 1763 1761 1758 1755 1753 1751 1749 1747 1746 1744 1743 1742 1741 1740 1740 1740 1741 1741 1741 1743 1744 1746 1748 1751 1754 1758 1760 1763 1767 1770 1773 1774 1775 1777 1778 1779 1782 1783 1783 1784 1785 1785 1786 1786 1786 1786 1786 1785 1785 1785 1785 1784 1783 1782 1781 1780 1779 1778 1777 1776 1775 1774 1773 1772 1772 1770 1768 1766 1765 1764 1762 1760 1758 1757 1756 1755 1755 1755 1755 1755 1755 1755 1755 1755 1755 1755 1755 1755 1755 1754 1754 1754 1754 1754 1754 1754 1753 1753 1753 1753 1753 1752 1752 1751 1751 1751 1750 1750 1749 1749 1749 1748 1748 1748 1747 1747 1747 1747 1747 1746 1746 1745 1744 1743 1743 1742 1742 1741 1741 1741 1740 1740 1740 1740 1740 1740 1740 1741 1742 1744 1745 1746 1747 1748 1748 1749 1752 1766 1797 1813 1836 1855 1857 1857 1857 1856 1856 1856 1855 1854 1853 1852 1851 1849 1847 1845 1844 1843 1842 1841 1840 1840 1840 1837 1835 1834 1834 1834 1833 1832 1832 1828 1826 1823 1820 1816 1812 1810 1809 1808 1802 1795 1788 1775 1764 1756 1751 1746 1743 1734 1731 1721 1721 1721 1725 1725 1725 0 0 0 0 0 0 0 0 0 0 0 0 0 0 0 0 0 0 0 0 0 0 0 0 0 0 0 0 0
1809 1809 1813 1836 1855 1876 1894 1909 1911 1921 1927 1936 1954 1976 2010 2034 2054 2071 2082 2103 2115 2124 2130 2133 2141 2159 2179 2202 2221 2241 2257 2258 2258 2258 2254 2249 2248 2246 2246 2244 2244 2244 2244 2248 2261 2279 2300 2331 2366 2379 2385 2388 2389 2389 2389 0 0 0 0 0 0 0 0 0 0 0 0 0 0 0 0 0 0 0 0 0 0 0 0 0 0 0 0 0 0 0 0 0 0 0 0 0 0 0 0 0 0 0 0 0 0 0 0 0 0 0 0 0 0 0 0 0 0 0 0 0 0 0 0 0 0 0 0 0 0 0 0 0 0 0 0 0 0 0 0 0 0 0 0 0 0 0 0 0 0 0 0 0 0 0 0 0 0 0 0 0 0 0 0 0 0 0 0 0 0 0 0 0 0 0 0 0 0 0 0 0 0 0 0 0 0 0 0 0 0 0 0 0 0 0 0 0 0 0 0 0 0 0 0 0 0 0 0 0 0 0 0 0 0 0 0 0 0 0 0 0 0 0 0 0 0 0 0 1342 1346 1347 1347 1347 1343 1340 1338 1338 1338 1338 1341 1342 1342 1342 1340 1339 1338 1334 1334 1333 1332 1329 1329 1329 1330 1330 1330 1326 1326 1326 1325 1325 1324 1324 1322 1322 1324 1324 1324 1324 1324 1321 1318 1318 1318 1318 1321 1324 1324 1324 1323 1322 1321 1320 1320 1316 1314 1314 1314 1314 1314 1314 1314 1314 1314 1314 1314 1315 1317 1317 1317 1317 1316 1316 1316 1315 1314 1314 1313 1313 1313 1312 1312 1312 1312 1312 1313 1313 1313 1313 1315 1315 1315 1315 1312 1311 1309 1309 1308 1308 1309 1309 1309 1309 1310 1310 1310 1310 1310 1309 1309 1309 1309 1309 1309 1309 1309 1309 1308 1307 1306 1306 1306 1308 1309 1311 1312 1312 1312 1312 1312 1312 1312 1312 1312 1311 1311 1310 1309 1309 1309 1307 1307 1307 1306 1306 1306 1304 1304 1304 1304 1305 1305 1306 1306 1306 1306 1306 1305 1305 1305 1311 1324 0 0 0 0 1768 1772 1772 1772 1772 1771 1771 1770 1770 1770 1769 1768 1766 1764 1761 1758 1756 1753 1752 1749 1747 1746 1744 1743 1742 1741 1740 1740 1740 1740 1741 1741 1741 1744 1745 1747 1750 1753 1755 1759 1762 1765 1769 1771 1772 1773 1775 1777 1779 1781 1782 1783 1783 1785 1785 1786 1786 1786 1786 1786 1785 1785 1785 1785 1784 1783 1782 1781 1780 1779 1778 1777 1777 1776 1775 1774 1773 1772 1771 1768 1767 1765 1764 1763 1761 1759 1758 1757 1755 1755 1755 1755 1755 1755 1754 1754 1754 1754 1754 1754 1754 1754 1753 1753 1753 1753 1753 1753 1753 1752 1752 1752 1751 1751 1751 1751 1751 1751 1750 1750 1749 1749 1749 1748 1748 1747 1747 1747 1747 1747 1746 1746 1745 1745 1744 1744 1743 1743 1742 1742 1742 1742 1741 1741 1741 1741 1740 1740 1740 1741 1741 1742 1744 1747 1748 1749 1749 1749 1750 1754 1774 1802 1814 1839 1861 1861 1861 1860 1856 1856 1856 1855 1854 1853 1852 1850 1849 1847 1845 1844 1843 1842 1842 1841 1841 1841 1840 1838 1836 1836 1836 1836 1834 1832 1829 1826 1824 1820 1816 1812 1810 1810 1808 1801 1793 1786 1775 1768 1761 1752 1749 1743 1743 1739 1735 1735 1735 1733 1728 1725 0 0 0 0 0 0 0 0 0 0 0 0 0 0 0 0 0 0 0 0 0 0 0 0 0 0 0 0 0
1811 1811 1825 1840 1855 1877 1894 1909 1911 1921 1930 1950 1968 1994 2018 2039 2058 2074 2085 2103 2115 2120 2124 2130 2141 2159 2185 2209 2239 2253 2265 2266 2266 2266 2266 2264 2263 2258 2246 2245 2244 2244 2245 2248 2261 2279 2297 2331 2368 2380 2387 2387 2387 2381 0 0 0 0 0 0 0 0 0 0 0 0 0 0 0 0 0 0 0 0 0 0 0 0 0 0 0 0 0 0 0 0 0 0 0 0 0 0 0 0 0 0 0 0 0 0 0 0 0 0 0 0 0 0 0 0 0 0 0 0 0 0 0 0 0 0 0 0 0 0 0 0 0 0 0 0 0 0 0 0 0 0 0 0 0 0 0 0 0 0 0 0 0 0 0 0 0 0 0 0 0 0 0 0 0 0 0 0 0 0 0 0 0 0 0 0 1353 1353 1353 1353 1351 1351 1347 1338 1338 1338 1345 1345 1345 1345 1341 1341 1341 1341 1342 1342 1342 1345 1348 1348 1348 1348 1349 1351 1352 1352 1352 1346 1345 1343 1340 1340 1340 1343 1343 1343 1343 1342 1341 1339 1338 1334 1331 1331 1331 1330 1329 1328 1328 1328 1330 1332 1337 1337 1337 1337 1335 1333 1332 1328 1328 1328 1328 1326 1327 1327 1327 1327 1329 1329 1329 1325 1321 1321 1321 1324 1324 1324 1324 1324 1323 1323 1321 1320 1320 1320 1321 1324 1324 1324 1324 1319 1317 1317 1317 1317 1319 1320 1320 1320 1320 1320 1319 1318 1315 1314 1314 1313 1313 1313 1313 1313 1312 1312 1312 1313 1314 1314 1316 1316 1316 1313 1312 1312 1312 1312 1312 1312 1312 1312 1312 1311 1311 1311 1312 1312 1312 1312 1312 1313 1314 1315 1315 1314 1312 1311 1309 1307 1306 1306 1306 1307 1307 1307 1309 1309 1309 1308 1308 1307 1307 1307 1307 1307 1307 1307 1307 1307 1307 1306 1306 1306 1306 1307 1308 1309 1310 1310 1311 1310 1310 1310 1310 1310 1310 1309 1309 1308 1307 1307 1307 1307 1306 1306 1306 1306 1305 1304 1304 1304 1304 1304 1305 1305 1305 1305 1304 1304 1304 1304 1305 1311 1325 0 0 0 0 1768 1771 1771 1771 1771 1771 1770 1770 1770 1769 1769 1768 1766 1764 1761 1758 1756 1754 1752 1750 1748 1746 1744 1743 1742 1741 1740 1740 1740 1740 1740 1740 1741 1742 1744 1747 1749 1752 1754 1756 1760 1764 1768 1770 1770 1772 1774 1776 1778 1780 1781 1781 1783 1784 1785 1786 1786 1786 1786 1786 1785 1785 1785 1785 1785 1783 1782 1781 1780 1779 1778 1777 1777 1776 1776 1775 1773 1772 1771 1769 1768 1766 1764 1763 1762 1760 1759 1758 1756 1756 1755 1755 1755 1755 1754 1754 1754 1754 1754 1753 1753 1753 1753 1752 1752 1752 1752 1752 1752 1751 1751 1751 1751 1751 1751 1751 1750 1750 1749 1748 1748 1748 1748 1747 1747 1747 1747 1746 1746 1746 1746 1745 1745 1745 1744 1744 1743 1743 1743 1742 1742 1742 1742 1741 1741 1741 1741 1741 1741 1741 1741 1742 1744 1747 1749 1749 1750 1750 1750 1755 1778 1802 1814 1840 1863 1863 1863 1860 1858 1857 1856 1855 1855 1853 1852 1850 1848 1847 1845 1844 1843 1843 1843 1842 1842 1842 1840 1839 1839 1838 1838 1836 1834 1832 1829 1826 1823 1820 1816 1812 1810 1810 1808 1800 1790 1783 1775 1768 1761 1754 1754 1751 1749 1749 1747 1747 1747 1743 1742 1742 1720 0 0 0 0 0 0 0 0 0 0 0 0 0 0 0 0 0 0 0 0 0 0 0 0 0 0 0 0
1832 1832 1841 1848 1862 1879 1896 1909 1911 1921 1936 1953 1974 1996 2019 2040 2058 2074 2085 2103 2106 2110 2121 2130 2142 2165 2193 2222 2253 2271 2275 2275 2276 2276 2276 2276 2276 2262 2255 2253 2247 2247 2247 2247 2256 2266 2283 2330 2368 2380 2382 2382 2382 2373 0 0 0 0 0 0 0 0 0 0 0 0 0 0 0 0 0 0 0 0 0 0 0 0 0 0 0 0 0 0 0 0 0 0 0 0 0 0 0 0 0 0 0 0 0 0 0 0 0 0 0 0 0 0 0 0 0 0 0 0 0 0 1335 1335 1335 1344 1373 0 0 0 0 0 0 0 0 0 0 1363 1366 1368 1369 1369 1368 1367 1355 1353 1344 1341 1341 1342 1342 1341 1339 1339 1338 1338 1336 1336 1334 1333 1333 1333 1336 1336 1336 1336 1336 1341 1342 1342 1342 1335 1330 1330 1330 1338 1340 1340 1340 1337 1337 1337 1335 1334 1334 1334 1334 1334 1334 1334 1334 1338 1338 1338 1336 1336 1336 1337 1337 1337 1337 1337 1337 1338 1338 1338 1335 1329 1329 1329 1329 1330 1332 1332 1332 1331 1331 1331 1331 1331 1331 1331 1330 1330 1329 1329 1328 1326 1326 1326 1328 1329 1330 1333 1333 1333 1331 1326 1324 1323 1323 1323 1323 1323 1323 1323 1323 1323 1323 1324 1324 1324 1320 1318 1318 1318 1319 1320 1321 1321 1321 1321 1320 1319 1318 1318 1318 1319 1320 1320 1320 1319 1317 1317 1317 1317 1319 1319 1319 1319 1318 1317 1317 1316 1314 1313 1312 1311 1311 1311 1312 1312 1312 1312 1312 1312 1314 1314 1314 1314 1312 1312 1312 1312 1312 1311 1310 1310 1310 1310 1310 1310 1309 1309 1309 1311 1311 1311 1311 1311 1312 1313 1313 1313 1312 1311 1308 1307 1306 1306 1306 1306 1306 1306 1306 1307 1307 1307 1307 1307 1307 1307 1307 1307 1307 1307 1307 1307 1306 1306 1306 1305 1305 1305 1306 1308 1308 1308 1308 1308 1308 1308 1308 1308 1308 1308 1308 1307 1307 1306 1306 1306 1306 1306 1305 1305 1305 1304 1303 1303 1303 1304 1305 1305 1305 1305 1304 1304 1304 1304 1304 1312 1325 0 0 0 0 1761 1770 1770 1770 1770 1770 1770 1770 1770 1769 1769 1768 1766 1764 1761 1758 1756 1754 1752 1750 1748 1746 1744 1743 1742 1741 1740 1739 1739 1739 1739 1739 1740 1741 1743 1745 1749 1752 1753 1755 1757 1762 1766 1767 1769 1772 1773 1776 1777 1778 1780 1781 1782 1784 1785 1785 1786 1786 1786 1786 1786 1785 1785 1785 1785 1783 1783 1781 1781 1780 1779 1778 1778 1777 1776 1775 1773 1772 1771 1769 1768 1766 1765 1764 1762 1760 1759 1758 1757 1756 1756 1755 1755 1755 1754 1754 1753 1753 1753 1753 1752 1752 1752 1751 1751 1751 1751 1751 1751 1751 1751 1751 1750 1750 1750 1749 1749 1749 1748 1748 1747 1747 1747 1747 1746 1746 1746 1746 1745 1745 1745 1745 1744 1744 1744 1743 1743 1743 1743 1743 1742 1742 1742 1741 1741 1741 1741 1741 1742 1742 1743 1743 1745 1748 1750 1750 1750 1750 1751 1758 1779 1802 1815 1851 1863 1863 1863 1860 1859 1857 1857 1856 1855 1853 1851 1850 1848 1847 1845 1844 1843 1843 1843 1843 1842 1842 1841 1839 1839 1839 1838 1836 1834 1832 1828 1826 1823 1820 1816 1812 1810 1810 1808 1797 1786 1779 1773 1769 1763 1757 1755 1755 1752 1752 1752 1749 1749 1749 1749 1749 1731 0 0 0 0 0 0 0 0 0 0 0 0 0 0 0 0 0 0 0 0 0 0 0 0 0 0 0 0
1862 1863 1863 1863 1871 1880 1896 1909 1911 1923 1939 1954 1976 1999 2020 2041 2061 2074 2085 2090 2099 2104 2113 2128 2145 2168 2200 2238 2268 2289 2289 2289 2290 2288 2286 2285 2283 2282 2276 2269 2259 2247 2247 2247 2254 2260 2281 2313 2368 2378 2378 2378 2378 2365 0 0 0 0 0 0 0 0 0 0 1361 1361 1361 1361 1363 1363 1363 1363 1368 1369 1378 0 0 0 0 0 1372 1374 1374 1375 1379 1379 1379 1375 1365 1365 1364 1363 1364 1364 1366 1371 1374 1374 1374 1367 1361 1353 1350 1350 1350 1351 1352 1352 1352 1350 1344 1342 1342 1341 1337 1335 1335 1335 1335 1342 1349 1349 1349 1350 1349 1348 1346 1344 1343 1343 1342 1342 1343 1343 1343 1343 1343 1339 1336 1336 1336 1336 1336 1336 1336 1336 1336 1336 1334 1334 1334 1333 1332 1331 1330 1330 1330 1330 1330 1331 1331 1331 1336 1336 1336 1333 1327 1327 1327 1329 1337 1337 1337 1335 1335 1333 1333 1332 1332 1332 1332 1332 1331 1331 1333 1335 1335 1335 1335 1335 1335 1336 1337 1337 1337 1334 1334 1334 1334 1334 1334 1329 1329 1328 1328 1329 1331 1331 1331 1330 1330 1330 1328 1327 1327 1326 1326 1326 1326 1326 1326 1326 1325 1326 1326 1326 1327 1327 1327 1327 1326 1326 1322 1322 1322 1322 1323 1323 1323 1323 1321 1321 1321 1323 1323 1323 1318 1317 1317 1318 1319 1320 1320 1320 1320 1320 1318 1318 1317 1316 1316 1316 1318 1318 1318 1317 1317 1317 1317 1317 1319 1319 1319 1318 1317 1317 1316 1316 1314 1313 1312 1311 1311 1311 1311 1311 1311 1311 1311 1312 1313 1313 1313 1311 1310 1310 1310 1311 1311 1311 1309 1309 1309 1310 1310 1310 1309 1309 1309 1309 1311 1311 1311 1311 1311 1311 1311 1311 1310 1310 1307 1306 1306 1306 1306 1306 1306 1306 1306 1306 1306 1306 1306 1306 1306 1306 1306 1306 1306 1306 1306 1306 1306 1306 1305 1305 1305 1305 1306 1306 1306 1307 1307 1307 1307 1307 1307 1307 1307 1307 1307 1307 1307 1306 1306 1305 1305 1304 1304 1304 1304 1304 1303 1303 1303 1304 1304 1304 1304 1303 1302 1302 1302 1302 1304 1313 1330 0 0 0 0 1761 1766 1770 1770 1770 1770 1770 1769 1769 1769 1769 1768 1766 1764 1761 1759 1756 1755 1752 1750 1749 1746 1744 1743 1741 1741 1740 1739 1739 1739 1739 1739 1740 1741 1743 1744 1748 1751 1753 1755 1756 1760 1764 1767 1768 1770 1772 1774 1776 1777 1778 1780 1781 1783 1783 1784 1785 1785 1786 1786 1786 1786 1786 1785 1785 1784 1783 1782 1781 1780 1779 1778 1778 1777 1776 1775 1774 1772 1771 1769 1768 1766 1765 1764 1762 1761 1759 1758 1757 1756 1756 1756 1755 1755 1754 1754 1753 1753 1752 1752 1752 1752 1751 1751 1751 1751 1750 1750 1750 1750 1750 1749 1749 1749 1749 1749 1748 1747 1747 1747 1747 1747 1746 1746 1746 1746 1745 1745 1745 1744 1744 1744 1744 1744 1743 1743 1743 1743 1743 1742 1742 1742 1742 1741 1741 1741 1742 1742 1743 1743 1744 1744 1745 1748 1750 1750 1750 1753 1758 1761 1784 1804 1823 1856 1863 1863 1863 1860 1859 1859 1858 1858 1856 1853 1851 1849 1848 1846 1845 1845 1844 1844 1844 1843 1843 1842 1841 1840 1840 1840 1838 1836 1834 1831 1828 1825 1822 1820 1816 1812 1810 1810 1808 1796 1784 1779 1773 1769 1763 1759 1757 1757 1756 1755 1753 1751 1751 1751 1758 1758 1758 1737 0 0 0 0 0 0 0 0 0 0 0 0 0 0 0 0 0 0 0 0 0 0 0 0 0 0 0
1886 1886 1886 1886 1886 1890 1896 1909 1911 1923 1942 1964 1988 2005 2031 2048 2065 2072 2074 2075 2078 2081 2103 2128 2145 2168 2200 2243 2275 2294 2304 2310 2310 2310 2296 2295 2295 2294 2291 2289 2277 2259 2254 2254 2254 2260 2281 2313 2364 2368 2368 2368 2361 2350 0 0 0 0 0 0 1367 1365 1364 1363 1359 1358 1355 1355 1358 1358 1358 1360 1366 1367 1367 1367 1367 1367 1367 1365 1365 1363 1362 1362 1360 1360 1358 1353 1351 1348 1345 1345 1345 1348 1349 1352 1354 1354 1354 1351 1349 1347 1345 1344 1344 1344 1344 1343 1343 1342 1341 1340 1338 1338 1336 1334 1332 1332 1332 1335 1337 1339 1340 1342 1342 1342 1340 1338 1338 1338 1339 1339 1339 1339 1339 1338 1338 1337 1336 1336 1336 1336 1335 1334 1334 1334 1334 1334 1334 1333 1330 1330 1330 1330 1330 1328 1328 1328 1329 1329 1329 1329 1328 1328 1327 1327 1326 1326 1326 1328 1328 1330 1330 1330 1329 1329 1329 1329 1329 1330 1330 1330 1330 1330 1330 1333 1333 1333 1334 1333 1333 1334 1334 1333 1333 1331 1330 1330 1330 1330 1329 1329 1327 1327 1327 1329 1330 1330 1330 1328 1326 1326 1326 1326 1326 1326 1326 1326 1326 1325 1325 1325 1325 1325 1325 1325 1325 1326 1326 1326 1324 1323 1322 1321 1321 1321 1321 1321 1320 1320 1319 1319 1319 1320 1320 1320 1318 1318 1318 1318 1319 1320 1320 1320 1320 1319 1318 1317 1316 1316 1316 1316 1316 1316 1316 1317 1317 1317 1317 1317 1317 1318 1318 1318 1316 1315 1314 1313 1312 1312 1311 1311 1311 1311 1311 1311 1311 1311 1311 1312 1312 1312 1312 1311 1310 1309 1309 1309 1309 1309 1309 1309 1309 1309 1309 1309 1309 1308 1308 1308 1308 1310 1310 1310 1310 1310 1310 1309 1307 1307 1306 1305 1305 1305 1305 1305 1305 1305 1305 1305 1305 1305 1305 1305 1305 1305 1305 1305 1305 1305 1305 1305 1305 1305 1305 1305 1305 1305 1305 1305 1306 1306 1307 1307 1307 1306 1306 1306 1306 1306 1305 1305 1305 1305 1305 1304 1304 1303 1303 1303 1303 1303 1303 1302 1302 1302 1302 1302 1302 1302 1302 1302 1302 1302 1304 1313 1330 0 0 0 0 1759 1766 1768 1768 1769 1769 1769 1769 1769 1769 1768 1768 1766 1764 1761 1759 1757 1755 1752 1750 1749 1746 1744 1743 1741 1740 1740 1739 1738 1738 1738 1739 1739 1740 1743 1744 1746 1748 1752 1754 1755 1759 1763 1766 1768 1770 1772 1773 1775 1776 1778 1780 1781 1782 1783 1784 1785 1785 1785 1786 1786 1786 1786 1785 1785 1784 1783 1782 1781 1780 1780 1778 1778 1777 1776 1775 1774 1773 1771 1770 1768 1766 1765 1764 1762 1761 1760 1759 1758 1757 1756 1756 1755 1755 1754 1754 1753 1753 1752 1752 1751 1751 1750 1750 1750 1750 1750 1749 1749 1749 1749 1749 1748 1748 1748 1748 1748 1747 1747 1747 1747 1746 1746 1746 1746 1745 1745 1745 1744 1744 1743 1743 1743 1743 1743 1743 1743 1743 1743 1742 1742 1742 1742 1741 1741 1741 1742 1742 1744 1744 1744 1746 1747 1748 1750 1751 1752 1755 1765 1768 1789 1804 1835 1865 1865 1865 1863 1860 1860 1859 1859 1858 1856 1853 1851 1849 1848 1846 1845 1845 1844 1844 1844 1844 1843 1842 1842 1841 1840 1840 1837 1835 1833 1831 1828 1823 1821 1820 1817 1813 1810 1809 1806 1795 1784 1779 1773 1769 1767 1764 1761 1760 1759 1759 1758 1755 1755 1755 1758 1758 1758 1756 0 0 0 0 0 0 0 0 0 0 0 0 0 0 0 0 0 0 0 0 0 0 0 0 0 0 0
1899 1899 1899 1900 1900 1905 1915 1916 1928 1947 1973 1991 2006 2027 2052 2059 2067 2072 2074 2075 2078 2081 2103 2128 2149 2173 2203 2251 2275 2294 2306 2312 2314 2314 2314 2310 2307 2303 2303 2300 2290 2272 2254 2254 2254 2260 2281 2313 2353 2355 2355 2355 2344 2324 0 0 0 0 0 1373 1365 1364 1359 1355 1354 1354 1354 1354 1356 1356 1356 1356 1354 1354 1352 1351 1350 1350 1350 1355 1355 1355 1356 1356 1355 1355 1354 1350 1347 1344 1344 1344 1344 1346 1348 1348 1350 1351 1351 1351 1347 1346 1344 1344 1344 1344 1343 1343 1343 1342 1340 1338 1337 1335 1335 1334 1333 1333 1333 1335 1337 1339 1340 1341 1341 1341 1339 1338 1338 1338 1337 1337 1337 1337 1337 1337 1336 1336 1336 1335 1335 1334 1334 1334 1334 1334 1334 1334 1334 1332 1330 1330 1330 1330 1329 1328 1328 1328 1328 1328 1328 1328 1328 1327 1327 1327 1326 1326 1326 1328 1328 1328 1328 1329 1329 1329 1329 1329 1329 1330 1330 1330 1330 1330 1330 1332 1332 1332 1331 1331 1331 1330 1330 1330 1329 1329 1329 1329 1329 1329 1328 1328 1327 1327 1327 1326 1326 1327 1326 1326 1326 1326 1326 1326 1326 1326 1326 1325 1325 1324 1322 1322 1322 1322 1323 1323 1324 1324 1324 1324 1323 1322 1322 1322 1322 1321 1321 1320 1320 1320 1319 1318 1318 1318 1318 1318 1318 1318 1318 1318 1319 1319 1319 1318 1318 1318 1318 1317 1315 1315 1315 1315 1316 1316 1316 1316 1316 1316 1316 1316 1316 1317 1317 1317 1315 1314 1313 1312 1312 1312 1311 1311 1311 1311 1311 1311 1311 1311 1311 1311 1311 1311 1311 1311 1310 1309 1309 1309 1309 1309 1309 1309 1309 1308 1308 1308 1308 1308 1308 1308 1308 1308 1308 1308 1308 1308 1308 1306 1306 1306 1305 1305 1305 1305 1305 1305 1305 1305 1305 1305 1305 1305 1305 1304 1304 1304 1304 1304 1304 1304 1304 1304 1304 1305 1305 1305 1305 1305 1305 1305 1305 1305 1305 1305 1305 1305 1305 1305 1305 1305 1305 1305 1305 1304 1304 1304 1303 1303 1302 1302 1302 1302 1302 1302 1302 1302 1302 1302 1302 1301 1301 1301 1301 1302 1304 1313 1330 0 0 0 0 1759 1765 1768 1768 1768 1768 1768 1768 1768 1768 1768 1767 1766 1764 1762 1760 1758 1755 1753 1751 1749 1746 1745 1743 1741 1740 1739 1739 1738 1738 1737 1737 1737 1738 1741 1743 1744 1746 1749 1752 1754 1757 1760 1764 1767 1769 1771 1773 1775 1776 1777 1779 1780 1781 1782 1784 1785 1785 1785 1785 1786 1786 1786 1785 1785 1784 1783 1783 1782 1780 1780 1779 1779 1778 1776 1775 1774 1773 1771 1770 1769 1766 1765 1764 1762 1761 1760 1759 1758 1758 1757 1756 1755 1755 1754 1753 1753 1752 1752 1751 1751 1750 1750 1750 1749 1749 1749 1748 1748 1748 1748 1748 1748 1747 1747 1747 1747 1747 1746 1746 1746 1746 1746 1746 1745 1745 1744 1744 1743 1743 1743 1743 1743 1742 1742 1742 1742 1742 1742 1742 1742 1742 1742 1742 1742 1742 1742 1743 1744 1744 1744 1746 1747 1749 1750 1751 1752 1756 1768 1789 1794 1806 1851 1865 1865 1865 1863 1861 1860 1860 1860 1859 1857 1854 1851 1849 1848 1846 1845 1845 1844 1844 1844 1844 1843 1843 1842 1841 1840 1840 1837 1835 1833 1830 1827 1823 1821 1820 1817 1813 1810 1809 1804 1795 1784 1781 1776 1773 1771 1769 1765 1762 1762 1762 1759 1756 1756 1756 1758 1758 1758 1757 0 0 0 0 0 0 0 0 0 0 0 0 0 0 0 0 0 0 0 0 0 0 0 0 0 0 0
1900 1900 1900 1900 1904 1917 1925 1938 1959 1984 2005 2018 2030 2049 2073 2080 2080 2080 2078 2078 2078 2081 2103 2128 2152 2175 2206 2251 2275 2294 2306 2312 2314 2314 2318 2314 2314 2308 2303 2302 2298 2287 2276 2275 2275 2275 2291 2309 2351 2352 2352 2352 2344 2324 0 0 0 0 0 1370 1364 1358 1354 1352 1352 1352 1352 1353 1354 1354 1354 1353 1353 1352 1352 1351 1350 1348 1348 1348 1348 1348 1347 1347 1347 1348 1348 1348 1347 1343 1343 1343 1343 1345 1346 1347 1348 1348 1347 1346 1345 1345 1342 1341 1341 1340 1340 1340 1339 1338 1337 1337 1337 1335 1335 1334 1334 1334 1334 1334 1336 1338 1339 1340 1340 1340 1337 1336 1336 1336 1336 1336 1337 1337 1336 1336 1336 1335 1335 1335 1334 1334 1334 1334 1333 1332 1332 1332 1330 1330 1330 1330 1330 1330 1329 1329 1328 1328 1328 1328 1328 1328 1327 1327 1327 1327 1327 1327 1327 1328 1328 1328 1328 1328 1328 1328 1328 1328 1327 1327 1327 1327 1328 1328 1330 1332 1332 1332 1331 1329 1328 1328 1328 1327 1325 1325 1325 1325 1325 1325 1325 1325 1325 1326 1326 1326 1326 1326 1326 1326 1326 1326 1326 1326 1326 1326 1325 1325 1325 1324 1322 1322 1322 1322 1323 1323 1323 1323 1323 1323 1322 1322 1322 1322 1322 1321 1321 1320 1320 1320 1319 1318 1318 1317 1317 1317 1317 1318 1318 1318 1319 1319 1319 1317 1317 1317 1316 1316 1315 1315 1315 1315 1315 1316 1316 1316 1316 1316 1316 1316 1316 1316 1316 1316 1315 1313 1313 1312 1312 1311 1311 1311 1311 1311 1311 1311 1311 1311 1311 1310 1310 1310 1310 1309 1309 1308 1308 1308 1308 1308 1308 1308 1308 1308 1308 1308 1307 1307 1307 1307 1308 1308 1308 1307 1307 1306 1306 1306 1305 1305 1305 1305 1305 1304 1304 1304 1304 1304 1304 1304 1304 1303 1304 1303 1303 1303 1303 1303 1303 1303 1303 1303 1304 1304 1304 1304 1305 1305 1305 1305 1305 1305 1305 1305 1305 1305 1304 1305 1304 1304 1304 1304 1304 1303 1303 1303 1303 1302 1302 1302 1302 1301 1301 1301 1301 1301 1301 1301 1301 1301 1301 1301 1301 1302 1305 1311 1330 0 0 0 0 1759 1765 1767 1767 1768 1768 1768 1768 1768 1768 1768 1767 1766 1764 1762 1760 1758 1756 1753 1751 1749 1747 1745 1743 1741 1740 1739 1738 1737 1737 1736 1736 1736 1736 1737 1740 1742 1743 1746 1749 1752 1754 1758 1761 1765 1767 1770 1773 1774 1775 1776 1778 1779 1781 1782 1783 1785 1785 1785 1785 1786 1786 1786 1785 1785 1784 1783 1783 1782 1782 1780 1780 1779 1778 1777 1776 1775 1773 1772 1771 1769 1767 1765 1764 1763 1762 1760 1760 1759 1758 1757 1756 1756 1755 1754 1753 1753 1752 1751 1751 1750 1750 1750 1749 1749 1748 1748 1748 1748 1747 1747 1746 1746 1746 1746 1746 1746 1746 1746 1746 1746 1745 1745 1745 1744 1744 1744 1743 1743 1743 1742 1742 1742 1742 1742 1742 1742 1742 1742 1742 1742 1742 1742 1742 1742 1742 1742 1743 1744 1744 1745 1746 1747 1749 1750 1752 1754 1756 1769 1793 1798 1812 1854 1865 1865 1865 1864 1863 1862 1861 1860 1860 1858 1856 1851 1849 1848 1847 1845 1845 1845 1844 1844 1844 1843 1843 1842 1841 1840 1839 1837 1835 1832 1830 1826 1823 1821 1820 1817 1812 1810 1809 1804 1794 1785 1782 1778 1776 1775 1771 1767 1763 1763 1763 1763 1763 1763 1763 1763 1762 1762 1757 0 0 0 0 0 0 0 0 0 0 0 0 0 0 0 0 0 0 0 0 0 0 0 0 0 0 0
1901 1901 1902 1903 1908 1921 1935 1951 1976 2009 2030 2043 2053 2065 2075 2088 2098 2098 2098 2099 2099 2107 2123 2142 2152 2175 2206 2253 2265 2278 2304 2312 2314 2314 2318 2318 2318 2318 2311 2306 2303 2299 2292 2283 2283 2283 2293 2309 2317 2345 2345 2345 2342 2322 0 0 0 0 0 1364 1360 1355 1352 1349 1349 1349 1351 1353 1353 1353 1353 1352 1352 1352 1352 1351 1348 1348 1348 1348 1348 1348 1346 1346 1346 1347 1347 1347 1347 1343 1343 1343 1343 1344 1345 1345 1346 1346 1346 1346 1345 1345 1342 1341 1340 1340 1340 1339 1339 1338 1337 1337 1337 1335 1335 1334 1334 1334 1334 1334 1335 1338 1339 1339 1339 1337 1336 1336 1336 1336 1336 1336 1337 1336 1336 1336 1336 1335 1333 1333 1333 1334 1334 1334 1333 1332 1331 1330 1329 1329 1330 1330 1330 1330 1329 1329 1328 1328 1328 1328 1328 1327 1327 1327 1327 1327 1327 1327 1327 1328 1328 1328 1328 1328 1328 1328 1328 1328 1327 1327 1327 1327 1327 1328 1329 1329 1329 1329 1328 1328 1328 1327 1327 1326 1325 1325 1325 1325 1325 1325 1325 1325 1325 1325 1325 1325 1325 1325 1325 1325 1325 1325 1325 1325 1325 1325 1325 1324 1324 1323 1322 1322 1322 1322 1322 1323 1323 1323 1322 1322 1322 1322 1322 1321 1321 1321 1320 1320 1320 1320 1319 1318 1318 1317 1317 1317 1317 1318 1318 1318 1318 1317 1316 1316 1316 1316 1315 1315 1315 1315 1315 1315 1315 1315 1315 1316 1316 1316 1315 1315 1315 1315 1315 1315 1314 1313 1312 1312 1312 1311 1311 1311 1310 1310 1310 1310 1310 1310 1310 1309 1309 1309 1309 1309 1308 1308 1308 1308 1308 1308 1308 1307 1307 1307 1307 1306 1306 1306 1306 1306 1306 1306 1306 1306 1306 1305 1305 1305 1305 1304 1304 1304 1304 1304 1304 1303 1303 1303 1303 1303 1303 1303 1302 1302 1302 1302 1302 1302 1302 1302 1303 1303 1304 1304 1304 1304 1304 1304 1304 1305 1305 1305 1305 1304 1304 1304 1304 1304 1304 1304 1303 1303 1303 1303 1303 1302 1302 1302 1302 1301 1301 1301 1300 1300 1300 1300 1301 1301 1301 1301 1301 1301 1301 1303 1306 1310 1329 0 0 0 0 1759 1765 1766 1767 1767 1767 1767 1767 1768 1768 1768 1767 1766 1764 1762 1761 1758 1756 1753 1751 1749 1747 1745 1743 1741 1739 1738 1737 1737 1736 1735 1734 1734 1734 1736 1737 1740 1741 1743 1746 1749 1751 1755 1758 1763 1767 1769 1772 1773 1774 1776 1778 1779 1781 1782 1783 1784 1785 1785 1785 1786 1786 1786 1785 1785 1784 1783 1783 1782 1782 1781 1780 1779 1779 1777 1776 1775 1773 1772 1771 1769 1767 1766 1764 1763 1762 1761 1760 1760 1758 1758 1757 1756 1755 1754 1753 1752 1752 1751 1750 1750 1749 1749 1748 1748 1748 1747 1747 1747 1747 1746 1746 1746 1746 1746 1745 1746 1746 1745 1745 1744 1744 1744 1744 1743 1743 1742 1742 1742 1741 1741 1741 1741 1741 1741 1742 1742 1742 1742 1742 1742 1742 1742 1742 1742 1742 1742 1743 1744 1744 1745 1745 1747 1749 1750 1755 1756 1759 1769 1795 1811 1815 1858 1865 1865 1865 1865 1865 1863 1861 1861 1861 1859 1857 1855 1851 1849 1847 1846 1845 1845 1844 1844 1843 1843 1843 1842 1841 1840 1838 1837 1835 1832 1830 1826 1823 1821 1819 1817 1812 1809 1807 1803 1794 1787 1785 1783 1778 1778 1774 1768 1766 1766 1766 1767 1767 1767 1766 1764 1764 1763 1758 1749 0 0 0 0 0 0 0 0 0 0 0 0 0 0 0 0 0 0 0 0 0 0 0 0 0 0
1900 1900 1906 1908 1916 1932 1935 1960 1994 2027 2046 2058 2069 2075 2084 2097 2113 2122 2122 2127 2128 2145 2156 2185 2218 2238 2253 2255 2265 2278 2287 2296 2305 2308 2312 2318 2318 2318 2318 2317 2317 2313 2310 2303 2295 2295 2295 2306 2309 2330 2339 2339 2339 2319 0 0 0 0 0 1363 1357 1352 1349 1349 1349 1349 1350 1351 1351 1351 1349 1347 1346 1346 1346 1344 1344 1344 1345 1345 1345 1345 1345 1344 1344 1344 1344 1343 1342 1342 1341 1340 1340 1340 1340 1341 1341 1341 1341 1341 1341 1341 1340 1340 1339 1339 1338 1338 1338 1338 1337 1337 1337 1335 1335 1334 1333 1333 1333 1333 1334 1335 1337 1337 1337 1337 1336 1336 1336 1336 1336 1336 1336 1336 1336 1336 1336 1335 1333 1333 1333 1332 1332 1332 1332 1331 1330 1330 1330 1330 1330 1330 1330 1330 1329 1329 1328 1328 1328 1328 1327 1327 1327 1327 1327 1327 1327 1327 1328 1328 1328 1328 1328 1328 1328 1328 1327 1327 1327 1327 1327 1327 1327 1327 1328 1328 1328 1328 1328 1328 1328 1327 1326 1325 1325 1325 1325 1325 1324 1324 1324 1324 1324 1325 1325 1325 1325 1325 1325 1325 1325 1325 1324 1324 1324 1324 1324 1323 1323 1322 1322 1322 1322 1322 1322 1323 1323 1323 1322 1322 1322 1322 1322 1321 1321 1320 1320 1320 1320 1319 1319 1318 1318 1317 1317 1317 1317 1317 1317 1317 1316 1316 1315 1315 1315 1315 1315 1315 1315 1314 1314 1314 1314 1314 1315 1315 1315 1315 1315 1315 1315 1315 1314 1314 1314 1312 1312 1312 1311 1311 1311 1311 1310 1310 1310 1310 1309 1309 1309 1309 1308 1308 1308 1308 1308 1307 1307 1307 1307 1307 1307 1307 1307 1307 1306 1306 1306 1306 1306 1306 1306 1305 1305 1305 1305 1305 1304 1304 1304 1304 1303 1303 1303 1303 1303 1303 1302 1302 1302 1302 1302 1302 1302 1302 1302 1302 1302 1302 1302 1302 1302 1303 1303 1303 1304 1304 1304 1304 1304 1304 1304 1304 1304 1304 1303 1303 1303 1303 1303 1303 1303 1303 1303 1302 1302 1302 1302 1301 1301 1301 1301 1300 1300 1300 1300 1300 1300 1300 1300 1300 1301 1301 1301 1302 1306 1310 1328 0 0 0 0 1759 1765 1767 1767 1767 1767 1767 1767 1768 1768 1768 1767 1766 1765 1763 1761 1759 1756 1754 1751 1749 1747 1745 1743 1741 1739 1738 1736 1736 1734 1734 1734 1734 1734 1734 1736 1737 1739 1740 1744 1747 1750 1753 1757 1761 1765 1769 1771 1772 1773 1775 1777 1779 1780 1781 1783 1784 1785 1785 1785 1786 1786 1786 1785 1785 1785 1784 1783 1782 1782 1781 1780 1779 1779 1778 1777 1775 1773 1772 1771 1769 1768 1766 1764 1763 1763 1761 1761 1760 1759 1758 1757 1756 1755 1754 1753 1752 1752 1751 1750 1750 1749 1749 1748 1747 1747 1747 1746 1746 1746 1745 1745 1745 1745 1745 1745 1745 1745 1745 1744 1744 1743 1743 1743 1743 1742 1741 1741 1741 1741 1741 1740 1741 1740 1740 1740 1741 1741 1741 1741 1741 1741 1741 1741 1741 1741 1742 1743 1744 1744 1744 1745 1747 1749 1753 1759 1759 1760 1775 1801 1816 1822 1859 1865 1865 1866 1865 1865 1865 1863 1862 1862 1860 1858 1856 1853 1851 1848 1847 1846 1845 1845 1844 1843 1843 1843 1842 1841 1840 1838 1836 1834 1832 1830 1826 1822 1821 1819 1816 1811 1808 1806 1801 1795 1792 1790 1787 1782 1779 1775 1771 1770 1770 1770 1773 1773 1773 1772 1768 1765 1762 1758 1752 0 0 0 0 0 0 0 0 0 0 0 0 0 0 0 0 0 0 0 0 0 0 0 0 0 0
1900 1900 1914 1919 1931 1949 1953 1978 2008 2027 2046 2058 2074 2090 2101 2112 2126 2138 2142 2146 2161 2176 2198 2221 2246 2257 2261 2264 2265 2278 2287 2296 2301 2305 2306 2307 2318 2321 2324 2325 2327 2327 2327 2319 2308 2303 2303 2303 2304 2308 2325 2325 2325 2313 0 0 0 0 0 1361 1352 1345 1345 1345 1346 1349 1349 1349 1348 1346 1345 1345 1345 1345 1345 1344 1344 1343 1343 1344 1344 1343 1343 1342 1342 1342 1342 1341 1340 1340 1340 1339 1339 1339 1339 1339 1340 1340 1340 1339 1339 1338 1339 1338 1338 1338 1338 1337 1337 1336 1336 1336 1336 1335 1335 1334 1333 1333 1333 1333 1333 1335 1335 1336 1336 1336 1336 1335 1335 1335 1335 1335 1335 1335 1335 1334 1334 1334 1333 1332 1332 1332 1332 1332 1331 1331 1330 1329 1329 1329 1330 1330 1330 1329 1329 1329 1328 1328 1327 1327 1327 1327 1327 1327 1327 1327 1327 1328 1328 1328 1328 1328 1328 1328 1328 1328 1328 1328 1327 1327 1327 1327 1327 1327 1327 1327 1327 1327 1328 1328 1327 1326 1326 1325 1325 1325 1325 1324 1324 1324 1324 1324 1324 1324 1324 1324 1324 1324 1324 1324 1324 1324 1323 1323 1323 1323 1322 1322 1322 1322 1322 1322 1322 1322 1321 1322 1322 1321 1321 1321 1321 1321 1321 1321 1321 1320 1320 1319 1319 1319 1318 1317 1317 1317 1316 1316 1316 1316 1316 1316 1315 1315 1314 1314 1314 1314 1314 1314 1314 1313 1314 1313 1313 1313 1314 1314 1314 1314 1314 1314 1314 1314 1314 1313 1313 1312 1311 1311 1311 1311 1311 1311 1310 1310 1310 1309 1309 1309 1309 1309 1308 1308 1308 1308 1307 1307 1307 1307 1306 1306 1306 1306 1306 1306 1306 1306 1305 1305 1305 1305 1305 1304 1304 1304 1304 1304 1304 1303 1303 1303 1302 1302 1302 1302 1302 1302 1302 1302 1302 1302 1302 1301 1301 1301 1301 1301 1301 1301 1302 1302 1302 1302 1303 1303 1303 1304 1304 1304 1304 1304 1304 1304 1304 1303 1303 1303 1303 1303 1303 1303 1303 1302 1302 1302 1302 1302 1302 1301 1301 1300 1300 1300 1300 1300 1300 1300 1300 1300 1300 1300 1301 1301 1301 1302 1306 1309 1327 0 0 0 0 1756 1765 1765 1766 1767 1767 1767 1767 1768 1768 1768 1767 1766 1765 1763 1761 1759 1756 1754 1752 1749 1747 1745 1742 1740 1739 1737 1736 1735 1733 1733 1733 1732 1732 1732 1733 1735 1737 1739 1741 1747 1749 1752 1756 1760 1763 1767 1769 1771 1773 1775 1777 1779 1780 1781 1782 1784 1785 1785 1785 1786 1786 1786 1785 1785 1785 1784 1783 1783 1782 1781 1781 1780 1779 1778 1777 1775 1774 1772 1771 1770 1768 1767 1765 1764 1763 1762 1762 1760 1759 1758 1757 1756 1755 1754 1753 1752 1752 1751 1750 1750 1749 1748 1748 1747 1747 1746 1746 1746 1745 1745 1744 1744 1744 1744 1744 1744 1744 1744 1743 1743 1742 1742 1742 1742 1741 1741 1741 1741 1740 1740 1740 1740 1740 1740 1740 1740 1740 1740 1741 1741 1741 1741 1741 1741 1741 1742 1742 1743 1743 1744 1745 1747 1751 1756 1759 1760 1768 1782 1808 1821 1853 1861 1865 1865 1866 1865 1865 1865 1864 1863 1862 1860 1858 1856 1854 1852 1850 1848 1848 1846 1845 1844 1844 1843 1843 1841 1840 1839 1837 1836 1834 1832 1829 1826 1822 1821 1818 1815 1811 1808 1806 1801 1795 1793 1790 1787 1785 1780 1777 1776 1776 1776 1776 1776 1777 1776 1776 1770 1765 1762 1761 1760 1758 0 0 0 0 0 0 0 0 0 0 0 0 0 0 0 0 0 0 0 0 0 0 0 0 0
1900 1900 1920 1936 1954 1957 1975 1990 2011 2027 2046 2060 2075 2092 2111 2121 2135 2138 2142 2150 2167 2181 2206 2235 2256 2264 2264 2268 2276 2285 2287 2296 2301 2305 2306 2307 2318 2324 2327 2335 2335 2335 2335 2325 2311 2303 2300 2300 2300 2300 2300 2305 2305 2305 0 0 0 0 0 1358 1347 1345 1345 1345 1346 1347 1347 1347 1347 1346 1345 1345 1345 1344 1344 1342 1341 1341 1341 1341 1341 1341 1341 1341 1340 1340 1340 1340 1339 1339 1338 1338 1338 1338 1338 1338 1339 1339 1339 1338 1338 1338 1338 1338 1338 1338 1337 1337 1336 1336 1336 1336 1336 1335 1335 1334 1333 1333 1333 1333 1333 1334 1334 1335 1336 1336 1336 1335 1335 1335 1335 1335 1335 1335 1334 1334 1334 1334 1332 1332 1331 1331 1331 1331 1331 1331 1330 1329 1329 1329 1329 1329 1329 1329 1329 1328 1328 1328 1327 1327 1327 1327 1327 1327 1327 1327 1327 1328 1328 1328 1328 1328 1328 1328 1328 1328 1328 1328 1327 1327 1327 1327 1327 1327 1327 1326 1326 1326 1326 1326 1326 1326 1325 1325 1325 1325 1325 1324 1324 1324 1324 1324 1324 1324 1324 1324 1324 1324 1324 1324 1323 1323 1323 1323 1323 1322 1322 1322 1322 1321 1321 1321 1321 1321 1321 1321 1321 1320 1320 1320 1320 1320 1320 1320 1320 1320 1319 1318 1318 1318 1317 1317 1317 1316 1316 1315 1315 1315 1315 1315 1314 1314 1313 1313 1313 1313 1312 1312 1312 1312 1312 1312 1312 1312 1313 1313 1313 1313 1313 1313 1313 1313 1313 1312 1312 1312 1311 1311 1311 1311 1311 1311 1310 1310 1310 1309 1309 1309 1309 1308 1308 1307 1307 1307 1307 1307 1307 1307 1306 1306 1306 1306 1306 1305 1305 1305 1305 1305 1304 1304 1304 1304 1303 1303 1303 1303 1303 1303 1302 1302 1302 1302 1301 1301 1301 1301 1301 1301 1301 1301 1301 1301 1301 1301 1301 1301 1301 1301 1301 1301 1302 1302 1303 1303 1303 1304 1304 1304 1304 1303 1303 1303 1303 1303 1303 1303 1302 1302 1302 1302 1302 1302 1302 1302 1302 1301 1301 1301 1300 1300 1299 1299 1299 1299 1299 1299 1299 1300 1300 1300 1300 1300 1301 1302 1303 1308 1326 0 0 0 1712 1744 1765 1766 1766 1767 1767 1767 1767 1768 1768 1768 1767 1766 1765 1763 1761 1759 1756 1754 1752 1749 1747 1745 1742 1740 1739 1737 1735 1735 1733 1733 1732 1732 1732 1732 1732 1733 1734 1736 1738 1742 1747 1751 1755 1759 1762 1765 1767 1770 1773 1774 1776 1778 1779 1780 1781 1783 1784 1785 1785 1786 1786 1786 1785 1785 1785 1784 1784 1783 1782 1782 1781 1780 1779 1778 1777 1775 1774 1773 1771 1770 1768 1767 1765 1765 1763 1763 1762 1760 1759 1759 1758 1757 1756 1755 1753 1752 1752 1751 1751 1750 1749 1748 1748 1747 1747 1746 1746 1745 1745 1744 1744 1744 1744 1744 1744 1744 1744 1743 1743 1743 1742 1741 1741 1741 1740 1740 1740 1740 1739 1739 1739 1739 1739 1739 1740 1740 1740 1740 1740 1740 1741 1741 1741 1741 1741 1742 1742 1743 1743 1745 1746 1748 1751 1757 1759 1760 1772 1791 1810 1824 1853 1861 1864 1865 1865 1865 1865 1865 1864 1863 1862 1860 1858 1856 1854 1852 1850 1849 1848 1847 1845 1844 1844 1843 1842 1841 1838 1837 1836 1834 1832 1830 1829 1826 1822 1820 1817 1815 1811 1808 1806 1801 1797 1793 1790 1787 1786 1783 1781 1781 1781 1781 1781 1781 1781 1778 1777 1774 1767 1762 1760 1758 1758 0 0 0 0 0 0 0 0 0 0 0 0 0 0 0 0 0 0 0 0 0 0 0 0 0
1901 1901 1926 1952 1970 1980 1995 2005 2013 2033 2048 2060 2077 2094 2111 2121 2135 2138 2142 2150 2167 2187 2211 2237 2258 2266 2274 2280 2291 2297 2305 2307 2307 2307 2307 2307 2318 2332 2340 2346 2346 2346 2338 2327 2311 2300 2298 2294 2293 2290 2290 2290 2290 2290 0 0 0 0 0 1355 1343 1343 1343 1344 1345 1346 1346 1346 1346 1345 1345 1344 1344 1344 1343 1342 1341 1341 1341 1340 1340 1340 1340 1340 1340 1340 1340 1339 1339 1338 1338 1338 1337 1337 1337 1337 1337 1337 1337 1337 1337 1337 1337 1337 1337 1337 1336 1336 1336 1335 1335 1335 1335 1334 1333 1333 1333 1333 1333 1333 1333 1334 1334 1334 1334 1335 1335 1335 1335 1335 1335 1335 1335 1335 1334 1334 1333 1332 1332 1331 1331 1331 1331 1330 1330 1329 1329 1329 1329 1329 1329 1329 1328 1328 1328 1328 1328 1327 1327 1327 1327 1327 1327 1327 1327 1327 1327 1327 1327 1328 1328 1328 1328 1328 1328 1328 1328 1327 1327 1327 1327 1327 1326 1326 1326 1325 1325 1325 1325 1325 1325 1324 1324 1324 1324 1324 1323 1323 1323 1323 1323 1323 1323 1323 1323 1322 1322 1322 1322 1322 1322 1322 1322 1322 1322 1321 1321 1321 1321 1320 1320 1320 1320 1320 1320 1320 1320 1320 1320 1320 1320 1320 1320 1320 1320 1320 1319 1318 1318 1317 1317 1317 1316 1316 1315 1315 1315 1315 1314 1314 1314 1314 1312 1312 1312 1312 1311 1311 1311 1311 1311 1311 1312 1312 1312 1312 1312 1312 1312 1312 1312 1312 1312 1312 1312 1312 1311 1311 1311 1311 1311 1310 1310 1310 1310 1309 1309 1308 1308 1308 1307 1307 1307 1307 1307 1307 1307 1307 1306 1306 1306 1306 1306 1305 1305 1304 1304 1304 1304 1303 1303 1303 1303 1303 1302 1302 1302 1302 1301 1301 1300 1300 1300 1300 1300 1300 1300 1300 1301 1301 1300 1301 1301 1300 1301 1301 1301 1301 1301 1301 1301 1302 1303 1303 1303 1303 1303 1303 1303 1303 1303 1303 1303 1303 1303 1302 1302 1302 1302 1302 1302 1302 1302 1302 1302 1301 1300 1300 1300 1300 1299 1299 1299 1298 1298 1298 1298 1299 1300 1300 1300 1300 1301 1301 1302 1307 0 0 0 0 1712 1743 1765 1767 1767 1767 1767 1767 1767 1768 1768 1768 1767 1766 1764 1763 1761 1759 1756 1754 1752 1749 1747 1744 1742 1740 1738 1737 1735 1734 1732 1732 1732 1731 1731 1731 1731 1731 1733 1736 1738 1740 1745 1749 1754 1757 1760 1763 1766 1768 1771 1773 1775 1776 1778 1780 1781 1783 1784 1785 1785 1786 1786 1786 1786 1785 1785 1785 1784 1784 1782 1782 1781 1780 1779 1778 1777 1776 1775 1773 1772 1770 1769 1767 1766 1765 1764 1763 1762 1760 1760 1759 1758 1757 1756 1755 1754 1753 1752 1751 1751 1750 1749 1748 1748 1747 1747 1746 1746 1745 1744 1744 1744 1744 1744 1744 1744 1743 1743 1743 1743 1742 1742 1741 1741 1740 1740 1740 1739 1738 1738 1738 1738 1738 1738 1738 1738 1739 1739 1740 1740 1740 1740 1741 1741 1741 1741 1742 1742 1743 1743 1746 1747 1750 1753 1757 1760 1762 1774 1791 1810 1825 1853 1861 1862 1862 1863 1864 1865 1865 1865 1863 1862 1861 1858 1856 1854 1852 1850 1849 1849 1847 1846 1845 1844 1843 1842 1840 1838 1836 1835 1834 1831 1829 1828 1825 1821 1819 1816 1814 1812 1809 1806 1803 1799 1795 1791 1787 1787 1787 1786 1786 1786 1786 1785 1784 1784 1783 1783 1783 1773 1764 1760 1758 1754 1741 0 0 0 0 0 0 0 0 0 0 0 0 0 0 0 0 0 0 0 0 0 0 0 0
1903 1903 1933 1956 1970 1988 2008 2014 2016 2033 2048 2060 2078 2095 2111 2121 2135 2136 2142 2150 2167 2187 2214 2240 2259 2270 2280 2287 2292 2303 2312 2315 2315 2315 2319 2322 2336 2350 2358 2361 2361 2361 2349 2328 2317 2300 2298 2294 2288 2274 2274 2274 2274 2256 0 0 0 0 0 1354 1342 1342 1342 1343 1344 1345 1345 1345 1345 1344 1343 1343 1343 1343 1342 1342 1340 1340 1340 1340 1340 1339 1339 1339 1339 1338 1338 1338 1337 1337 1337 1337 1337 1337 1337 1337 1337 1337 1337 1337 1337 1337 1337 1337 1336 1336 1336 1335 1335 1335 1335 1334 1334 1333 1333 1333 1333 1333 1333 1333 1333 1333 1334 1334 1334 1335 1335 1335 1335 1335 1335 1335 1335 1334 1334 1333 1333 1332 1331 1331 1331 1330 1330 1330 1329 1329 1329 1329 1329 1329 1329 1327 1327 1327 1327 1327 1327 1327 1327 1327 1327 1327 1327 1327 1327 1327 1327 1327 1328 1328 1328 1328 1328 1328 1328 1328 1327 1327 1327 1327 1327 1326 1326 1326 1326 1325 1325 1325 1325 1325 1324 1324 1324 1323 1323 1323 1323 1322 1322 1322 1322 1322 1322 1322 1322 1322 1321 1321 1321 1321 1321 1321 1320 1320 1320 1320 1320 1320 1320 1320 1320 1320 1320 1319 1320 1320 1320 1320 1320 1320 1320 1320 1320 1320 1320 1319 1319 1318 1317 1317 1317 1316 1316 1315 1315 1315 1315 1314 1314 1314 1314 1312 1312 1311 1311 1311 1311 1310 1310 1310 1311 1311 1311 1311 1311 1311 1311 1311 1312 1312 1311 1312 1311 1311 1311 1311 1311 1311 1311 1311 1310 1310 1310 1310 1309 1309 1309 1308 1308 1308 1307 1307 1307 1307 1307 1307 1306 1306 1305 1305 1305 1305 1305 1305 1304 1304 1303 1303 1303 1303 1303 1303 1302 1302 1301 1301 1301 1301 1300 1300 1299 1299 1299 1300 1300 1300 1300 1300 1300 1300 1300 1300 1300 1300 1300 1300 1300 1301 1301 1301 1301 1302 1303 1303 1303 1303 1303 1303 1303 1303 1303 1303 1303 1302 1302 1302 1302 1302 1302 1302 1302 1301 1301 1301 1301 1301 1300 1300 1300 1299 1299 1299 1298 1298 1298 1298 1298 1298 1299 1299 1300 1300 1301 1301 1301 1307 0 0 0 0 1709 1742 1761 1767 1767 1767 1767 1767 1767 1768 1768 1768 1767 1766 1764 1763 1761 1758 1756 1754 1752 1749 1746 1743 1741 1740 1737 1735 1734 1732 1731 1731 1731 1731 1731 1731 1731 1731 1733 1735 1738 1740 1742 1746 1751 1755 1759 1762 1765 1767 1769 1772 1775 1776 1777 1778 1781 1783 1783 1785 1785 1785 1786 1786 1786 1785 1785 1785 1784 1784 1783 1782 1781 1780 1779 1778 1777 1776 1775 1773 1772 1771 1769 1768 1767 1766 1765 1764 1762 1761 1760 1759 1758 1757 1756 1755 1754 1753 1752 1751 1751 1750 1749 1749 1748 1747 1747 1746 1746 1745 1744 1744 1744 1744 1744 1744 1744 1743 1743 1743 1742 1742 1742 1741 1741 1740 1740 1739 1738 1738 1738 1738 1738 1738 1738 1738 1738 1738 1738 1738 1739 1739 1739 1739 1740 1741 1741 1742 1743 1743 1745 1747 1749 1751 1753 1757 1760 1764 1775 1792 1811 1826 1850 1857 1862 1862 1862 1863 1864 1864 1864 1864 1862 1860 1858 1856 1854 1853 1851 1850 1849 1848 1846 1845 1844 1843 1842 1840 1838 1836 1834 1832 1830 1829 1826 1823 1819 1817 1816 1814 1812 1809 1806 1803 1799 1796 1791 1791 1791 1790 1790 1790 1790 1790 1789 1789 1789 1788 1787 1785 1775 1766 1761 1758 1753 1741 0 0 0 0 0 0 0 0 0 0 0 0 0 0 0 0 0 0 0 0 0 0 0 0
1913 1913 1937 1956 1970 1988 2008 2015 2016 2035 2050 2069 2083 2096 2108 2111 2118 2121 2124 2144 2167 2189 2217 2245 2267 2279 2281 2287 2295 2303 2315 2319 2326 2328 2333 2338 2356 2365 2376 2384 2384 2384 2378 2359 2319 2300 2298 2294 2288 2269 2249 2247 2243 2227 0 0 0 0 0 1351 1342 1342 1342 1343 1343 1344 1344 1344 1343 1343 1342 1342 1342 1342 1341 1340 1340 1339 1339 1338 1338 1338 1338 1338 1337 1337 1337 1336 1336 1336 1336 1336 1336 1336 1336 1336 1336 1336 1336 1336 1335 1335 1336 1335 1335 1335 1335 1335 1334 1334 1334 1333 1333 1333 1333 1333 1333 1333 1333 1333 1333 1333 1333 1333 1334 1334 1334 1334 1335 1335 1334 1334 1334 1334 1333 1333 1332 1331 1331 1330 1330 1330 1329 1329 1328 1328 1328 1328 1327 1327 1327 1327 1327 1327 1327 1327 1326 1326 1326 1326 1326 1326 1326 1326 1326 1327 1327 1327 1327 1328 1328 1328 1328 1328 1328 1327 1327 1327 1327 1327 1326 1326 1326 1326 1325 1325 1325 1324 1324 1323 1323 1323 1323 1322 1322 1322 1322 1322 1322 1322 1322 1322 1321 1321 1321 1321 1320 1320 1319 1319 1319 1319 1319 1320 1319 1319 1319 1319 1319 1319 1319 1319 1319 1319 1319 1319 1320 1320 1320 1320 1320 1320 1319 1319 1319 1319 1319 1318 1317 1317 1316 1316 1316 1315 1315 1315 1314 1314 1313 1313 1313 1312 1311 1311 1311 1310 1310 1310 1309 1309 1309 1310 1310 1310 1310 1310 1310 1310 1311 1311 1311 1311 1311 1311 1311 1311 1311 1311 1311 1311 1310 1310 1310 1310 1309 1309 1309 1308 1308 1308 1307 1307 1307 1306 1306 1306 1306 1305 1305 1305 1305 1305 1305 1304 1304 1304 1303 1302 1302 1302 1302 1301 1301 1301 1301 1301 1300 1300 1299 1299 1298 1298 1298 1298 1298 1299 1299 1299 1300 1300 1300 1300 1299 1299 1300 1300 1300 1300 1301 1301 1301 1302 1302 1303 1303 1303 1303 1303 1303 1303 1303 1303 1302 1302 1302 1302 1302 1301 1301 1301 1301 1301 1301 1301 1301 1300 1300 1300 1299 1299 1299 1298 1298 1298 1298 1298 1298 1298 1298 1298 1299 1300 1301 1301 1301 1307 0 0 0 0 1712 1742 1761 1767 1767 1767 1767 1767 1767 1768 1768 1768 1767 1765 1764 1763 1761 1758 1756 1753 1751 1749 1746 1743 1741 1739 1737 1735 1733 1732 1731 1730 1730 1730 1730 1730 1730 1730 1732 1735 1738 1739 1742 1744 1748 1751 1755 1759 1763 1765 1768 1770 1773 1775 1776 1778 1780 1782 1783 1785 1785 1785 1785 1785 1785 1785 1785 1784 1784 1784 1783 1782 1781 1780 1779 1778 1777 1776 1775 1773 1772 1771 1769 1768 1767 1766 1765 1764 1762 1761 1760 1759 1758 1757 1757 1756 1755 1753 1753 1752 1751 1750 1749 1749 1748 1747 1746 1746 1745 1745 1744 1744 1744 1744 1743 1743 1743 1743 1743 1742 1742 1742 1742 1741 1741 1740 1739 1739 1738 1738 1737 1737 1737 1737 1737 1737 1737 1737 1737 1738 1738 1739 1739 1739 1740 1741 1741 1742 1743 1744 1745 1747 1749 1751 1753 1755 1759 1764 1775 1792 1811 1826 1850 1857 1862 1862 1862 1863 1863 1864 1864 1864 1862 1860 1858 1856 1854 1853 1851 1850 1850 1848 1846 1845 1844 1843 1842 1840 1838 1836 1834 1832 1830 1828 1825 1821 1818 1816 1815 1814 1812 1809 1806 1803 1799 1797 1793 1791 1791 1790 1790 1790 1790 1791 1793 1793 1794 1794 1792 1787 1783 1768 1761 1754 1749 1744 1723 0 0 0 0 0 0 0 0 0 0 0 0 0 0 0 0 0 0 0 0 0 0 0
1926 1926 1938 1957 1960 1988 2009 2017 2027 2043 2060 2076 2090 2101 2108 2111 2118 2121 2124 2144 2167 2193 2222 2247 2267 2279 2281 2288 2296 2304 2315 2320 2332 2341 2347 2355 2365 2375 2387 2395 2395 2395 2385 2379 2374 2366 2363 2336 2288 2269 2247 2228 2226 2222 0 0 0 0 0 1350 1342 1342 1342 1342 1343 1344 1344 1344 1343 1342 1341 1341 1340 1340 1340 1339 1338 1338 1337 1337 1337 1337 1337 1337 1336 1336 1335 1335 1335 1335 1335 1335 1335 1335 1334 1334 1334 1334 1334 1334 1335 1335 1335 1335 1335 1334 1333 1333 1333 1333 1333 1333 1333 1333 1333 1333 1333 1333 1332 1333 1333 1333 1333 1333 1334 1334 1334 1334 1334 1334 1334 1334 1334 1333 1333 1332 1332 1331 1330 1330 1329 1329 1328 1328 1328 1327 1327 1327 1326 1326 1326 1326 1326 1326 1326 1326 1326 1326 1326 1326 1326 1326 1326 1326 1326 1327 1327 1327 1328 1328 1328 1328 1328 1327 1327 1327 1327 1327 1327 1326 1326 1326 1326 1325 1325 1325 1324 1324 1324 1323 1322 1322 1322 1322 1322 1322 1321 1320 1320 1320 1320 1320 1321 1321 1321 1320 1319 1319 1319 1319 1319 1318 1318 1318 1318 1318 1318 1318 1318 1318 1318 1318 1318 1319 1319 1319 1319 1319 1319 1319 1319 1319 1319 1319 1319 1319 1318 1318 1317 1317 1316 1316 1316 1315 1315 1315 1314 1314 1313 1313 1312 1312 1311 1310 1310 1309 1309 1309 1309 1309 1309 1309 1309 1309 1309 1309 1309 1309 1309 1309 1309 1310 1310 1310 1310 1310 1310 1310 1310 1310 1310 1310 1310 1310 1309 1309 1308 1308 1308 1308 1307 1307 1306 1306 1306 1306 1305 1305 1305 1305 1304 1304 1304 1304 1303 1302 1302 1301 1301 1300 1300 1300 1299 1299 1299 1299 1299 1298 1298 1298 1297 1297 1297 1297 1298 1298 1298 1298 1299 1299 1299 1299 1299 1299 1299 1299 1300 1300 1301 1301 1301 1302 1302 1303 1303 1303 1303 1303 1303 1303 1303 1303 1302 1302 1302 1302 1302 1301 1301 1301 1301 1301 1301 1301 1301 1300 1300 1300 1299 1299 1298 1298 1297 1297 1297 1297 1297 1298 1298 1298 1299 1300 1300 1301 1302 1308 0 0 0 0 1714 1742 1761 1766 1766 1767 1767 1767 1767 1768 1768 1768 1767 1765 1764 1762 1760 1758 1755 1753 1751 1749 1746 1743 1740 1738 1736 1735 1733 1732 1730 1729 1729 1729 1729 1729 1730 1730 1732 1735 1738 1739 1741 1742 1746 1750 1753 1757 1761 1763 1766 1768 1771 1774 1776 1777 1779 1781 1783 1784 1785 1785 1785 1785 1785 1785 1785 1784 1784 1783 1783 1782 1781 1780 1779 1778 1777 1776 1775 1774 1772 1771 1769 1769 1768 1766 1765 1764 1763 1762 1760 1759 1758 1757 1757 1757 1755 1754 1753 1753 1752 1751 1750 1749 1748 1747 1746 1746 1745 1745 1744 1744 1743 1743 1743 1743 1743 1743 1742 1742 1742 1742 1741 1741 1741 1740 1739 1739 1738 1738 1737 1737 1737 1737 1737 1737 1737 1737 1737 1738 1738 1739 1739 1739 1740 1741 1741 1742 1743 1744 1745 1747 1750 1751 1753 1755 1759 1764 1775 1792 1811 1834 1850 1857 1862 1863 1863 1863 1863 1864 1864 1864 1863 1861 1858 1857 1854 1853 1853 1852 1850 1848 1847 1845 1844 1843 1841 1840 1838 1836 1834 1832 1830 1828 1825 1821 1818 1815 1812 1812 1812 1809 1806 1803 1799 1797 1794 1791 1791 1791 1790 1790 1790 1791 1793 1794 1794 1794 1794 1792 1786 1774 1762 1754 1749 1746 1741 0 0 0 0 0 0 0 0 0 0 0 0 0 0 0 0 0 0 0 0 0 0 0
1936 1936 1939 1956 1960 1988 2011 2019 2031 2052 2065 2079 2094 2105 2108 2111 2118 2121 2124 2144 2168 2195 2222 2248 2267 2279 2282 2288 2296 2304 2315 2320 2338 2352 2361 2367 2378 2387 2399 2399 2399 2399 2392 2386 2386 2382 2378 2355 2319 2269 2247 2228 2222 2212 0 0 0 0 0 1350 1342 1342 1342 1342 1343 1343 1343 1343 1342 1341 1340 1340 1339 1339 1338 1338 1338 1336 1336 1336 1336 1336 1336 1336 1336 1335 1335 1335 1333 1333 1333 1333 1333 1333 1333 1333 1333 1333 1333 1333 1333 1333 1333 1333 1333 1333 1333 1333 1333 1333 1333 1333 1333 1332 1332 1332 1332 1332 1332 1332 1332 1333 1333 1333 1334 1334 1334 1334 1334 1334 1334 1334 1334 1333 1333 1332 1332 1330 1330 1329 1329 1328 1328 1327 1327 1326 1326 1325 1325 1325 1325 1325 1325 1325 1325 1325 1324 1324 1324 1325 1325 1326 1326 1326 1326 1326 1327 1327 1327 1327 1327 1327 1327 1327 1327 1327 1327 1327 1327 1326 1326 1326 1325 1325 1325 1324 1324 1324 1323 1323 1322 1322 1322 1321 1321 1320 1320 1320 1320 1320 1320 1320 1320 1319 1319 1319 1319 1318 1318 1318 1318 1317 1317 1317 1317 1317 1317 1317 1317 1317 1317 1317 1318 1318 1318 1318 1318 1319 1319 1319 1319 1319 1319 1319 1319 1318 1318 1318 1317 1317 1316 1316 1315 1315 1314 1314 1314 1313 1313 1312 1312 1311 1310 1310 1309 1309 1309 1309 1308 1308 1308 1308 1308 1308 1308 1307 1307 1307 1308 1308 1308 1309 1309 1310 1310 1310 1310 1310 1310 1310 1310 1310 1310 1309 1309 1309 1308 1308 1308 1307 1307 1306 1306 1306 1306 1305 1305 1305 1305 1305 1304 1304 1303 1303 1302 1301 1301 1301 1301 1300 1299 1299 1298 1297 1297 1297 1297 1297 1297 1296 1296 1296 1296 1296 1296 1297 1297 1297 1297 1297 1298 1298 1298 1299 1299 1299 1300 1300 1300 1301 1301 1302 1302 1303 1303 1303 1303 1303 1303 1303 1303 1302 1302 1302 1302 1302 1302 1301 1301 1301 1301 1301 1301 1301 1300 1300 1300 1299 1299 1298 1298 1297 1297 1297 1297 1297 1297 1298 1298 1298 1299 1300 1300 1301 1302 1308 0 0 0 0 1717 1742 1761 1763 1766 1767 1767 1767 1767 1768 1768 1768 1766 1765 1764 1762 1760 1758 1755 1753 1751 1749 1746 1743 1740 1737 1736 1734 1733 1731 1730 1729 1728 1728 1728 1728 1728 1728 1730 1731 1734 1736 1739 1741 1744 1748 1752 1755 1759 1761 1764 1767 1769 1772 1775 1777 1779 1780 1782 1784 1785 1785 1785 1785 1785 1785 1785 1784 1784 1783 1783 1782 1781 1780 1779 1778 1777 1776 1775 1774 1773 1772 1770 1769 1768 1766 1766 1764 1763 1762 1761 1760 1760 1758 1758 1757 1756 1754 1754 1753 1752 1752 1751 1749 1748 1747 1746 1746 1745 1745 1744 1744 1743 1743 1742 1742 1742 1742 1742 1742 1742 1742 1741 1741 1741 1740 1739 1739 1738 1737 1737 1737 1737 1737 1737 1737 1737 1737 1737 1738 1738 1739 1739 1739 1740 1741 1741 1742 1743 1744 1745 1748 1750 1752 1753 1754 1758 1764 1774 1792 1812 1835 1854 1861 1863 1864 1864 1864 1864 1864 1864 1864 1863 1861 1859 1857 1855 1854 1853 1852 1850 1848 1846 1845 1843 1842 1841 1839 1837 1836 1834 1832 1829 1827 1824 1820 1818 1815 1812 1811 1809 1808 1805 1802 1799 1796 1794 1791 1790 1790 1790 1790 1790 1791 1793 1794 1795 1795 1795 1792 1786 1780 1766 1758 1753 1753 1750 0 0 0 0 0 0 0 0 0 0 0 0 0 0 0 0 0 0 0 0 0 0 0
1938 1938 1944 1954 1960 1988 2011 2021 2033 2052 2073 2086 2098 2109 2118 2120 2124 2131 2134 2152 2184 2208 2230 2248 2267 2277 2282 2288 2296 2304 2315 2321 2340 2357 2370 2379 2385 2395 2403 2403 2403 2401 2395 2395 2394 2392 2392 2371 2329 2279 2247 2228 2222 2199 0 0 0 0 0 1350 1345 1344 1343 1343 1343 1343 1343 1343 1341 1339 1339 1339 1338 1338 1337 1337 1336 1336 1335 1335 1335 1335 1335 1335 1335 1335 1335 1334 1333 1333 1332 1332 1332 1332 1331 1332 1332 1331 1332 1332 1332 1331 1332 1332 1331 1332 1332 1331 1331 1331 1331 1331 1331 1331 1331 1332 1332 1332 1332 1332 1332 1333 1333 1333 1334 1334 1334 1334 1334 1334 1334 1334 1333 1333 1332 1331 1331 1329 1329 1328 1328 1327 1326 1326 1325 1325 1324 1323 1323 1323 1323 1323 1324 1324 1324 1324 1324 1324 1324 1324 1325 1325 1325 1326 1326 1326 1326 1327 1327 1327 1327 1327 1327 1327 1327 1327 1326 1326 1326 1326 1326 1325 1325 1325 1324 1324 1324 1323 1323 1323 1322 1321 1321 1321 1321 1320 1320 1319 1319 1319 1319 1319 1319 1319 1319 1319 1318 1318 1317 1316 1316 1316 1316 1315 1315 1316 1316 1316 1316 1316 1317 1317 1317 1317 1318 1318 1318 1319 1319 1319 1319 1319 1319 1319 1319 1318 1318 1318 1317 1317 1316 1315 1315 1315 1314 1314 1313 1312 1312 1312 1311 1310 1309 1309 1308 1308 1307 1307 1307 1307 1307 1307 1307 1307 1306 1305 1305 1305 1305 1306 1306 1307 1307 1307 1308 1308 1309 1309 1310 1310 1310 1310 1310 1309 1309 1309 1308 1308 1307 1307 1307 1306 1306 1306 1306 1305 1305 1305 1305 1305 1304 1303 1303 1302 1301 1301 1300 1300 1299 1299 1298 1297 1297 1296 1296 1296 1295 1295 1295 1295 1294 1294 1295 1295 1295 1295 1296 1296 1297 1297 1298 1298 1298 1298 1299 1299 1299 1300 1300 1301 1301 1302 1302 1303 1303 1303 1303 1303 1303 1303 1303 1302 1302 1302 1302 1301 1301 1301 1301 1301 1301 1301 1300 1300 1300 1300 1299 1299 1299 1298 1298 1297 1297 1297 1297 1297 1297 1297 1297 1298 1299 1299 1300 1301 1302 1308 0 0 0 0 1725 1742 1761 1763 1765 1766 1767 1767 1767 1767 1767 1767 1766 1765 1764 1762 1760 1758 1755 1753 1751 1748 1746 1743 1740 1737 1736 1734 1732 1730 1729 1727 1726 1726 1726 1726 1726 1726 1727 1729 1731 1733 1736 1738 1741 1746 1751 1754 1757 1761 1763 1767 1769 1771 1773 1776 1777 1779 1782 1783 1783 1784 1784 1784 1784 1784 1784 1784 1784 1783 1782 1781 1780 1780 1779 1777 1777 1776 1775 1774 1773 1772 1770 1769 1768 1767 1766 1764 1764 1762 1761 1760 1760 1759 1758 1757 1757 1754 1754 1753 1753 1752 1751 1750 1749 1748 1747 1747 1746 1745 1744 1744 1743 1743 1742 1742 1742 1742 1742 1742 1742 1742 1741 1741 1740 1739 1739 1739 1738 1737 1737 1736 1736 1736 1736 1737 1737 1737 1737 1738 1738 1739 1739 1739 1740 1741 1742 1743 1743 1744 1746 1748 1750 1752 1752 1753 1755 1763 1774 1796 1815 1837 1854 1862 1864 1864 1864 1864 1864 1864 1864 1864 1863 1861 1860 1858 1855 1854 1853 1852 1850 1848 1846 1845 1843 1842 1841 1839 1837 1836 1833 1831 1829 1827 1824 1820 1818 1815 1812 1810 1808 1806 1804 1801 1799 1796 1794 1791 1788 1788 1788 1789 1790 1791 1793 1794 1795 1795 1795 1792 1787 1782 1771 1761 1753 1753 1750 1724 0 0 0 0 0 0 0 0 0 0 0 0 0 0 0 0 0 0 0 0 0 0
1943 1943 1948 1954 1971 1999 2021 2031 2042 2061 2081 2092 2101 2118 2133 2135 2139 2151 2163 2182 2203 2224 2241 2251 2267 2277 2282 2290 2300 2309 2315 2325 2340 2357 2372 2383 2392 2401 2405 2406 2406 2406 2404 2404 2403 2403 2403 2382 2347 2301 2269 2261 2236 0 0 0 0 0 0 1352 1352 1345 1344 1344 1343 1343 1343 1342 1341 1339 1339 1338 1338 1337 1337 1336 1335 1335 1335 1335 1335 1335 1335 1335 1335 1335 1334 1334 1332 1332 1332 1331 1331 1331 1331 1331 1331 1331 1331 1331 1331 1331 1331 1331 1331 1330 1330 1330 1330 1330 1330 1331 1331 1331 1331 1331 1332 1332 1332 1332 1332 1333 1333 1333 1334 1334 1334 1334 1334 1334 1334 1333 1333 1333 1332 1331 1330 1329 1329 1327 1326 1325 1325 1324 1324 1323 1323 1322 1322 1322 1322 1322 1323 1323 1323 1322 1322 1322 1322 1323 1324 1324 1325 1325 1325 1325 1326 1327 1327 1327 1327 1327 1327 1327 1327 1327 1326 1326 1326 1326 1326 1325 1325 1324 1324 1324 1324 1323 1322 1322 1322 1321 1321 1321 1321 1320 1319 1319 1318 1318 1318 1318 1317 1317 1316 1315 1315 1315 1314 1314 1314 1313 1313 1313 1313 1314 1314 1314 1314 1315 1315 1316 1316 1317 1317 1317 1318 1318 1318 1318 1319 1319 1319 1319 1319 1318 1318 1317 1317 1316 1316 1315 1315 1315 1314 1313 1313 1312 1311 1311 1310 1309 1309 1308 1307 1306 1306 1305 1305 1305 1305 1305 1305 1305 1305 1305 1305 1305 1305 1305 1305 1305 1305 1307 1307 1307 1308 1308 1309 1309 1309 1309 1309 1309 1309 1309 1308 1308 1307 1307 1307 1306 1306 1306 1306 1305 1305 1305 1305 1304 1304 1303 1302 1302 1301 1299 1299 1298 1297 1297 1296 1296 1296 1295 1295 1293 1293 1293 1293 1293 1293 1293 1293 1293 1293 1293 1294 1296 1296 1297 1297 1297 1298 1298 1299 1299 1299 1300 1300 1300 1301 1302 1302 1302 1303 1303 1303 1303 1303 1303 1303 1302 1302 1301 1301 1301 1301 1301 1301 1300 1300 1300 1300 1300 1300 1299 1299 1299 1298 1298 1297 1297 1297 1297 1297 1297 1297 1297 1297 1298 1299 1299 1299 1300 1302 1307 0 0 0 0 1728 1742 1758 1762 1765 1766 1767 1767 1767 1767 1767 1767 1766 1765 1764 1762 1760 1758 1756 1753 1751 1748 1746 1743 1740 1737 1736 1734 1731 1730 1728 1727 1726 1726 1725 1725 1725 1725 1726 1727 1729 1732 1734 1737 1740 1743 1748 1753 1756 1759 1763 1766 1769 1770 1773 1774 1776 1779 1782 1783 1783 1784 1784 1784 1784 1784 1784 1784 1784 1783 1781 1781 1780 1779 1777 1777 1776 1776 1775 1774 1773 1772 1771 1769 1768 1767 1766 1765 1764 1762 1761 1760 1760 1760 1758 1758 1757 1756 1755 1753 1753 1752 1751 1750 1749 1748 1748 1747 1746 1745 1744 1744 1743 1743 1742 1742 1742 1742 1742 1742 1742 1742 1741 1741 1740 1739 1738 1738 1737 1737 1736 1736 1736 1736 1736 1736 1737 1737 1737 1738 1739 1739 1739 1740 1740 1741 1742 1743 1743 1744 1746 1749 1750 1752 1752 1752 1754 1763 1774 1798 1818 1838 1855 1862 1865 1865 1865 1865 1864 1864 1864 1864 1863 1861 1860 1859 1856 1855 1853 1852 1850 1849 1846 1845 1843 1842 1841 1838 1837 1835 1833 1831 1829 1826 1824 1820 1818 1815 1812 1810 1807 1806 1803 1800 1799 1796 1794 1790 1788 1788 1788 1789 1790 1791 1793 1794 1795 1795 1795 1794 1787 1783 1776 1767 1757 1755 1753 1729 0 0 0 0 0 0 0 0 0 0 0 0 0 0 0 0 0 0 0 0 0 0
1944 1944 1949 1957 1974 2003 2025 2039 2047 2061 2086 2101 2115 2119 2137 2151 2160 2172 2190 2201 2212 2229 2247 2259 2269 2277 2285 2296 2305 2311 2323 2333 2345 2358 2372 2385 2395 2408 2416 2422 2422 2422 2420 2419 2417 2416 2408 2382 2347 2311 2295 2276 2246 0 0 0 0 0 0 1354 1353 1347 1345 1345 1343 1343 1342 1342 1340 1339 1338 1338 1337 1337 1336 1336 1335 1335 1334 1334 1334 1334 1334 1334 1334 1334 1334 1333 1332 1332 1332 1330 1330 1329 1329 1329 1329 1329 1329 1329 1329 1329 1329 1329 1329 1329 1328 1328 1328 1329 1329 1331 1331 1331 1331 1331 1332 1332 1332 1332 1333 1333 1333 1333 1333 1334 1334 1334 1334 1333 1333 1333 1333 1332 1331 1330 1329 1329 1328 1326 1324 1324 1324 1323 1322 1322 1321 1320 1320 1320 1321 1321 1321 1321 1321 1320 1320 1320 1321 1321 1322 1322 1323 1323 1323 1325 1325 1326 1327 1327 1327 1327 1327 1327 1326 1326 1326 1326 1326 1326 1326 1325 1325 1324 1324 1323 1323 1323 1322 1321 1321 1321 1320 1320 1320 1319 1319 1318 1317 1316 1315 1315 1315 1315 1315 1313 1312 1312 1312 1312 1312 1311 1311 1311 1311 1311 1311 1311 1311 1311 1313 1314 1315 1315 1316 1317 1317 1318 1318 1318 1319 1319 1319 1319 1319 1318 1318 1317 1317 1316 1316 1315 1315 1315 1314 1313 1312 1312 1311 1310 1310 1309 1309 1308 1307 1306 1305 1305 1305 1304 1304 1304 1303 1303 1303 1303 1303 1303 1303 1303 1303 1303 1305 1306 1307 1307 1308 1308 1308 1309 1309 1309 1309 1309 1308 1308 1308 1308 1307 1307 1307 1306 1306 1305 1305 1305 1305 1305 1304 1303 1303 1303 1301 1301 1301 1298 1296 1296 1295 1294 1294 1293 1292 1291 1291 1290 1290 1290 1290 1290 1290 1290 1290 1290 1290 1290 1292 1292 1293 1293 1295 1295 1297 1297 1298 1299 1299 1299 1300 1300 1301 1302 1302 1302 1302 1302 1303 1303 1302 1302 1302 1302 1302 1301 1301 1301 1301 1300 1300 1300 1300 1300 1300 1300 1299 1299 1299 1299 1298 1298 1297 1297 1297 1297 1297 1297 1297 1297 1297 1298 1299 1299 1299 1300 1301 1305 0 0 0 0 1728 1747 1758 1762 1765 1766 1767 1767 1767 1767 1767 1767 1766 1765 1763 1762 1760 1758 1756 1754 1751 1748 1746 1743 1740 1738 1735 1733 1731 1729 1728 1726 1725 1725 1724 1724 1725 1725 1726 1726 1727 1730 1733 1736 1738 1741 1746 1751 1755 1758 1761 1763 1767 1770 1772 1774 1775 1778 1781 1782 1783 1783 1783 1783 1784 1784 1783 1783 1783 1782 1781 1781 1780 1779 1777 1777 1776 1776 1775 1774 1773 1772 1771 1770 1768 1768 1766 1765 1764 1763 1761 1761 1760 1760 1759 1758 1757 1756 1756 1755 1754 1753 1752 1751 1750 1749 1748 1747 1746 1745 1745 1744 1743 1743 1743 1742 1742 1742 1742 1742 1742 1742 1741 1741 1740 1739 1738 1738 1737 1737 1736 1736 1736 1736 1736 1736 1736 1737 1738 1738 1739 1739 1740 1740 1740 1742 1742 1743 1744 1745 1747 1749 1750 1752 1752 1753 1754 1764 1777 1801 1818 1839 1855 1862 1865 1865 1865 1865 1865 1865 1864 1863 1863 1861 1860 1859 1857 1855 1854 1852 1850 1849 1847 1845 1843 1842 1841 1838 1837 1834 1832 1830 1829 1826 1824 1820 1818 1815 1812 1810 1807 1806 1803 1800 1798 1796 1794 1790 1788 1788 1788 1789 1790 1792 1794 1795 1796 1796 1796 1794 1787 1784 1780 1773 1767 1755 1755 1730 0 0 0 0 0 0 0 0 0 0 0 0 0 0 0 0 0 0 0 0 0 0
1959 1959 1969 1972 1986 2011 2030 2041 2049 2062 2086 2103 2117 2130 2144 2155 2167 2188 2202 2211 2221 2235 2253 2265 2272 2278 2290 2302 2320 2324 2338 2342 2349 2367 2381 2396 2406 2420 2426 2435 2435 2435 2431 2430 2429 2425 2408 2384 2347 2318 2308 2294 2248 0 0 0 0 0 0 1354 1353 1347 1347 1345 1343 1342 1342 1341 1340 1339 1338 1338 1337 1337 1336 1336 1335 1335 1334 1333 1333 1333 1334 1334 1334 1333 1332 1331 1331 1331 1331 1329 1328 1328 1327 1327 1327 1328 1328 1328 1328 1328 1327 1327 1327 1326 1326 1326 1326 1326 1329 1330 1331 1331 1331 1331 1332 1332 1332 1332 1333 1333 1333 1333 1333 1333 1333 1333 1333 1333 1333 1333 1332 1332 1331 1330 1329 1328 1326 1325 1324 1323 1323 1322 1320 1318 1316 1316 1316 1318 1318 1318 1318 1318 1318 1318 1319 1319 1319 1319 1319 1320 1320 1321 1323 1324 1325 1326 1326 1326 1326 1327 1327 1326 1326 1326 1326 1326 1326 1326 1326 1325 1325 1324 1324 1323 1323 1323 1322 1321 1320 1320 1320 1319 1319 1318 1318 1317 1316 1314 1314 1314 1313 1313 1313 1312 1312 1311 1309 1309 1309 1309 1309 1309 1310 1310 1310 1310 1310 1311 1312 1313 1314 1315 1316 1316 1317 1317 1318 1318 1318 1318 1318 1318 1318 1318 1318 1317 1316 1316 1316 1315 1315 1314 1314 1313 1312 1312 1311 1310 1310 1309 1307 1305 1304 1303 1303 1302 1302 1302 1301 1301 1300 1300 1300 1300 1300 1299 1299 1298 1298 1298 1300 1303 1303 1303 1307 1307 1307 1309 1309 1309 1309 1309 1308 1308 1308 1308 1307 1307 1306 1306 1306 1306 1305 1305 1305 1305 1304 1303 1303 1302 1300 1300 1299 1298 1296 1295 1294 1293 1292 1292 1291 1289 1289 1289 1288 1287 1287 1287 1288 1288 1288 1289 1289 1290 1290 1291 1292 1293 1294 1294 1296 1297 1297 1298 1298 1299 1299 1300 1301 1301 1302 1302 1302 1302 1302 1302 1302 1302 1302 1301 1301 1301 1301 1301 1300 1300 1300 1300 1300 1300 1300 1299 1299 1299 1299 1299 1298 1298 1298 1297 1297 1297 1297 1297 1297 1297 1297 1297 1298 1298 1299 1300 1301 1305 0 0 0 0 1729 1747 1755 1762 1765 1765 1767 1767 1767 1767 1767 1766 1766 1764 1762 1760 1759 1758 1756 1754 1751 1748 1746 1743 1740 1738 1735 1733 1731 1729 1727 1726 1725 1724 1724 1724 1724 1725 1725 1725 1726 1729 1731 1734 1737 1740 1744 1749 1753 1757 1760 1763 1766 1769 1771 1772 1774 1777 1779 1781 1782 1782 1783 1783 1783 1783 1783 1783 1783 1782 1781 1780 1780 1778 1777 1776 1776 1775 1775 1774 1773 1772 1771 1770 1769 1768 1767 1766 1765 1764 1763 1761 1761 1760 1760 1759 1758 1757 1756 1755 1754 1753 1752 1751 1750 1750 1748 1748 1746 1745 1745 1744 1744 1743 1743 1742 1742 1742 1742 1742 1742 1741 1741 1741 1740 1739 1738 1738 1737 1737 1736 1736 1736 1736 1736 1736 1736 1737 1738 1739 1739 1740 1740 1741 1741 1742 1742 1743 1745 1747 1748 1749 1751 1752 1752 1753 1754 1764 1779 1807 1821 1841 1857 1863 1865 1865 1865 1865 1865 1865 1864 1863 1862 1861 1860 1859 1857 1855 1854 1853 1851 1849 1848 1845 1843 1842 1840 1838 1836 1834 1831 1830 1828 1826 1823 1820 1818 1815 1812 1810 1807 1806 1802 1800 1798 1796 1794 1790 1789 1789 1789 1790 1794 1795 1797 1797 1798 1799 1799 1799 1792 1784 1782 1775 1769 1762 1755 1734 0 0 0 0 0 0 0 0 0 0 0 0 0 0 0 0 0 0 0 0 0 0
1986 1986 1988 1995 2009 2025 2035 2042 2049 2062 2086 2103 2117 2130 2146 2155 2174 2195 2208 2219 2231 2247 2261 2274 2279 2286 2294 2311 2324 2333 2346 2354 2364 2376 2392 2411 2422 2431 2435 2435 2435 2435 2431 2430 2429 2425 2410 2384 2348 2322 2311 2297 2261 0 0 0 0 0 1391 1377 1353 1349 1347 1345 1343 1342 1341 1341 1340 1339 1338 1337 1337 1337 1336 1336 1335 1334 1333 1332 1332 1332 1332 1332 1330 1330 1330 1330 1330 1330 1329 1329 1325 1325 1325 1326 1326 1327 1327 1327 1327 1327 1326 1326 1325 1325 1325 1325 1325 1326 1326 1328 1330 1330 1331 1331 1331 1332 1332 1332 1332 1333 1333 1333 1333 1333 1333 1333 1333 1333 1333 1333 1331 1331 1331 1330 1329 1328 1325 1324 1322 1322 1320 1317 1315 1314 1314 1313 1313 1312 1313 1313 1313 1314 1314 1315 1316 1316 1316 1315 1315 1315 1317 1319 1321 1323 1324 1325 1325 1325 1326 1326 1326 1326 1326 1326 1326 1326 1326 1326 1325 1325 1325 1324 1324 1323 1323 1322 1321 1321 1320 1319 1319 1317 1317 1317 1315 1315 1314 1313 1313 1312 1310 1310 1309 1309 1308 1307 1305 1304 1303 1303 1304 1305 1306 1306 1306 1306 1306 1309 1311 1312 1313 1314 1315 1316 1317 1317 1317 1318 1318 1318 1318 1318 1318 1318 1317 1317 1316 1316 1316 1315 1315 1314 1313 1313 1312 1312 1311 1310 1308 1308 1305 1303 1301 1300 1298 1297 1296 1296 1296 1295 1295 1295 1294 1294 1294 1294 1294 1296 1297 1297 1297 1297 1297 1298 1303 1306 1307 1308 1308 1308 1308 1308 1308 1308 1308 1308 1307 1307 1306 1306 1306 1305 1305 1305 1305 1304 1304 1303 1302 1301 1300 1299 1298 1298 1296 1294 1292 1291 1290 1290 1288 1288 1287 1286 1286 1285 1285 1285 1285 1286 1286 1287 1287 1288 1289 1291 1292 1293 1293 1293 1295 1296 1297 1298 1298 1298 1299 1300 1301 1301 1302 1302 1302 1302 1302 1302 1302 1302 1302 1301 1301 1301 1300 1300 1300 1300 1300 1300 1300 1299 1299 1299 1299 1299 1298 1298 1298 1298 1298 1297 1297 1296 1296 1296 1296 1296 1297 1297 1297 1298 1299 1300 1301 1305 0 0 0 0 1729 1747 1755 1763 1764 1765 1766 1767 1767 1767 1766 1766 1766 1764 1762 1760 1759 1757 1755 1753 1751 1748 1746 1743 1740 1738 1735 1732 1730 1729 1727 1726 1725 1724 1724 1724 1724 1724 1724 1724 1725 1727 1730 1732 1736 1739 1741 1746 1752 1756 1759 1762 1764 1767 1769 1770 1773 1775 1778 1780 1781 1781 1782 1782 1783 1783 1783 1783 1782 1781 1780 1779 1779 1778 1777 1776 1775 1775 1774 1773 1773 1772 1771 1770 1769 1768 1767 1767 1766 1765 1764 1763 1762 1761 1760 1759 1759 1757 1757 1755 1754 1753 1753 1752 1751 1750 1748 1748 1747 1746 1746 1744 1744 1744 1743 1743 1742 1742 1742 1742 1742 1741 1741 1740 1740 1739 1738 1738 1737 1737 1736 1736 1736 1736 1736 1736 1737 1737 1739 1739 1739 1740 1741 1741 1742 1742 1743 1744 1746 1747 1749 1751 1751 1752 1753 1754 1757 1766 1780 1808 1821 1845 1859 1864 1865 1865 1866 1866 1866 1866 1865 1863 1862 1861 1860 1859 1858 1857 1855 1854 1851 1850 1848 1845 1843 1842 1840 1837 1836 1833 1831 1829 1827 1825 1823 1820 1818 1815 1812 1810 1807 1806 1802 1800 1799 1796 1794 1792 1792 1792 1792 1792 1794 1796 1798 1798 1799 1800 1800 1800 1795 1789 1783 1777 1771 1766 1755 1740 1734 0 0 0 0 0 0 0 0 0 0 0 0 0 0 0 0 0 0 0 0 0
1986 1986 2010 2024 2035 2041 2042 2042 2047 2059 2082 2103 2117 2131 2146 2155 2174 2196 2213 2224 2251 2282 2288 2288 2290 2297 2307 2318 2324 2333 2346 2360 2371 2383 2401 2421 2438 2440 2441 2441 2441 2435 2434 2432 2432 2426 2411 2384 2350 2325 2325 2320 2279 0 0 0 0 0 1391 1377 1354 1349 1347 1343 1341 1341 1341 1341 1339 1338 1338 1337 1337 1336 1336 1336 1335 1334 1333 1332 1332 1331 1331 1329 1326 1326 1326 1327 1329 1329 1329 1328 1323 1323 1323 1323 1323 1324 1324 1324 1324 1322 1322 1322 1322 1322 1322 1322 1322 1323 1325 1326 1328 1330 1330 1331 1331 1332 1332 1332 1332 1333 1333 1333 1333 1333 1332 1332 1332 1332 1332 1332 1331 1331 1331 1330 1329 1327 1325 1322 1317 1314 1313 1311 1309 1309 1309 1307 1303 1303 1303 1303 1302 1303 1305 1312 1314 1314 1314 1313 1313 1313 1314 1317 1321 1323 1323 1324 1324 1325 1325 1326 1326 1326 1326 1326 1326 1326 1326 1325 1325 1325 1325 1324 1324 1323 1322 1321 1320 1319 1319 1317 1317 1317 1316 1312 1312 1312 1312 1310 1308 1306 1305 1305 1304 1303 1299 1296 1293 1293 1293 1294 1294 1294 1294 1294 1294 1298 1301 1306 1307 1309 1312 1314 1315 1316 1316 1317 1317 1318 1318 1318 1318 1318 1318 1318 1317 1317 1316 1316 1316 1315 1315 1314 1313 1312 1312 1312 1310 1310 1308 1304 1303 1301 1300 1299 1297 1295 1295 1294 1293 1292 1292 1292 1292 1292 1292 1292 1293 1294 1297 1297 1297 1297 1297 1298 1302 1304 1305 1306 1308 1308 1308 1308 1308 1308 1308 1308 1307 1307 1306 1306 1306 1306 1305 1305 1305 1304 1304 1303 1302 1301 1299 1298 1298 1297 1293 1291 1289 1288 1288 1287 1287 1286 1284 1284 1284 1283 1283 1283 1284 1285 1286 1287 1287 1288 1288 1290 1291 1292 1292 1293 1294 1295 1296 1297 1297 1298 1299 1300 1301 1301 1302 1302 1302 1302 1302 1302 1302 1302 1301 1301 1301 1301 1300 1300 1300 1300 1300 1299 1299 1299 1299 1299 1299 1298 1298 1298 1298 1298 1297 1297 1296 1296 1296 1296 1296 1296 1297 1297 1297 1298 1299 1300 1302 1306 0 0 0 0 1729 1747 1755 1763 1764 1765 1765 1765 1766 1766 1766 1766 1765 1764 1762 1760 1759 1757 1755 1753 1751 1749 1746 1743 1740 1738 1735 1732 1730 1729 1727 1726 1724 1724 1723 1723 1723 1723 1723 1724 1724 1725 1728 1731 1735 1738 1739 1744 1750 1755 1757 1761 1762 1765 1768 1770 1772 1774 1777 1780 1780 1780 1781 1782 1782 1782 1782 1782 1782 1780 1780 1779 1778 1778 1777 1776 1775 1774 1774 1773 1772 1772 1771 1770 1769 1769 1768 1767 1766 1765 1764 1763 1762 1761 1760 1759 1759 1758 1757 1756 1755 1753 1753 1752 1751 1750 1749 1748 1747 1746 1746 1744 1744 1744 1743 1743 1743 1743 1742 1741 1741 1741 1741 1740 1739 1739 1738 1738 1737 1737 1736 1736 1736 1736 1736 1737 1737 1737 1739 1739 1739 1740 1741 1741 1742 1742 1744 1745 1747 1748 1749 1751 1752 1753 1754 1758 1759 1768 1785 1809 1822 1846 1859 1864 1867 1867 1868 1868 1867 1867 1866 1863 1863 1862 1860 1860 1859 1858 1855 1854 1852 1850 1848 1845 1843 1842 1840 1838 1836 1833 1831 1829 1827 1825 1823 1820 1818 1815 1812 1811 1808 1806 1802 1800 1799 1796 1794 1792 1792 1792 1792 1792 1794 1796 1798 1799 1799 1800 1800 1800 1798 1789 1787 1779 1773 1770 1760 1740 1734 0 0 0 0 0 0 0 0 0 0 0 0 0 0 0 0 0 0 0 0 0
