967 970 978 989 1000 1007 1011 1020 1031 1042 1051 1056 1062 1066 1070 1077 1088 1099 1111 1120 1125 1130 1138 1147 1159 1174 1185 1191 1194 1198 1201 1203 1207 1213 1224 1234 1237 1251 1258 1261 1265 1270 1278 1282 1283 1296 1296 1296 1295 1295 1295 1297 1302 1303 1316 1319 1320 1325 1325 1336 1336 1336 0 0 0 0 0 0 0 0 0 0 0 0 0 0 0 0 1107 1109 1154 1178 1186 1187 1188 1189 1190 1190 1191 1191 1191 1191 1191 1191 1191 1191 1191 1190 1187 1185 1182 1175 0 0 0 0 0 0 0 0 0 0 0 0 0 0 0 0 0 0 0 0 0 0 0 0 0 0 0 1133 1149 1157 1183 1183 1183 1180 1179 1173 1173 1173 1175 1175 1176 1176 1175 1171 1171 1171 1171 1178 1178 1179 1179 1181 1181 1181 1181 1178 1168 1157 1149 1124 1091 1085 1081 1076 1073 1072 1072 1072 1072 1072 1072 1070 1066 1066 1066 1071 1075 1077 1080 1081 1084 1089 1091 1098 1115 1132 1153 1164 1170 1175 1177 1179 1179 1179 1180 1183 1184 1186 1187 1187 1188 1188 1188 1188 1188 1188 1188 1188 1188 1187 1187 1187 1186 1186 1186 1182 1174 1162 1144 1132 1129 1124 1123 1123 1123 1125 1125 1126 1127 1128 1129 1130 1130 1130 1131 1135 1138 1140 1141 1143 1144 1147 1148 1152 1161 1167 1175 1182 1188 1189 1191 1192 1194 1195 1195 1195 1195 1195 1195 1195 1195 1195 1195 1195 1196 1196 1196 1196 1196 1194 1194 1193 1192 1191 1190 1188 1185 1181 1177 1171 1163 1161 1161 1160 1160 1160 1160 1160 1158 1158 1158 1158 1158 1158 1158 1158 1158 1160 1162 1162 1165 1167 1170 1173 1176 1181 1185 1189 1192 1193 1195 1196 1198 1200 1200 1201 1201 1201 1201 1202 1202 1202 1203 1203 1204 1208 1208 1208 1210 1222 1241 0 0 0 0 1842 1857 1865 1869 1872 1877 1883 1889 1893 1897 1907 1916 1923 1930 1935 1941 1941 1941 1940 1938 1938 1938 1937 1937 1935 1932 1928 1924 1920 1917 1914 1912 1909 1905 1901 1899 1896 1893 1890 1887 1884 1881 1877 1874 1871 1868 1865 1861 1859 1855 1852 1849 1846 1843 1842 1839 1837 1834 1831 1829 1827 1823 1821 1818 1815 1812 1809 1806 1803 1800 1797 1794 1790 1786 1782 1778 1773 1770 1768 1763 1758 1755 1751 1744 1733 1708 1692 1680 1668 1649 1641 1636 1631 1627 1624 1621 1620 1620 1618 1618 1618 1617 1616 1616 1616 1618 1621 1621 1623 1627 1630 1632 1636 1638 1642 1645 1647 1648 1650 1652 1653 1654 1655 1655 1655 1656 1656 1656 1657 1657 1657 1658 1658 1658 1658 1657 1657 1656 1656 1656 1656 1655 1655 1655 1654 1653 1653 1652 1651 1649 1648 1647 1645 1644 1642 1641 1640 1639 1638 1637 1635 1634 1633 1632 1631 1630 1629 1628 1626 1626 1624 1623 1622 1621 1620 1618 1617 1615 1614 1613 1612 1609 1609 1607 1606 1605 1604 1603 1603 1602 1602 1601 1601 1601 1602 1602 1603 1604 1606 1607 1609 1611 1614 1616 1619 1623 1626 1629 1631 1634 1636 1638 1642 1644 1645 1645 1651 1668 1678 1683 1700 1723 1724 1735 1740 1741 1742 1742 1741 1734 1723 1708 1678 1664 1656 1644 1618 1603 1586 1572 1562 1555 1546 1534 1531 1521 1516 1513 1510 1501 1492 1488 1485 1483 1479 1476 1474 1470 1466 1461 1456 1453 1451 1449 1447 1447 1444 1442 1439 1433 1429 1426 1423 1419 1416 1413 1408 1405 1402 1398 1396 1393 1392 1389 1382 1372 1368 1363 1360 1357 0
968 971 981 993 1002 1009 1015 1023 1034 1043 1052 1058 1066 1070 1071 1077 1089 1100 1115 1120 1125 1131 1142 1153 1162 1175 1185 1194 1206 1211 1214 1220 1224 1229 1235 1241 1245 1251 1264 1272 1277 1282 1287 1291 1296 1299 1299 1300 1301 1303 1319 1327 1327 1328 1334 1334 1334 1345 1372 1372 1377 1378 1377 0 0 0 0 0 0 0 0 0 0 0 0 0 0 0 0 1110 1154 1179 1187 1187 1188 1189 1190 1190 1191 1191 1191 1191 1191 1191 1190 1190 1189 1186 1184 1182 1174 1156 0 0 0 0 0 0 0 0 0 0 0 0 0 0 0 0 1031 1031 1031 1031 1034 1043 1045 1047 1049 0 0 1133 1166 1183 1191 1191 1191 1189 1186 1185 1185 1186 1186 1186 1186 1185 1180 1178 1178 1178 1180 1182 1183 1185 1187 1187 1188 1188 1188 1181 1170 1157 1141 1112 1083 1077 1071 1066 1064 1063 1063 1063 1063 1063 1063 1063 1063 1063 1064 1068 1070 1072 1073 1075 1079 1083 1091 1098 1113 1130 1157 1169 1172 1176 1178 1179 1180 1182 1183 1186 1187 1188 1188 1189 1189 1190 1190 1190 1191 1191 1191 1191 1191 1189 1189 1189 1188 1184 1181 1180 1170 1157 1140 1126 1123 1120 1120 1120 1120 1120 1121 1123 1125 1126 1126 1127 1127 1128 1128 1131 1132 1134 1135 1136 1136 1140 1145 1150 1159 1167 1175 1183 1188 1190 1192 1194 1196 1196 1196 1196 1196 1197 1197 1197 1197 1197 1197 1197 1197 1197 1197 1197 1196 1195 1194 1194 1192 1191 1189 1188 1185 1180 1174 1166 1162 1160 1160 1159 1159 1158 1157 1157 1156 1156 1156 1155 1155 1155 1155 1155 1155 1156 1158 1159 1160 1162 1166 1170 1176 1181 1185 1188 1190 1193 1195 1196 1197 1199 1200 1201 1201 1201 1201 1202 1202 1202 1203 1203 1204 1208 1208 1208 1208 1222 1241 0 0 0 0 1834 1855 1860 1861 1869 1875 1880 1884 1885 1891 1898 1906 1914 1923 1927 1933 1937 1937 1937 1935 1935 1934 1933 1933 1931 1928 1924 1921 1917 1915 1911 1909 1907 1904 1901 1899 1894 1892 1890 1886 1884 1880 1876 1873 1870 1867 1864 1861 1857 1853 1851 1848 1845 1843 1839 1837 1835 1833 1829 1827 1825 1823 1820 1817 1813 1809 1807 1804 1801 1798 1795 1792 1789 1786 1782 1778 1773 1770 1768 1764 1761 1757 1752 1747 1741 1730 1706 1691 1681 1665 1647 1638 1633 1629 1626 1622 1621 1619 1618 1617 1617 1616 1615 1615 1615 1615 1617 1617 1619 1621 1625 1629 1632 1634 1638 1641 1642 1644 1646 1647 1650 1651 1651 1652 1653 1654 1654 1655 1655 1655 1655 1656 1656 1656 1656 1656 1656 1655 1655 1654 1654 1654 1654 1653 1653 1652 1651 1650 1650 1648 1648 1647 1645 1644 1642 1641 1640 1639 1638 1636 1635 1634 1633 1632 1630 1630 1628 1627 1626 1625 1624 1623 1622 1621 1619 1618 1616 1614 1613 1612 1611 1609 1608 1607 1605 1604 1603 1603 1602 1601 1601 1601 1601 1601 1601 1602 1603 1604 1606 1608 1609 1612 1614 1616 1620 1624 1626 1629 1633 1635 1636 1638 1639 1640 1643 1645 1651 1660 1673 1676 1684 1701 1722 1723 1734 1735 1735 1734 1733 1722 1710 1698 1668 1652 1639 1619 1606 1589 1574 1560 1546 1538 1531 1521 1517 1509 1504 1498 1494 1491 1485 1479 1477 1472 1472 1472 1471 1468 1463 1458 1454 1450 1448 1444 1443 1441 1440 1439 1436 1433 1429 1426 1422 1419 1416 1412 1408 1404 1401 1398 1394 1393 1392 1390 1387 1378 1374 1373 1363 1363 0
969 974 986 998 1006 1013 1018 1025 1035 1045 1052 1059 1067 1071 1074 1079 1089 1105 1115 1128 1132 1142 1151 1157 1168 1178 1189 1198 1207 1218 1226 1230 1233 1236 1236 1244 1246 1257 1267 1272 1278 1284 1292 1295 1297 1310 1313 1314 1316 1320 1324 1328 1341 1362 1373 1376 1387 1392 1393 1393 1396 1398 1398 1398 1402 1402 1398 0 0 0 0 0 0 0 0 0 0 0 0 0 1170 1182 1188 1191 1191 1191 1190 1190 1190 1190 1190 1190 1190 1190 1189 1188 1187 1185 1182 1179 1164 0 0 0 1029 1027 1020 1015 1015 1015 1017 1017 1017 1012 1012 1012 1012 1016 1021 1025 1027 1029 1032 1032 1034 1035 1042 1063 0 1136 1166 1183 1191 1191 1191 1189 1186 1186 1186 1186 1186 1186 1186 1186 1186 1185 1185 1185 1185 1187 1188 1188 1188 1188 1188 1188 1188 1181 1170 1156 1135 1103 1072 1061 1056 1056 1056 1055 1053 1053 1053 1054 1055 1056 1057 1059 1061 1064 1066 1066 1069 1075 1079 1083 1090 1098 1112 1130 1157 1169 1172 1176 1178 1180 1183 1184 1186 1188 1189 1189 1190 1190 1190 1191 1192 1192 1192 1192 1192 1192 1192 1191 1190 1189 1187 1183 1180 1176 1170 1157 1140 1123 1119 1117 1117 1117 1118 1118 1118 1120 1123 1123 1124 1125 1125 1125 1126 1127 1129 1130 1131 1132 1136 1140 1145 1150 1159 1167 1175 1183 1188 1191 1193 1195 1196 1197 1197 1197 1198 1198 1198 1198 1198 1198 1198 1198 1198 1198 1198 1198 1197 1196 1195 1194 1192 1191 1189 1188 1185 1180 1174 1166 1161 1159 1158 1157 1157 1156 1155 1154 1154 1154 1154 1154 1154 1154 1153 1153 1153 1154 1155 1157 1157 1160 1163 1166 1172 1178 1183 1187 1189 1192 1194 1196 1197 1199 1200 1200 1201 1201 1201 1201 1202 1202 1202 1203 1204 1207 1208 1208 1208 1220 1235 0 0 0 0 1833 1854 1858 1858 1864 1870 1874 1876 1878 1883 1890 1897 1905 1913 1920 1924 1930 1933 1933 1933 1931 1931 1930 1930 1928 1926 1921 1918 1915 1912 1910 1907 1905 1902 1900 1896 1892 1890 1888 1885 1883 1879 1876 1873 1869 1866 1862 1858 1854 1851 1849 1847 1844 1841 1837 1835 1832 1830 1828 1825 1823 1820 1818 1815 1811 1808 1806 1802 1799 1796 1793 1790 1787 1785 1781 1777 1773 1770 1768 1764 1761 1758 1753 1747 1743 1737 1731 1707 1691 1682 1665 1644 1634 1629 1627 1624 1621 1620 1617 1616 1615 1614 1614 1613 1613 1614 1614 1615 1616 1618 1621 1624 1627 1631 1633 1636 1637 1639 1641 1644 1646 1646 1648 1648 1649 1651 1652 1654 1654 1654 1654 1655 1655 1655 1654 1654 1654 1654 1654 1653 1653 1652 1652 1652 1652 1652 1651 1650 1649 1648 1647 1645 1644 1643 1642 1640 1640 1639 1637 1635 1635 1634 1632 1632 1630 1629 1628 1626 1626 1624 1623 1621 1621 1620 1619 1617 1616 1614 1612 1611 1610 1609 1607 1606 1605 1603 1603 1602 1601 1601 1601 1600 1600 1601 1601 1602 1603 1604 1606 1608 1609 1612 1615 1619 1621 1624 1627 1630 1633 1635 1636 1638 1639 1640 1643 1645 1651 1658 1665 1671 1676 1686 1705 1706 1719 1721 1722 1722 1721 1711 1701 1691 1665 1633 1610 1601 1591 1579 1559 1541 1533 1528 1521 1512 1508 1505 1498 1492 1489 1483 1477 1475 1471 1467 1464 1462 1460 1458 1455 1453 1452 1448 1445 1442 1439 1437 1437 1435 1434 1430 1427 1422 1419 1418 1415 1412 1406 1402 1399 1396 1394 1393 1393 1391 1387 1380 1376 1373 1370 1363 0
972 978 991 1002 1012 1019 1024 1031 1040 1048 1057 1062 1067 1072 1077 1085 1096 1106 1117 1134 1138 1149 1156 1163 1173 1180 1193 1210 1219 1226 1231 1235 1236 1237 1241 1247 1251 1262 1269 1277 1282 1288 1292 1298 1302 1310 1314 1316 1320 1331 1342 1350 1357 1367 1382 1385 1396 1406 1413 1413 1413 1409 1409 1409 1409 1428 1429 1430 1430 1430 1430 1429 0 0 0 0 0 0 0 0 1195 1192 1191 1191 1191 1191 1190 1190 1190 1190 1190 1190 1189 1188 1188 1187 1186 1184 1181 1176 1156 0 0 1022 1017 1016 1014 1012 1012 1012 1013 1013 1013 1011 1010 1008 1008 1008 1010 1014 1020 1021 1022 1022 1023 1024 1042 1063 0 1136 1166 1183 1191 1191 1191 1189 1187 1187 1187 1186 1187 1187 1187 1187 1187 1187 1187 1187 1187 1188 1188 1188 1188 1188 1188 1188 1188 1181 1170 1154 1126 1086 1058 1051 1049 1048 1048 1048 1045 1045 1045 1045 1048 1049 1052 1055 1058 1060 1063 1066 1069 1075 1079 1083 1089 1098 1111 1130 1157 1170 1174 1177 1179 1182 1184 1186 1188 1190 1191 1191 1192 1192 1192 1192 1192 1192 1193 1193 1193 1193 1192 1191 1190 1189 1187 1183 1180 1176 1170 1157 1140 1123 1118 1115 1115 1115 1117 1117 1117 1118 1120 1122 1122 1122 1122 1122 1124 1126 1126 1127 1129 1132 1136 1140 1145 1150 1159 1167 1176 1184 1189 1192 1193 1195 1196 1197 1198 1198 1198 1198 1198 1198 1198 1198 1199 1199 1199 1199 1199 1198 1197 1197 1195 1194 1192 1191 1189 1188 1184 1180 1172 1166 1160 1158 1157 1155 1154 1154 1153 1153 1152 1152 1152 1152 1152 1151 1151 1151 1151 1152 1153 1155 1157 1159 1161 1165 1169 1175 1181 1185 1188 1192 1194 1196 1197 1199 1199 1200 1200 1200 1201 1201 1202 1203 1203 1204 1204 1206 1208 1208 1209 1219 1226 0 0 0 0 0 1854 1855 1857 1858 1864 1865 1867 1871 1877 1881 1887 1895 1902 1907 1913 1920 1927 1930 1930 1930 1928 1927 1926 1926 1924 1920 1916 1912 1909 1906 1905 1903 1900 1896 1893 1891 1887 1885 1883 1879 1877 1874 1871 1868 1864 1860 1856 1853 1850 1847 1843 1840 1837 1834 1832 1830 1828 1826 1824 1821 1817 1815 1813 1810 1805 1802 1800 1797 1795 1792 1789 1786 1784 1781 1777 1773 1770 1766 1764 1761 1758 1754 1748 1743 1738 1731 1717 1701 1689 1679 1656 1637 1630 1628 1625 1622 1620 1617 1616 1614 1612 1612 1612 1611 1611 1612 1612 1612 1614 1616 1619 1620 1624 1626 1629 1632 1634 1636 1639 1642 1642 1642 1644 1645 1647 1650 1651 1652 1652 1652 1652 1653 1653 1653 1652 1652 1652 1652 1652 1651 1651 1651 1651 1651 1651 1649 1649 1648 1647 1646 1645 1644 1643 1641 1640 1638 1638 1636 1635 1634 1634 1632 1631 1629 1629 1627 1626 1624 1623 1622 1621 1620 1619 1618 1617 1615 1613 1612 1610 1610 1608 1607 1606 1604 1603 1602 1601 1600 1600 1600 1600 1600 1600 1600 1601 1602 1604 1607 1609 1610 1612 1616 1619 1622 1624 1628 1632 1635 1635 1637 1638 1639 1640 1643 1646 1647 1653 1656 1667 1671 1674 1684 1685 1694 1707 1710 1710 1710 1703 1695 1683 1655 1616 1589 1579 1569 1556 1544 1530 1522 1512 1510 1507 1499 1497 1489 1483 1480 1476 1473 1468 1464 1460 1457 1455 1455 1452 1451 1448 1447 1445 1443 1441 1436 1433 1431 1431 1429 1427 1422 1419 1416 1415 1415 1411 1406 1401 1399 1396 1395 1394 1393 1391 1387 1380 1376 1373 1370 1363 0
978 984 998 1010 1019 1024 1030 1038 1048 1058 1066 1074 1078 1081 1087 1094 1104 1114 1127 1136 1140 1151 1158 1169 1177 1189 1198 1216 1223 1233 1239 1242 1243 1244 1248 1254 1257 1265 1271 1278 1285 1290 1297 1300 1306 1310 1314 1318 1323 1333 1342 1352 1363 1389 1396 1401 1409 1417 1417 1417 1418 1418 1422 1426 1428 1430 1441 1444 1447 1452 1452 1452 1428 1428 0 0 0 0 0 0 1208 1196 1193 1193 1191 1191 1191 1190 1190 1190 1190 1189 1188 1188 1187 1185 1185 1184 1178 1170 1153 0 0 1013 1013 1012 1011 1010 1009 1008 1008 1008 1008 1008 1006 1005 1005 1005 1006 1011 1013 1013 1015 1016 1019 1021 1042 1064 1100 1139 1165 1178 1185 1190 1190 1190 1187 1187 1187 1187 1187 1187 1188 1188 1188 1187 1187 1187 1188 1188 1188 1188 1188 1188 1188 1188 1187 1181 1169 1151 1125 1080 1048 1046 1045 1045 1042 1041 1040 1040 1040 1040 1040 1043 1048 1052 1054 1057 1061 1066 1068 1072 1079 1084 1088 1098 1111 1130 1155 1170 1178 1182 1182 1182 1184 1187 1190 1191 1192 1193 1193 1193 1193 1193 1193 1193 1194 1194 1194 1193 1192 1191 1190 1189 1187 1182 1179 1175 1170 1157 1140 1123 1118 1114 1114 1114 1115 1116 1116 1116 1119 1120 1120 1120 1121 1121 1122 1123 1125 1127 1129 1132 1135 1140 1145 1151 1159 1168 1176 1185 1190 1193 1194 1196 1197 1198 1198 1198 1199 1199 1200 1200 1200 1200 1200 1200 1200 1199 1199 1198 1198 1197 1195 1194 1192 1192 1189 1187 1184 1179 1172 1166 1159 1157 1156 1155 1153 1153 1152 1152 1152 1152 1151 1150 1149 1149 1149 1149 1149 1149 1152 1154 1156 1158 1160 1163 1167 1174 1179 1185 1188 1192 1194 1196 1197 1199 1199 1199 1200 1200 1201 1201 1202 1203 1204 1204 1204 1206 1207 1207 1213 1218 1226 0 0 0 0 0 1831 1845 1850 1854 1856 1857 1858 1863 1871 1875 1880 1884 1892 1897 1905 1912 1918 1924 1924 1924 1924 1924 1923 1922 1920 1917 1914 1910 1907 1904 1901 1898 1897 1894 1892 1888 1885 1883 1880 1877 1874 1871 1868 1865 1861 1858 1855 1852 1848 1845 1841 1838 1835 1832 1830 1828 1825 1823 1821 1818 1816 1813 1811 1808 1804 1802 1799 1795 1793 1790 1787 1784 1782 1779 1776 1773 1769 1766 1763 1761 1758 1754 1750 1745 1739 1732 1723 1714 1701 1689 1678 1655 1636 1630 1627 1623 1620 1617 1616 1614 1612 1611 1609 1609 1609 1610 1610 1610 1611 1612 1615 1617 1619 1620 1623 1625 1630 1632 1634 1637 1637 1638 1640 1642 1644 1647 1649 1649 1649 1650 1650 1650 1650 1650 1650 1650 1650 1650 1650 1650 1650 1650 1650 1650 1649 1649 1647 1647 1646 1645 1644 1643 1642 1640 1639 1638 1637 1636 1635 1634 1632 1631 1630 1629 1628 1627 1625 1624 1623 1621 1620 1619 1618 1617 1616 1615 1613 1612 1610 1609 1607 1606 1605 1604 1603 1602 1601 1600 1600 1599 1599 1599 1599 1600 1600 1602 1604 1607 1609 1610 1613 1617 1620 1622 1626 1629 1632 1635 1635 1637 1639 1640 1641 1643 1647 1647 1652 1655 1658 1662 1662 1663 1664 1667 1690 1695 1695 1695 1690 1682 1675 1652 1597 1568 1557 1552 1547 1533 1518 1512 1509 1507 1504 1496 1493 1485 1479 1475 1471 1467 1462 1458 1456 1454 1451 1451 1448 1446 1444 1443 1441 1439 1436 1432 1429 1427 1426 1424 1421 1418 1416 1415 1414 1412 1411 1405 1401 1398 1396 1395 1394 1393 1391 1386 1380 1377 1373 1370 1362 0
984 991 1002 1015 1025 1032 1037 1047 1055 1066 1075 1083 1089 1091 1096 1103 1110 1119 1128 1139 1142 1152 1160 1170 1184 1193 1206 1216 1224 1234 1241 1243 1249 1252 1255 1261 1265 1272 1277 1284 1289 1295 1299 1303 1306 1310 1315 1319 1326 1337 1350 1366 1379 1392 1399 1405 1411 1425 1429 1430 1430 1430 1430 1430 1443 1452 1460 1464 1464 1464 1462 1459 1454 1450 1422 1412 1384 0 0 0 0 1205 1193 1193 1192 1192 1191 1191 1190 1190 1189 1189 1188 1187 1187 1185 1184 1182 1176 1165 1151 0 0 1007 1004 1003 1003 1001 1001 1001 1001 1001 1001 1001 1001 1001 1001 1001 1002 1004 1010 1010 1010 1013 1019 1021 1042 1073 1103 1139 1165 1178 1185 1189 1189 1189 1188 1188 1188 1187 1187 1188 1188 1188 1188 1188 1189 1189 1189 1189 1189 1189 1189 1188 1187 1185 1185 1181 1169 1151 1121 1078 1045 1045 1045 1043 1042 1040 1040 1039 1039 1039 1039 1041 1045 1049 1052 1056 1059 1063 1068 1072 1079 1084 1088 1097 1111 1131 1155 1170 1178 1182 1184 1185 1185 1188 1191 1192 1193 1193 1194 1194 1194 1195 1195 1195 1195 1194 1194 1194 1193 1191 1190 1188 1185 1181 1177 1174 1169 1157 1140 1125 1117 1113 1113 1113 1114 1115 1115 1116 1116 1118 1118 1119 1120 1121 1122 1123 1125 1127 1129 1131 1135 1140 1144 1151 1159 1168 1176 1185 1190 1193 1194 1196 1197 1198 1198 1199 1200 1200 1200 1200 1200 1200 1200 1200 1200 1199 1199 1198 1198 1197 1196 1195 1192 1191 1189 1187 1183 1178 1172 1166 1159 1157 1155 1153 1152 1152 1151 1150 1149 1149 1149 1149 1149 1148 1148 1148 1148 1149 1151 1152 1155 1156 1159 1163 1167 1172 1179 1184 1188 1191 1194 1196 1197 1198 1199 1199 1200 1200 1200 1201 1202 1203 1204 1204 1205 1205 1207 1207 1213 1218 1226 0 0 0 0 0 1825 1837 1841 1845 1845 1850 1852 1855 1860 1867 1871 1874 1881 1889 1897 1904 1908 1914 1919 1919 1919 1918 1918 1918 1916 1913 1910 1907 1903 1901 1898 1896 1896 1894 1891 1888 1884 1881 1878 1873 1870 1868 1866 1863 1859 1855 1851 1849 1846 1844 1839 1836 1832 1830 1828 1825 1823 1821 1818 1815 1814 1811 1808 1805 1801 1799 1795 1793 1790 1787 1784 1783 1781 1778 1775 1772 1769 1766 1762 1760 1758 1754 1750 1745 1739 1734 1726 1720 1712 1702 1691 1683 1658 1639 1630 1627 1622 1619 1617 1614 1612 1611 1609 1608 1608 1608 1608 1608 1609 1609 1611 1613 1615 1616 1618 1620 1623 1626 1631 1633 1634 1635 1637 1639 1641 1643 1645 1647 1647 1648 1648 1648 1648 1649 1649 1649 1649 1649 1648 1648 1648 1648 1648 1648 1648 1647 1647 1646 1645 1644 1643 1642 1640 1640 1638 1637 1637 1635 1634 1633 1632 1631 1629 1629 1627 1626 1625 1623 1622 1621 1619 1618 1618 1616 1615 1614 1613 1611 1610 1609 1607 1606 1605 1604 1603 1602 1601 1600 1600 1599 1599 1599 1599 1600 1600 1602 1604 1607 1609 1611 1613 1617 1620 1622 1626 1629 1633 1635 1636 1638 1639 1640 1642 1646 1647 1647 1651 1651 1651 1651 1651 1651 1652 1652 1653 1663 1675 1675 1675 1664 1651 1627 1580 1549 1539 1531 1522 1514 1508 1506 1504 1502 1497 1490 1488 1481 1477 1473 1469 1465 1459 1455 1453 1451 1447 1445 1442 1442 1441 1440 1437 1433 1431 1426 1424 1422 1420 1417 1415 1414 1413 1412 1409 1408 1408 1403 1400 1397 1395 1395 1394 1393 1391 1386 1380 1377 1375 1368 1362 0
988 996 1006 1018 1029 1040 1046 1054 1063 1073 1082 1090 1098 1104 1107 1110 1118 1127 1135 1142 1145 1154 1164 1176 1187 1199 1209 1216 1225 1236 1242 1247 1250 1253 1258 1268 1272 1276 1284 1290 1297 1300 1304 1304 1306 1310 1316 1321 1327 1339 1355 1369 1380 1394 1400 1408 1416 1425 1431 1433 1434 1435 1436 1442 1447 1455 1461 1465 1468 1469 1469 1469 1463 1458 1449 1432 1405 1368 0 0 0 1207 1193 1193 1192 1191 1191 1191 1190 1190 1189 1188 1187 1187 1186 1185 1184 1182 1174 1165 1149 0 0 1006 1003 1003 1002 1001 1001 999 998 997 997 997 998 998 999 1000 1001 1004 1006 1009 1010 1013 1019 1029 1048 1073 1103 1135 1163 1178 1185 1189 1190 1190 1190 1190 1189 1189 1189 1189 1189 1190 1190 1190 1190 1190 1190 1190 1190 1189 1189 1188 1187 1185 1185 1181 1169 1151 1120 1077 1045 1045 1044 1041 1041 1040 1039 1039 1039 1039 1039 1041 1043 1047 1049 1052 1052 1057 1063 1071 1079 1084 1088 1097 1113 1135 1155 1170 1179 1183 1185 1185 1187 1189 1191 1192 1194 1194 1195 1195 1195 1195 1195 1195 1195 1195 1194 1194 1193 1191 1190 1188 1185 1181 1175 1173 1169 1156 1140 1125 1116 1113 1113 1113 1114 1114 1114 1115 1115 1116 1117 1118 1120 1121 1122 1123 1125 1127 1129 1132 1135 1139 1144 1151 1159 1168 1176 1185 1190 1193 1194 1196 1197 1198 1199 1200 1200 1200 1201 1201 1201 1200 1200 1200 1200 1199 1199 1198 1198 1197 1196 1195 1193 1191 1189 1187 1183 1178 1172 1166 1159 1157 1154 1151 1150 1150 1150 1149 1149 1148 1148 1148 1148 1148 1148 1148 1148 1149 1151 1152 1153 1155 1158 1161 1167 1172 1178 1184 1188 1191 1194 1196 1197 1198 1198 1199 1199 1200 1200 1201 1202 1203 1204 1204 1205 1205 1207 1207 1213 1217 1230 0 0 0 0 0 1825 1837 1837 1838 1841 1842 1847 1847 1852 1857 1861 1865 1871 1879 1887 1895 1900 1905 1912 1913 1913 1913 1913 1913 1912 1911 1907 1904 1901 1898 1895 1895 1893 1892 1890 1886 1882 1879 1875 1871 1866 1863 1862 1860 1856 1852 1849 1845 1843 1841 1837 1832 1830 1828 1826 1823 1820 1817 1814 1812 1810 1807 1804 1801 1799 1795 1793 1790 1788 1785 1783 1781 1779 1778 1775 1772 1768 1765 1762 1759 1757 1753 1750 1746 1739 1734 1730 1727 1721 1711 1701 1691 1680 1663 1643 1632 1626 1621 1619 1615 1613 1611 1609 1608 1607 1607 1607 1607 1607 1607 1608 1610 1612 1613 1614 1617 1620 1623 1626 1630 1632 1633 1634 1636 1638 1641 1643 1644 1645 1645 1645 1645 1645 1646 1646 1646 1646 1646 1646 1647 1647 1646 1646 1646 1646 1645 1645 1644 1644 1643 1642 1640 1640 1638 1637 1637 1636 1635 1633 1632 1631 1630 1629 1627 1627 1626 1624 1623 1622 1621 1619 1618 1618 1616 1615 1614 1612 1611 1609 1608 1606 1605 1605 1603 1602 1602 1601 1600 1599 1599 1599 1599 1599 1600 1600 1601 1604 1606 1609 1611 1613 1617 1620 1623 1626 1630 1633 1635 1636 1639 1640 1642 1644 1647 1647 1647 1647 1647 1647 1647 1646 1646 1644 1637 1637 1637 1641 1643 1643 1643 1615 1570 1545 1529 1523 1519 1515 1509 1501 1496 1494 1490 1487 1483 1480 1476 1471 1466 1463 1461 1458 1455 1453 1450 1447 1444 1440 1436 1433 1431 1429 1428 1426 1424 1421 1419 1415 1412 1410 1407 1406 1405 1404 1404 1403 1399 1396 1394 1393 1393 1393 1392 1390 1385 1380 1377 1375 1368 1362 0
989 998 1009 1021 1033 1041 1047 1057 1070 1077 1084 1090 1098 1104 1109 1114 1122 1132 1141 1148 1153 1160 1171 1183 1196 1206 1213 1219 1225 1237 1244 1250 1254 1259 1264 1271 1275 1280 1287 1293 1299 1306 1307 1308 1309 1314 1320 1326 1333 1343 1356 1371 1383 1396 1401 1408 1418 1426 1431 1435 1440 1445 1448 1451 1454 1468 1474 1474 1477 1482 1482 1482 1479 1468 1462 1444 1415 1377 0 0 0 1212 1196 1192 1192 1191 1191 1191 1190 1190 1189 1188 1186 1186 1184 1183 1182 1180 1174 1164 1148 0 0 1002 998 997 996 996 996 996 993 990 990 990 991 992 994 996 1000 1002 1006 1008 1009 1014 1023 1032 1048 1073 1103 1134 1162 1179 1185 1188 1189 1190 1190 1190 1191 1191 1191 1191 1191 1191 1191 1190 1190 1190 1190 1190 1190 1189 1189 1188 1187 1185 1185 1181 1170 1151 1116 1072 1044 1042 1042 1040 1039 1039 1039 1039 1039 1039 1039 1041 1043 1045 1048 1050 1052 1057 1061 1066 1074 1079 1085 1094 1113 1142 1158 1170 1180 1184 1185 1187 1189 1191 1192 1193 1194 1195 1195 1195 1195 1195 1195 1195 1195 1195 1194 1194 1193 1192 1189 1188 1185 1181 1175 1172 1169 1156 1140 1125 1115 1113 1113 1113 1113 1113 1114 1114 1114 1115 1117 1118 1119 1121 1122 1123 1125 1127 1129 1132 1135 1139 1143 1150 1158 1166 1175 1183 1187 1191 1194 1196 1197 1198 1199 1200 1200 1200 1201 1201 1201 1200 1200 1200 1200 1199 1199 1198 1198 1197 1195 1195 1193 1191 1189 1186 1183 1178 1172 1166 1159 1156 1153 1151 1150 1149 1149 1148 1148 1148 1148 1148 1148 1148 1148 1148 1148 1149 1150 1152 1153 1155 1157 1160 1166 1172 1178 1183 1187 1189 1192 1195 1197 1197 1198 1198 1199 1200 1200 1200 1202 1203 1203 1204 1204 1205 1207 1207 1210 1215 1230 1255 0 0 0 0 1825 1837 1837 1837 1837 1837 1839 1839 1842 1847 1853 1855 1860 1867 1877 1886 1893 1898 1903 1908 1908 1909 1908 1908 1907 1907 1903 1900 1897 1896 1893 1891 1890 1888 1886 1883 1880 1877 1872 1869 1864 1860 1858 1855 1852 1849 1844 1841 1839 1836 1833 1829 1826 1824 1823 1820 1818 1814 1811 1809 1806 1803 1800 1797 1794 1792 1790 1787 1786 1783 1782 1780 1778 1776 1773 1770 1766 1763 1761 1759 1756 1753 1750 1746 1743 1738 1735 1731 1726 1717 1708 1700 1691 1680 1659 1642 1631 1625 1620 1616 1614 1611 1611 1609 1607 1606 1605 1605 1605 1605 1605 1608 1610 1611 1613 1615 1617 1620 1623 1626 1628 1630 1632 1634 1636 1637 1640 1642 1642 1642 1642 1642 1642 1643 1644 1644 1644 1644 1644 1644 1644 1644 1644 1644 1644 1644 1644 1643 1643 1641 1641 1640 1639 1638 1636 1636 1635 1634 1633 1632 1630 1629 1628 1627 1626 1625 1624 1623 1621 1620 1619 1618 1616 1615 1614 1612 1612 1610 1609 1607 1606 1605 1604 1603 1602 1602 1601 1600 1599 1598 1598 1598 1598 1599 1600 1601 1603 1605 1608 1611 1613 1617 1620 1623 1627 1630 1633 1635 1637 1640 1641 1643 1646 1646 1647 1647 1647 1646 1645 1645 1644 1644 1642 1634 1626 1619 1619 1617 1616 1600 1564 1540 1529 1523 1516 1511 1502 1495 1491 1487 1482 1475 1472 1472 1468 1468 1465 1460 1456 1452 1449 1449 1447 1447 1444 1441 1437 1432 1429 1426 1424 1423 1421 1421 1418 1414 1408 1407 1404 1403 1402 1400 1399 1398 1396 1395 1392 1390 1388 1388 1388 1388 1388 1382 1380 1377 1376 1368 1367 0
990 999 1011 1024 1037 1042 1050 1061 1070 1078 1084 1090 1098 1104 1110 1117 1126 1138 1148 1155 1159 1167 1177 1189 1201 1210 1217 1225 1233 1241 1247 1252 1256 1263 1270 1274 1279 1285 1293 1299 1305 1308 1309 1310 1312 1319 1324 1330 1336 1350 1362 1375 1385 1397 1402 1410 1421 1429 1433 1436 1445 1451 1457 1461 1464 1472 1479 1483 1484 1485 1485 1484 1484 1477 1474 1453 1420 1380 0 0 0 1214 1197 1191 1191 1191 1191 1191 1190 1189 1188 1187 1185 1185 1183 1182 1181 1180 1174 1164 1146 0 0 994 989 989 989 989 989 989 989 985 982 982 982 987 989 992 995 1000 1003 1005 1009 1014 1023 1032 1048 1071 1092 1132 1162 1179 1186 1187 1189 1191 1191 1192 1192 1192 1192 1192 1192 1192 1192 1192 1192 1192 1191 1191 1190 1189 1189 1188 1187 1186 1184 1181 1171 1152 0 1066 1043 1041 1040 1038 1038 1038 1039 1039 1039 1039 1039 1041 1042 1045 1048 1050 1052 1057 1061 1065 1071 1077 1084 1094 1115 1142 1161 1173 1180 1184 1187 1189 1189 1191 1192 1194 1195 1196 1196 1196 1196 1196 1196 1195 1195 1195 1194 1194 1193 1192 1190 1188 1185 1181 1175 1172 1168 1156 1138 1122 1114 1112 1111 1111 1111 1112 1113 1113 1114 1115 1116 1118 1120 1121 1122 1123 1124 1127 1129 1133 1135 1139 1143 1148 1156 1164 1175 1183 1187 1190 1194 1196 1197 1198 1199 1200 1200 1200 1200 1200 1200 1200 1200 1200 1200 1199 1199 1198 1197 1196 1195 1194 1192 1190 1189 1185 1182 1178 1172 1165 1158 1155 1153 1151 1150 1149 1148 1148 1148 1148 1148 1148 1148 1148 1148 1148 1148 1149 1150 1151 1152 1154 1156 1160 1166 1173 1178 1183 1187 1189 1192 1195 1196 1197 1198 1198 1199 1199 1200 1200 1201 1202 1203 1204 1204 1205 1207 1207 1210 1213 1230 1255 0 0 0 0 1835 1837 1837 1837 1831 1831 1831 1831 1834 1837 1845 1847 1849 1855 1867 1875 1882 1889 1893 1896 1903 1903 1903 1903 1903 1901 1899 1896 1895 1893 1890 1887 1886 1883 1881 1878 1875 1872 1869 1866 1861 1857 1854 1851 1849 1845 1842 1837 1834 1832 1829 1826 1823 1822 1819 1817 1814 1812 1809 1806 1803 1800 1798 1794 1792 1790 1788 1784 1782 1781 1779 1777 1775 1772 1769 1767 1765 1763 1760 1759 1755 1751 1749 1746 1743 1739 1735 1731 1727 1721 1715 1708 1699 1687 1672 1648 1635 1627 1625 1621 1616 1614 1611 1609 1608 1607 1605 1605 1605 1605 1605 1605 1607 1608 1609 1611 1613 1615 1617 1621 1625 1625 1627 1630 1633 1636 1636 1639 1639 1639 1639 1639 1639 1640 1640 1640 1641 1642 1642 1642 1642 1643 1643 1643 1643 1643 1643 1642 1641 1641 1640 1639 1639 1638 1636 1635 1634 1633 1632 1631 1630 1629 1628 1627 1626 1624 1624 1623 1621 1620 1619 1617 1616 1615 1613 1612 1611 1609 1608 1606 1605 1605 1604 1602 1602 1601 1600 1600 1598 1597 1597 1597 1597 1598 1599 1600 1602 1604 1606 1609 1613 1616 1620 1623 1627 1630 1633 1635 1637 1640 1643 1646 1646 1646 1646 1646 1645 1643 1642 1642 1640 1640 1640 1634 1622 1606 1592 1586 1573 1554 1534 1527 1521 1516 1509 1500 1495 1493 1489 1484 1479 1473 1471 1467 1464 1460 1456 1452 1448 1447 1445 1444 1443 1441 1438 1436 1433 1428 1425 1422 1421 1420 1417 1414 1413 1411 1408 1404 1402 1402 1401 1400 1397 1393 1391 1388 1386 1384 1382 1380 1379 1379 1377 1377 1377 1377 1376 1368 1367 0
990 999 1011 1024 1039 1045 1056 1064 1073 1078 1084 1090 1098 1105 1110 1120 1131 1143 1154 1161 1166 1175 1184 1194 1203 1212 1219 1227 1238 1246 1252 1256 1260 1267 1274 1278 1285 1290 1298 1304 1309 1311 1315 1316 1318 1321 1325 1331 1338 1350 1368 1380 1390 1398 1402 1413 1422 1430 1437 1443 1447 1452 1458 1464 1473 1479 1485 1487 1487 1488 1488 1487 1484 1482 1475 1462 1427 1383 0 0 0 1215 1197 1191 1190 1190 1190 1190 1190 1189 1188 1187 1185 1185 1183 1182 1181 1180 1173 1164 1146 0 0 982 982 982 985 987 987 987 987 984 981 981 981 981 984 985 989 996 999 1001 1006 1014 1023 1032 1045 1057 1092 1132 1162 1179 1186 1187 1189 1191 1193 1193 1193 1193 1193 1193 1193 1193 1193 1193 1192 1192 1191 1191 1190 1189 1189 1187 1187 1186 1183 1181 1172 1155 0 0 1038 1035 1034 1034 1034 1035 1035 1039 1039 1039 1039 1041 1043 1045 1048 1050 1053 1057 1061 1064 1069 1076 1084 1094 1113 1142 1161 1173 1180 1185 1188 1189 1190 1192 1194 1194 1195 1196 1196 1196 1196 1196 1196 1195 1195 1195 1194 1193 1193 1191 1189 1187 1184 1181 1177 1172 1166 1153 1135 1118 1113 1111 1111 1111 1111 1112 1113 1113 1114 1115 1116 1118 1120 1121 1122 1123 1124 1127 1129 1134 1138 1141 1143 1148 1154 1164 1175 1183 1187 1190 1194 1195 1196 1197 1199 1199 1199 1200 1200 1200 1200 1200 1200 1200 1200 1199 1198 1198 1197 1196 1195 1194 1192 1190 1188 1185 1181 1177 1172 1164 1156 1154 1153 1151 1150 1148 1148 1148 1148 1147 1147 1147 1147 1148 1148 1148 1148 1149 1149 1151 1151 1154 1156 1160 1166 1173 1178 1183 1186 1189 1192 1194 1196 1197 1198 1198 1199 1199 1200 1200 1200 1202 1203 1204 1204 1205 1207 1208 1210 1213 1229 1252 0 0 0 0 1862 1862 1862 1852 1828 1826 1823 1823 1826 1828 1835 1838 1839 1842 1852 1862 1869 1877 1880 1886 1891 1898 1900 1900 1900 1897 1897 1895 1892 1890 1887 1884 1881 1879 1876 1873 1870 1867 1864 1862 1858 1854 1850 1848 1845 1842 1838 1834 1831 1828 1826 1823 1820 1818 1816 1813 1810 1809 1806 1803 1800 1798 1795 1791 1789 1787 1784 1782 1779 1777 1775 1773 1771 1770 1766 1764 1762 1760 1758 1755 1752 1750 1747 1746 1743 1739 1735 1731 1727 1723 1720 1715 1704 1693 1678 1662 1643 1632 1626 1624 1620 1615 1612 1610 1608 1607 1605 1605 1604 1604 1604 1604 1604 1604 1605 1606 1608 1610 1612 1615 1619 1620 1622 1624 1628 1632 1633 1634 1635 1636 1637 1637 1638 1638 1638 1638 1638 1640 1640 1640 1641 1641 1641 1641 1641 1641 1641 1640 1640 1640 1638 1638 1637 1636 1636 1634 1634 1632 1632 1631 1630 1628 1627 1626 1625 1624 1623 1622 1621 1619 1618 1617 1615 1614 1612 1610 1609 1608 1607 1606 1604 1603 1603 1602 1601 1601 1600 1599 1597 1597 1597 1596 1596 1596 1597 1599 1600 1601 1603 1607 1613 1616 1619 1623 1627 1630 1633 1635 1638 1641 1644 1646 1646 1646 1646 1645 1644 1640 1639 1636 1635 1635 1633 1628 1618 1601 1585 1566 1546 1533 1522 1513 1504 1497 1493 1492 1492 1492 1487 1480 1473 1471 1467 1465 1461 1457 1453 1449 1445 1441 1441 1439 1437 1435 1432 1430 1427 1424 1421 1419 1416 1413 1412 1412 1410 1409 1406 1402 1399 1397 1396 1395 1390 1387 1383 1380 1378 1377 1375 1373 1372 1368 1368 1368 1373 1373 1373 1368 1367 0
991 999 1011 1024 1039 1045 1057 1067 1074 1079 1084 1090 1098 1105 1113 1121 1131 1144 1156 1162 1172 1180 1186 1195 1203 1212 1219 1228 1239 1249 1254 1260 1265 1271 1278 1281 1287 1294 1299 1305 1311 1316 1317 1318 1319 1323 1330 1335 1342 1354 1368 1381 1392 1401 1405 1413 1425 1433 1440 1446 1452 1457 1461 1468 1475 1481 1485 1487 1488 1490 1491 1491 1491 1482 1476 1470 1437 1386 0 0 0 1216 1197 1191 1189 1189 1189 1189 1189 1189 1188 1187 1185 1185 1183 1182 1181 1179 1172 1163 1146 0 0 982 982 982 985 987 987 987 984 982 979 978 978 978 980 982 987 993 996 999 1005 1012 1020 1026 1035 1057 1092 1132 1162 1179 1187 1187 1189 1191 1193 1193 1193 1193 1194 1194 1194 1194 1193 1193 1193 1193 1192 1192 1191 1190 1189 1188 1187 1187 1183 1180 1172 1155 0 0 1031 1029 1029 1029 1030 1033 1035 1036 1037 1038 1039 1041 1043 1046 1050 1053 1055 1059 1061 1064 1068 1074 1084 1094 1113 1142 1161 1175 1183 1187 1188 1189 1191 1192 1194 1195 1195 1196 1196 1196 1196 1196 1196 1195 1195 1195 1194 1193 1193 1191 1189 1187 1184 1181 1178 1172 1166 1153 1134 1117 1112 1111 1111 1111 1111 1112 1113 1113 1114 1115 1116 1118 1120 1121 1123 1123 1125 1127 1130 1135 1140 1143 1145 1147 1153 1164 1175 1183 1188 1190 1194 1195 1196 1197 1198 1199 1199 1200 1200 1200 1200 1200 1200 1200 1199 1199 1198 1198 1197 1196 1195 1193 1192 1190 1188 1184 1181 1177 1172 1164 1156 1154 1153 1151 1150 1149 1148 1148 1147 1147 1147 1147 1147 1148 1148 1148 1149 1149 1149 1150 1151 1154 1156 1160 1166 1173 1178 1183 1186 1189 1192 1194 1196 1197 1197 1198 1198 1199 1200 1200 1200 1202 1203 1204 1204 1205 1207 1208 1210 1211 1226 1251 0 0 0 0 1871 1871 1871 1852 1826 1819 1818 1818 1818 1821 1825 1827 1830 1833 1841 1850 1857 1862 1867 1873 1879 1887 1894 1894 1894 1894 1892 1890 1888 1885 1883 1881 1878 1874 1872 1869 1867 1862 1861 1858 1855 1850 1846 1843 1840 1836 1832 1829 1826 1825 1822 1819 1816 1814 1812 1809 1806 1804 1802 1798 1796 1793 1790 1788 1786 1783 1781 1777 1775 1773 1771 1769 1767 1766 1763 1761 1759 1757 1755 1752 1749 1748 1745 1743 1742 1739 1734 1731 1727 1723 1720 1716 1709 1698 1687 1677 1657 1642 1630 1625 1621 1617 1614 1612 1609 1608 1606 1605 1604 1604 1603 1603 1603 1604 1604 1604 1605 1608 1610 1612 1614 1616 1618 1618 1621 1626 1629 1630 1632 1633 1633 1633 1634 1635 1635 1636 1636 1637 1637 1637 1638 1638 1639 1639 1639 1639 1639 1639 1638 1638 1637 1637 1636 1636 1634 1634 1634 1632 1631 1630 1629 1628 1626 1626 1625 1624 1623 1621 1620 1619 1617 1616 1614 1613 1612 1610 1609 1608 1606 1605 1604 1603 1602 1601 1600 1600 1599 1597 1597 1595 1595 1595 1595 1595 1595 1597 1598 1600 1602 1607 1612 1616 1619 1621 1626 1630 1633 1636 1638 1641 1644 1646 1646 1646 1644 1644 1640 1635 1633 1630 1629 1627 1622 1619 1605 1589 1570 1551 1535 1524 1515 1507 1496 1488 1487 1486 1486 1483 1476 1472 1467 1463 1461 1459 1456 1452 1449 1444 1439 1436 1435 1435 1433 1429 1426 1424 1422 1418 1416 1413 1412 1410 1408 1407 1407 1406 1405 1401 1396 1393 1391 1390 1387 1385 1383 1380 1377 1374 1372 1370 1367 1363 1363 1363 1368 1368 1368 1368 1364 0
992 999 1011 1025 1039 1045 1058 1068 1074 1079 1084 1090 1098 1106 1113 1122 1131 1144 1158 1163 1172 1180 1187 1195 1204 1213 1220 1229 1239 1249 1258 1265 1274 1277 1282 1285 1290 1295 1300 1306 1313 1319 1323 1324 1327 1328 1330 1336 1346 1359 1371 1383 1395 1405 1409 1416 1426 1436 1441 1447 1453 1460 1463 1469 1477 1482 1485 1487 1488 1490 1492 1492 1492 1485 1479 1474 1456 1395 0 0 0 1216 1197 1191 1189 1189 1189 1188 1188 1188 1188 1187 1186 1186 1185 1185 1183 1179 1172 1162 1146 0 0 982 982 982 985 985 985 984 981 979 978 978 978 978 979 982 986 991 995 998 1003 1012 1016 1021 1030 1054 1093 1132 1163 1179 1187 1188 1190 1192 1193 1193 1193 1194 1195 1195 1195 1194 1194 1194 1193 1193 1193 1192 1191 1190 1189 1188 1187 1187 1182 1177 1172 1155 0 0 1027 1027 1027 1027 1028 1033 1035 1036 1036 1037 1039 1041 1044 1047 1051 1053 1055 1059 1061 1064 1068 1074 1084 1095 1111 1142 1161 1176 1185 1187 1188 1189 1191 1192 1194 1195 1195 1196 1196 1196 1196 1196 1196 1195 1195 1195 1194 1193 1192 1191 1189 1187 1184 1181 1179 1173 1166 1152 1132 1114 1111 1111 1111 1111 1112 1112 1113 1113 1114 1115 1117 1118 1120 1121 1123 1123 1125 1127 1130 1135 1140 1143 1145 1147 1153 1164 1175 1183 1189 1192 1194 1195 1196 1197 1198 1199 1199 1200 1200 1200 1200 1200 1200 1199 1199 1198 1198 1197 1196 1196 1195 1193 1191 1189 1188 1184 1181 1176 1172 1164 1156 1154 1153 1151 1150 1149 1148 1148 1147 1147 1147 1147 1147 1148 1148 1149 1149 1149 1149 1150 1151 1154 1156 1160 1166 1171 1177 1183 1186 1189 1192 1194 1195 1196 1197 1197 1198 1199 1199 1200 1200 1202 1203 1203 1203 1204 1207 1209 1209 1210 1222 1250 0 0 0 0 1875 1875 1875 1852 1815 1813 1813 1813 1815 1816 1819 1820 1822 1828 1830 1837 1844 1851 1854 1861 1867 1874 1882 1887 1887 1887 1886 1883 1881 1879 1877 1875 1873 1871 1869 1867 1862 1860 1857 1854 1849 1845 1841 1837 1833 1830 1828 1824 1822 1819 1816 1814 1812 1809 1807 1804 1801 1798 1797 1795 1791 1789 1786 1783 1782 1780 1777 1774 1772 1770 1769 1767 1764 1762 1760 1758 1755 1753 1751 1750 1747 1745 1742 1740 1738 1736 1732 1728 1725 1723 1720 1716 1711 1703 1694 1684 1672 1654 1640 1630 1624 1618 1616 1614 1612 1608 1607 1605 1604 1603 1603 1603 1602 1602 1602 1602 1604 1605 1607 1608 1609 1612 1613 1615 1617 1620 1623 1626 1628 1628 1629 1630 1631 1632 1632 1632 1633 1633 1634 1635 1636 1636 1636 1636 1637 1637 1637 1637 1637 1637 1637 1635 1635 1635 1634 1633 1632 1631 1630 1630 1628 1628 1626 1626 1625 1624 1622 1621 1620 1618 1616 1616 1614 1613 1611 1609 1609 1607 1606 1605 1604 1602 1602 1601 1600 1599 1598 1597 1595 1595 1595 1595 1594 1594 1594 1595 1598 1599 1602 1607 1612 1616 1619 1621 1626 1630 1634 1636 1638 1640 1644 1645 1645 1645 1642 1638 1632 1628 1627 1625 1621 1614 1610 1603 1587 1568 1554 1537 1524 1515 1508 1498 1490 1484 1483 1477 1473 1470 1466 1462 1457 1453 1451 1447 1444 1442 1440 1438 1436 1433 1430 1428 1426 1425 1422 1420 1417 1413 1411 1409 1407 1407 1404 1403 1401 1398 1396 1394 1394 1391 1388 1385 1383 1381 1379 1377 1373 1371 1367 1367 1367 1361 1360 1360 1359 1359 1358 1357 1355 0
993 1000 1011 1025 1039 1045 1059 1069 1076 1082 1087 1093 1100 1108 1114 1122 1134 1146 1159 1163 1174 1181 1189 1197 1204 1213 1221 1230 1240 1251 1262 1269 1276 1282 1285 1288 1293 1296 1301 1307 1314 1322 1327 1331 1331 1332 1333 1340 1351 1363 1377 1388 1396 1407 1411 1420 1430 1440 1446 1450 1456 1461 1467 1472 1477 1482 1485 1487 1488 1490 1494 1494 1494 1488 1484 1479 1465 1406 0 0 0 1215 1197 1192 1189 1189 1189 1188 1188 1188 1188 1187 1187 1186 1186 1185 1183 1179 1173 1164 1146 0 0 980 979 978 979 979 978 978 978 977 977 977 977 978 979 982 986 989 992 996 1002 1008 1015 1018 1029 1053 1095 1132 1164 1179 1188 1189 1190 1192 1193 1193 1194 1194 1195 1195 1195 1195 1194 1194 1193 1193 1193 1192 1191 1191 1189 1189 1187 1186 1182 1176 1167 1150 0 0 1027 1027 1027 1027 1028 1033 1035 1036 1036 1037 1039 1042 1044 1048 1051 1053 1055 1059 1061 1064 1068 1074 1085 1096 1113 1140 1162 1178 1187 1188 1188 1189 1191 1193 1194 1195 1195 1195 1196 1196 1196 1196 1196 1195 1194 1194 1193 1193 1191 1190 1189 1186 1184 1181 1179 1173 1166 1152 1132 1114 1110 1110 1110 1111 1112 1112 1113 1114 1115 1116 1117 1119 1120 1121 1123 1124 1126 1128 1130 1135 1140 1144 1146 1147 1153 1165 1175 1184 1190 1192 1194 1195 1196 1197 1198 1199 1199 1199 1200 1200 1200 1200 1199 1199 1199 1198 1198 1197 1196 1196 1195 1193 1191 1189 1188 1184 1181 1176 1170 1164 1157 1154 1153 1152 1150 1149 1148 1148 1147 1147 1147 1147 1148 1148 1148 1149 1149 1150 1150 1150 1153 1154 1158 1161 1166 1171 1177 1183 1186 1189 1192 1194 1195 1196 1196 1197 1198 1198 1199 1199 1200 1202 1203 1203 1203 1204 1207 1209 1209 1210 1220 1248 0 0 0 0 1875 1875 1875 1811 1798 1798 1798 1811 1813 1815 1815 1818 1818 1822 1822 1825 1833 1838 1843 1849 1856 1862 1870 1878 1880 1880 1880 1877 1874 1872 1871 1869 1867 1866 1864 1861 1858 1856 1853 1848 1844 1839 1835 1831 1828 1825 1822 1819 1817 1814 1812 1809 1808 1805 1802 1798 1795 1793 1791 1789 1787 1785 1783 1780 1777 1775 1773 1771 1768 1767 1765 1763 1760 1758 1756 1754 1752 1750 1749 1747 1744 1742 1740 1738 1736 1733 1730 1727 1724 1723 1720 1716 1711 1706 1698 1689 1680 1669 1652 1638 1632 1626 1620 1617 1614 1611 1608 1606 1604 1603 1602 1601 1601 1601 1601 1601 1601 1603 1604 1604 1606 1608 1610 1613 1615 1617 1619 1622 1623 1624 1625 1627 1628 1629 1630 1630 1630 1631 1631 1632 1633 1634 1634 1634 1634 1635 1635 1635 1635 1635 1635 1635 1635 1634 1633 1632 1632 1631 1630 1629 1628 1627 1626 1625 1624 1623 1622 1621 1619 1618 1616 1615 1614 1613 1611 1609 1608 1607 1605 1605 1603 1602 1601 1600 1599 1598 1597 1596 1595 1595 1594 1594 1593 1593 1593 1595 1597 1598 1601 1606 1612 1616 1619 1621 1625 1630 1634 1636 1638 1640 1642 1642 1642 1641 1636 1631 1623 1623 1621 1617 1605 1592 1589 1565 1550 1543 1540 1528 1516 1504 1496 1486 1480 1476 1474 1471 1468 1466 1461 1456 1451 1447 1445 1443 1441 1440 1438 1436 1433 1429 1426 1422 1421 1419 1418 1415 1412 1409 1405 1405 1404 1403 1401 1400 1396 1393 1391 1389 1389 1388 1387 1384 1379 1377 1375 1374 1371 1368 1367 1364 1362 1357 1352 1352 1352 1352 1352 1352 1345 0
996 1000 1011 1025 1039 1045 1059 1071 1077 1085 1091 1096 1101 1109 1116 1125 1136 1149 1159 1164 1174 1183 1191 1197 1204 1214 1224 1234 1243 1254 1263 1270 1277 1282 1286 1289 1293 1299 1304 1310 1317 1323 1329 1333 1335 1335 1337 1344 1355 1367 1382 1392 1402 1413 1420 1428 1436 1444 1450 1455 1461 1466 1471 1477 1479 1483 1485 1487 1488 1490 1494 1496 1496 1496 1490 1484 1465 1425 0 0 0 1213 1197 1193 1191 1190 1189 1189 1188 1188 1188 1187 1187 1186 1186 1185 1183 1181 1175 1163 1144 0 0 979 979 979 979 976 976 976 976 976 976 976 977 977 979 981 984 985 987 991 998 1007 1014 1017 1028 1053 0 1143 1166 1179 1188 1189 1190 1192 1193 1194 1194 1195 1195 1195 1195 1195 1195 1195 1194 1193 1193 1192 1191 1191 1190 1189 1187 1186 1182 1176 1166 1150 0 0 1027 1027 1027 1027 1028 1033 1035 1036 1036 1037 1040 1043 1045 1048 1051 1053 1055 1058 1060 1064 1069 1076 1085 1096 1113 1140 1162 1178 1187 1188 1189 1189 1191 1193 1194 1195 1195 1195 1195 1196 1196 1195 1195 1195 1194 1194 1193 1193 1191 1190 1188 1186 1183 1180 1178 1173 1164 1152 1132 1114 1110 1110 1110 1110 1112 1112 1113 1114 1115 1116 1118 1119 1120 1121 1122 1124 1126 1129 1131 1135 1140 1144 1146 1147 1154 1165 1175 1184 1190 1192 1194 1196 1196 1197 1198 1198 1199 1199 1199 1199 1199 1199 1199 1199 1199 1198 1198 1197 1196 1196 1194 1193 1191 1189 1187 1184 1181 1177 1172 1164 1158 1156 1153 1152 1150 1149 1148 1148 1148 1147 1147 1147 1148 1148 1148 1149 1150 1151 1151 1152 1154 1156 1160 1163 1167 1171 1177 1183 1187 1189 1191 1193 1194 1195 1196 1197 1197 1198 1199 1199 1200 1201 1202 1203 1203 1204 1207 1209 1210 1210 1216 1247 0 0 0 0 1850 1850 1850 1782 1782 1782 1798 1811 1812 1812 1812 1812 1815 1816 1817 1818 1821 1826 1831 1838 1845 1853 1862 1869 1873 1873 1873 1872 1870 1868 1865 1863 1861 1860 1858 1855 1851 1850 1846 1841 1838 1833 1830 1826 1822 1820 1816 1814 1812 1810 1807 1805 1803 1801 1796 1791 1789 1787 1785 1785 1784 1781 1779 1776 1773 1771 1769 1767 1765 1763 1761 1759 1757 1754 1752 1750 1747 1746 1744 1742 1739 1738 1736 1734 1733 1731 1729 1726 1724 1722 1719 1715 1711 1706 1700 1693 1686 1676 1666 1653 1639 1634 1628 1622 1617 1612 1609 1607 1605 1603 1602 1601 1601 1600 1600 1600 1600 1600 1602 1603 1603 1604 1606 1609 1611 1613 1614 1616 1617 1619 1621 1623 1625 1626 1627 1628 1628 1628 1628 1628 1630 1632 1632 1632 1633 1633 1634 1634 1634 1634 1633 1633 1633 1633 1632 1632 1631 1630 1629 1628 1628 1627 1626 1625 1624 1623 1622 1620 1619 1618 1616 1615 1614 1612 1611 1609 1608 1606 1605 1604 1603 1601 1600 1599 1598 1597 1596 1595 1594 1594 1593 1593 1593 1593 1593 1593 1595 1598 1600 1606 1611 1616 1618 1621 1624 1630 1634 1636 1638 1638 1638 1638 1638 1633 1629 1620 1615 1614 1610 1595 1580 1558 1553 1540 1529 1525 1518 1504 1495 1490 1485 1477 1470 1466 1466 1466 1466 1462 1458 1454 1450 1447 1443 1440 1437 1434 1432 1430 1428 1426 1422 1420 1419 1418 1414 1411 1408 1405 1403 1402 1402 1401 1398 1396 1393 1390 1387 1385 1385 1384 1383 1381 1379 1374 1373 1372 1371 1367 1365 1363 1360 1355 1351 1351 1351 1346 1344 1344 1333 0
1000 1006 1017 1031 1045 1050 1060 1071 1077 1085 1091 1096 1101 1109 1116 1128 1139 1149 1160 1165 1176 1186 1193 1198 1206 1219 1230 1241 1251 1260 1267 1274 1277 1284 1288 1291 1295 1300 1307 1314 1321 1326 1331 1336 1339 1340 1340 1347 1357 1370 1386 1398 1409 1419 1423 1433 1440 1447 1453 1458 1463 1468 1474 1477 1481 1484 1486 1487 1490 1490 1495 1499 1499 1499 1494 1487 1465 1428 0 0 0 1212 1197 1193 1191 1190 1189 1189 1189 1188 1188 1187 1187 1186 1185 1182 1181 1180 1175 1163 0 0 0 979 978 978 978 976 976 975 975 975 976 976 976 976 977 979 981 981 983 988 996 1004 1010 1016 1028 1053 0 1144 1166 1181 1188 1189 1191 1192 1193 1194 1195 1195 1196 1196 1196 1196 1195 1195 1194 1194 1193 1192 1191 1191 1190 1189 1187 1186 1182 1176 1166 1150 0 0 1028 1028 1028 1028 1030 1034 1035 1036 1036 1038 1040 1043 1046 1049 1051 1052 1055 1057 1060 1065 1069 1076 1085 1097 1119 1140 1162 1178 1187 1188 1189 1189 1191 1193 1194 1195 1195 1195 1195 1195 1195 1195 1195 1195 1194 1194 1193 1193 1191 1190 1188 1186 1183 1180 1177 1173 1163 1152 1133 1120 1111 1110 1110 1110 1111 1112 1113 1114 1115 1116 1118 1119 1120 1121 1122 1124 1126 1129 1131 1135 1140 1145 1148 1151 1157 1165 1175 1184 1191 1192 1194 1196 1196 1197 1198 1198 1199 1199 1199 1199 1199 1199 1199 1199 1199 1198 1198 1197 1196 1196 1194 1193 1191 1189 1186 1184 1181 1177 1172 1165 1159 1156 1154 1153 1151 1150 1149 1148 1148 1148 1148 1148 1148 1149 1149 1149 1150 1152 1152 1153 1155 1157 1161 1165 1169 1173 1177 1183 1187 1189 1191 1192 1194 1195 1196 1196 1197 1197 1198 1198 1200 1201 1202 1202 1203 1203 1207 1209 1210 1210 1212 1225 0 0 0 0 0 1806 1806 1782 1782 1782 1798 1811 1812 1812 1811 1809 1809 1809 1809 1812 1812 1816 1820 1829 1836 1846 1853 1861 1867 1868 1868 1868 1865 1863 1861 1857 1856 1854 1852 1848 1844 1840 1837 1835 1831 1827 1824 1822 1819 1815 1812 1810 1808 1806 1803 1800 1797 1795 1791 1786 1783 1782 1781 1780 1779 1778 1774 1772 1769 1767 1766 1764 1762 1759 1758 1755 1752 1751 1748 1746 1743 1742 1740 1738 1735 1734 1732 1731 1730 1729 1728 1725 1723 1721 1717 1715 1711 1706 1700 1695 1690 1681 1673 1667 1652 1641 1631 1625 1620 1616 1612 1608 1606 1604 1603 1601 1600 1599 1599 1599 1599 1599 1599 1601 1601 1601 1603 1606 1607 1609 1610 1612 1614 1615 1618 1620 1622 1623 1625 1625 1626 1626 1627 1628 1628 1630 1630 1631 1631 1631 1631 1632 1632 1632 1632 1632 1632 1631 1631 1630 1630 1630 1629 1628 1627 1626 1625 1625 1624 1623 1622 1620 1619 1618 1616 1615 1613 1612 1610 1609 1607 1606 1605 1604 1603 1601 1600 1598 1598 1597 1596 1595 1593 1592 1592 1592 1592 1592 1592 1592 1595 1597 1599 1604 1610 1614 1618 1620 1624 1630 1632 1634 1634 1634 1634 1634 1633 1629 1619 1610 1607 1596 1583 1567 1552 1543 1534 1529 1521 1513 1506 1498 1493 1487 1479 1473 1465 1462 1462 1461 1461 1457 1454 1449 1446 1445 1440 1436 1434 1431 1429 1427 1424 1421 1419 1418 1416 1415 1413 1409 1405 1402 1401 1400 1399 1398 1396 1393 1391 1387 1385 1383 1381 1380 1379 1378 1376 1372 1370 1368 1368 1367 1365 1362 1359 1355 1350 1346 1339 1337 1330 1324 1320 0
1004 1010 1020 1033 1045 1050 1060 1071 1077 1085 1091 1096 1101 1109 1116 1128 1139 1150 1160 1165 1177 1188 1198 1206 1213 1222 1234 1246 1256 1265 1271 1277 1282 1286 1289 1293 1297 1303 1309 1316 1323 1329 1335 1340 1342 1345 1347 1353 1361 1376 1391 1406 1416 1424 1428 1437 1445 1451 1456 1461 1465 1471 1475 1478 1482 1485 1487 1491 1491 1494 1497 1501 1501 1501 1494 1487 1456 1428 0 0 0 1211 1197 1194 1192 1191 1189 1189 1189 1189 1188 1187 1187 1186 1184 1182 1181 1180 1177 1164 0 0 0 978 978 977 977 976 976 975 975 975 975 975 975 975 976 978 979 980 982 986 994 1001 1007 1015 1028 1053 0 1144 1168 1182 1188 1189 1191 1192 1193 1194 1195 1196 1196 1196 1196 1196 1196 1195 1195 1194 1194 1193 1192 1191 1191 1189 1187 1186 1182 1177 1166 1153 0 0 1028 1028 1028 1030 1034 1036 1037 1037 1038 1040 1041 1044 1046 1049 1051 1052 1054 1057 1060 1066 1069 1076 1085 1098 1119 1139 1159 1176 1186 1189 1189 1189 1191 1193 1193 1195 1195 1195 1195 1195 1195 1195 1195 1195 1194 1194 1193 1192 1191 1190 1188 1186 1183 1180 1177 1172 1163 1152 1136 1122 1114 1110 1110 1110 1111 1111 1113 1114 1115 1116 1118 1119 1120 1121 1122 1124 1126 1129 1131 1135 1140 1145 1150 1155 1160 1167 1175 1184 1191 1192 1193 1195 1196 1197 1197 1198 1199 1199 1199 1199 1199 1199 1199 1199 1198 1198 1197 1197 1196 1195 1194 1192 1191 1189 1186 1184 1181 1177 1174 1166 1159 1156 1154 1153 1152 1150 1149 1149 1149 1149 1149 1149 1149 1150 1150 1151 1151 1153 1153 1154 1156 1157 1161 1165 1170 1173 1177 1182 1187 1189 1191 1192 1193 1195 1195 1196 1196 1197 1197 1198 1199 1200 1201 1202 1203 1203 1205 1210 1210 1210 1210 1224 0 0 0 0 0 0 0 0 0 0 0 0 0 1824 1812 1804 1804 1803 1803 1804 1804 1808 1812 1820 1828 1837 1845 1853 1859 1862 1862 1862 1862 1860 1858 1854 1851 1849 1846 1843 1839 1835 1833 1830 1826 1822 1819 1817 1814 1811 1808 1806 1805 1803 1799 1795 1792 1790 1785 1782 1779 1777 1776 1776 1775 1773 1769 1766 1764 1762 1761 1760 1757 1756 1753 1752 1749 1747 1744 1742 1739 1737 1735 1733 1731 1729 1728 1727 1727 1727 1724 1724 1721 1719 1716 1712 1708 1705 1700 1695 1692 1686 1681 1673 1667 1654 1637 1627 1621 1617 1613 1610 1608 1605 1603 1601 1600 1599 1599 1599 1599 1599 1599 1599 1600 1600 1601 1603 1604 1605 1607 1609 1612 1614 1615 1617 1619 1620 1620 1622 1623 1624 1625 1625 1626 1626 1628 1629 1629 1630 1630 1630 1630 1630 1630 1630 1630 1630 1629 1629 1629 1629 1629 1628 1627 1626 1625 1624 1624 1623 1622 1620 1619 1617 1616 1615 1613 1612 1610 1609 1607 1606 1605 1603 1602 1600 1599 1598 1597 1596 1595 1594 1592 1592 1591 1591 1591 1591 1591 1592 1593 1596 1598 1602 1609 1614 1618 1620 1623 1629 1629 1629 1629 1629 1629 1629 1625 1621 1613 1603 1587 1569 1560 1551 1540 1530 1521 1517 1512 1505 1499 1494 1490 1485 1477 1467 1460 1459 1459 1459 1458 1454 1449 1445 1441 1437 1434 1431 1429 1427 1425 1423 1421 1417 1414 1414 1413 1412 1409 1406 1404 1401 1399 1397 1396 1395 1394 1392 1389 1385 1382 1380 1378 1376 1375 1374 1372 1370 1368 1365 1365 1364 1363 1361 1359 1354 1348 1341 1339 1337 1327 1310 1307 0
1009 1013 1023 1034 1045 1050 1060 1068 1076 1083 1088 1094 1099 1108 1116 1128 1140 1151 1162 1166 1178 1191 1201 1209 1219 1229 1240 1252 1263 1271 1278 1283 1287 1290 1295 1298 1303 1308 1315 1322 1326 1332 1336 1342 1348 1352 1355 1362 1370 1383 1398 1412 1421 1428 1433 1440 1447 1455 1461 1466 1469 1473 1477 1480 1483 1486 1489 1493 1495 1502 1503 1503 1503 1502 1502 1489 1456 1428 0 0 0 1211 1198 1194 1192 1192 1190 1190 1189 1189 1188 1187 1186 1186 1184 1182 1181 1180 1178 1164 0 0 0 979 978 978 978 976 976 976 975 975 974 974 974 974 975 976 978 980 982 986 994 1001 1007 1015 1028 1058 0 1144 1168 1182 1188 1189 1191 1192 1193 1194 1195 1196 1196 1196 1196 1196 1196 1196 1195 1194 1194 1193 1193 1193 1192 1191 1190 1186 1182 1178 1167 1154 0 0 1034 1034 1034 1034 1036 1037 1038 1039 1040 1041 1042 1044 1047 1049 1051 1052 1054 1057 1061 1066 1070 1076 1085 1098 1119 1139 1159 1176 1186 1187 1189 1189 1191 1192 1193 1194 1195 1195 1195 1195 1195 1195 1195 1195 1194 1194 1193 1192 1191 1189 1188 1186 1184 1181 1177 1171 1163 1152 1136 1122 1114 1112 1110 1110 1110 1111 1113 1114 1115 1116 1118 1119 1120 1121 1122 1124 1126 1129 1132 1135 1140 1145 1150 1156 1164 1171 1176 1184 1190 1192 1193 1194 1195 1197 1197 1197 1198 1198 1198 1198 1198 1198 1198 1198 1198 1197 1197 1197 1195 1194 1193 1192 1190 1189 1186 1184 1181 1178 1174 1167 1160 1156 1154 1153 1152 1151 1151 1150 1150 1150 1150 1150 1150 1151 1151 1152 1152 1153 1154 1155 1156 1158 1162 1165 1170 1173 1177 1182 1186 1189 1191 1192 1193 1194 1195 1196 1196 1197 1197 1198 1199 1199 1201 1201 1202 1203 1205 1209 1210 1210 1210 1224 0 0 0 0 0 0 0 0 0 0 0 0 0 0 1826 1804 1800 1798 1797 1797 1797 1801 1807 1812 1818 1824 1832 1840 1847 1850 1856 1857 1857 1857 1855 1851 1846 1844 1842 1839 1835 1831 1829 1825 1821 1818 1814 1812 1809 1807 1805 1803 1802 1798 1794 1789 1787 1784 1781 1777 1775 1773 1771 1771 1770 1767 1763 1760 1758 1757 1755 1754 1753 1751 1749 1748 1745 1743 1740 1737 1734 1732 1730 1728 1728 1725 1724 1723 1723 1723 1722 1720 1718 1716 1713 1709 1705 1701 1698 1695 1692 1688 1684 1679 1672 1664 1652 1635 1625 1620 1617 1615 1611 1607 1603 1601 1601 1599 1599 1598 1598 1598 1598 1598 1598 1599 1599 1600 1601 1602 1603 1605 1609 1612 1613 1614 1615 1616 1618 1619 1620 1621 1622 1622 1623 1624 1625 1627 1628 1628 1628 1628 1628 1629 1629 1629 1629 1629 1629 1629 1628 1628 1628 1627 1626 1626 1625 1624 1623 1622 1621 1620 1619 1617 1616 1614 1613 1611 1610 1609 1607 1606 1604 1603 1602 1600 1599 1598 1596 1595 1595 1593 1592 1591 1590 1590 1590 1590 1590 1590 1593 1596 1596 1601 1608 1613 1616 1620 1623 1626 1626 1626 1625 1624 1621 1621 1615 1609 1595 1579 1561 1550 1544 1538 1530 1520 1514 1510 1501 1493 1489 1485 1481 1475 1469 1464 1459 1457 1454 1453 1453 1448 1443 1439 1437 1435 1432 1429 1427 1425 1423 1420 1417 1413 1411 1409 1409 1406 1405 1403 1401 1399 1397 1395 1393 1392 1390 1388 1387 1383 1380 1377 1374 1373 1372 1371 1370 1368 1366 1363 1361 1361 1359 1358 1358 1354 1345 1341 1341 1337 1327 1310 1302 0
1010 1015 1024 1035 1044 1049 1057 1065 1076 1083 1088 1094 1099 1107 1116 1128 1140 1153 1164 1170 1182 1193 1204 1215 1224 1236 1245 1256 1266 1275 1283 1289 1292 1296 1300 1304 1308 1314 1321 1326 1330 1335 1341 1350 1357 1362 1367 1372 1378 1388 1402 1414 1423 1431 1435 1442 1450 1459 1466 1471 1474 1478 1480 1483 1486 1489 1493 1496 1501 1506 1507 1507 1507 1506 1502 1489 1456 1422 0 0 0 1213 1198 1195 1193 1192 1191 1190 1189 1189 1188 1187 1186 1186 1184 1184 1181 1180 1176 1165 0 0 0 979 978 978 978 977 976 976 974 974 972 972 972 974 975 976 978 980 983 986 994 1001 1007 1015 1030 1066 0 1144 1168 1182 1187 1189 1191 1192 1193 1194 1195 1196 1196 1196 1196 1196 1196 1196 1195 1194 1194 1194 1193 1193 1192 1191 1191 1188 1182 1180 1172 1154 0 1066 1040 1038 1038 1038 1038 1038 1040 1040 1040 1042 1043 1045 1047 1050 1052 1052 1054 1057 1061 1066 1071 1076 1084 1098 1119 1139 1159 1175 1182 1187 1189 1189 1190 1192 1193 1193 1194 1194 1195 1195 1195 1195 1195 1194 1194 1193 1193 1192 1191 1189 1188 1186 1186 1184 1177 1171 1163 1152 1136 1122 1114 1112 1110 1110 1110 1111 1113 1114 1115 1116 1118 1119 1120 1122 1122 1124 1126 1129 1132 1135 1139 1144 1150 1157 1165 1171 1176 1183 1189 1192 1193 1194 1195 1196 1197 1197 1198 1198 1198 1198 1198 1198 1198 1197 1197 1196 1196 1196 1194 1194 1193 1191 1190 1189 1186 1184 1181 1178 1175 1167 1160 1156 1155 1153 1152 1151 1151 1151 1151 1151 1151 1151 1151 1151 1152 1153 1154 1154 1155 1156 1156 1158 1162 1166 1170 1173 1176 1181 1186 1188 1191 1192 1193 1194 1195 1195 1196 1197 1197 1197 1198 1199 1200 1201 1202 1202 1204 1207 1207 1210 1211 1225 0 0 0 0 0 0 0 0 0 0 0 0 0 0 0 1806 1800 1792 1792 1792 1792 1794 1800 1804 1808 1812 1819 1827 1834 1839 1843 1849 1852 1852 1852 1846 1841 1838 1835 1833 1829 1827 1823 1820 1817 1813 1809 1807 1805 1804 1802 1800 1797 1794 1789 1785 1782 1780 1777 1774 1771 1768 1768 1767 1764 1761 1756 1754 1751 1750 1749 1748 1748 1747 1744 1742 1741 1739 1736 1734 1731 1727 1726 1725 1724 1723 1722 1720 1719 1719 1718 1716 1715 1713 1709 1706 1702 1698 1695 1693 1692 1688 1684 1680 1675 1667 1660 1650 1639 1627 1622 1618 1613 1609 1605 1603 1601 1600 1599 1597 1597 1597 1597 1597 1597 1597 1597 1598 1598 1599 1601 1603 1605 1608 1609 1609 1611 1612 1615 1615 1617 1617 1618 1619 1620 1621 1622 1624 1625 1626 1626 1626 1627 1627 1628 1628 1628 1628 1628 1628 1628 1628 1627 1626 1626 1625 1624 1624 1623 1622 1621 1620 1619 1617 1616 1614 1613 1611 1610 1608 1607 1606 1604 1603 1601 1600 1599 1597 1596 1595 1594 1592 1591 1590 1589 1589 1589 1589 1590 1590 1592 1595 1596 1599 1605 1610 1616 1619 1622 1625 1625 1625 1620 1617 1613 1610 1606 1597 1583 1558 1548 1541 1530 1522 1516 1505 1501 1497 1493 1484 1481 1476 1473 1466 1460 1456 1451 1450 1448 1446 1444 1441 1436 1431 1428 1427 1426 1425 1425 1422 1419 1416 1413 1410 1407 1404 1403 1401 1399 1398 1398 1397 1395 1393 1392 1389 1388 1388 1386 1382 1378 1374 1372 1371 1370 1369 1367 1365 1363 1361 1359 1358 1356 1356 1355 1352 1345 1341 1341 1341 1327 1310 1302 0
1011 1017 1027 1035 1044 1049 1057 1065 1076 1083 1088 1094 1099 1107 1116 1128 1141 1156 1167 1172 1182 1194 1207 1218 1229 1240 1253 1264 1272 1279 1286 1292 1296 1299 1304 1307 1313 1319 1326 1330 1336 1341 1348 1355 1363 1369 1375 1380 1387 1397 1406 1416 1425 1434 1439 1446 1454 1460 1467 1475 1478 1481 1484 1487 1489 1492 1496 1499 1506 1510 1511 1511 1511 1509 1502 1489 1460 1422 0 0 0 1218 1199 1195 1193 1192 1191 1190 1190 1189 1188 1187 1186 1186 1185 1184 1181 1181 1177 1166 0 0 0 980 978 978 978 977 976 976 974 972 972 972 972 974 975 976 978 980 984 988 998 1008 1013 1020 1034 0 0 1144 1170 1182 1186 1189 1191 1191 1193 1194 1195 1195 1196 1196 1196 1196 1196 1196 1195 1194 1194 1194 1193 1193 1192 1191 1191 1188 1182 1180 1179 1157 0 1073 1048 1038 1038 1038 1038 1039 1041 1041 1042 1042 1045 1047 1048 1050 1052 1053 1055 1058 1062 1067 1071 1075 1084 1095 1118 1139 1159 1174 1182 1187 1189 1189 1190 1191 1192 1193 1194 1194 1194 1194 1194 1194 1194 1194 1194 1193 1193 1192 1191 1189 1188 1187 1186 1184 1178 1171 1163 1152 1137 1120 1114 1112 1110 1110 1110 1111 1112 1114 1116 1117 1119 1121 1121 1122 1122 1125 1126 1129 1132 1135 1139 1143 1150 1157 1165 1171 1175 1182 1188 1192 1193 1193 1194 1195 1196 1197 1197 1197 1197 1197 1197 1196 1196 1196 1196 1196 1196 1195 1194 1193 1192 1190 1189 1187 1186 1184 1181 1179 1175 1167 1160 1156 1155 1153 1152 1152 1152 1152 1153 1153 1153 1153 1153 1153 1153 1155 1156 1156 1157 1157 1158 1159 1162 1166 1170 1173 1176 1181 1186 1189 1191 1192 1193 1194 1194 1195 1196 1196 1197 1197 1198 1198 1199 1200 1200 1201 1202 1204 1207 1210 1211 1225 0 0 0 0 0 0 0 0 0 0 0 0 0 0 0 1826 1800 1788 1788 1787 1787 1788 1792 1796 1798 1801 1807 1814 1822 1828 1834 1838 1845 1845 1845 1841 1837 1832 1829 1827 1825 1821 1819 1816 1812 1809 1805 1804 1801 1800 1798 1797 1792 1788 1784 1781 1779 1776 1773 1770 1767 1765 1763 1760 1757 1754 1752 1748 1745 1743 1743 1743 1742 1741 1738 1737 1735 1734 1731 1729 1727 1725 1723 1722 1721 1719 1719 1716 1716 1715 1714 1711 1710 1708 1706 1703 1699 1695 1692 1692 1689 1688 1684 1680 1675 1669 1661 1655 1647 1635 1626 1621 1615 1612 1609 1606 1604 1601 1599 1597 1597 1596 1595 1594 1594 1594 1594 1595 1595 1596 1598 1599 1602 1602 1605 1606 1607 1609 1611 1612 1613 1614 1615 1617 1618 1618 1619 1621 1623 1623 1625 1625 1625 1626 1626 1626 1626 1626 1626 1626 1626 1626 1626 1625 1625 1624 1624 1623 1623 1622 1621 1619 1618 1617 1616 1614 1613 1611 1610 1608 1607 1606 1604 1603 1601 1600 1599 1597 1595 1594 1593 1591 1590 1590 1589 1588 1588 1588 1588 1589 1590 1593 1594 1597 1601 1607 1614 1617 1619 1621 1621 1621 1614 1610 1607 1603 1597 1580 1556 1546 1539 1528 1520 1509 1499 1493 1488 1485 1480 1476 1470 1466 1462 1458 1452 1450 1446 1444 1443 1441 1438 1435 1431 1427 1424 1420 1419 1419 1417 1416 1416 1413 1410 1406 1400 1397 1396 1395 1394 1394 1394 1394 1394 1393 1390 1388 1386 1385 1384 1381 1376 1372 1370 1369 1368 1366 1364 1362 1360 1358 1356 1355 1353 1352 1352 1348 1344 1341 1341 1338 1337 1313 1302 0
1012 1019 1029 1036 1044 1049 1057 1065 1075 1084 1090 1094 1099 1107 1117 1128 1141 1158 1168 1173 1186 1199 1212 1225 1236 1249 1261 1271 1278 1284 1290 1296 1301 1303 1307 1311 1316 1321 1329 1335 1341 1347 1354 1362 1369 1375 1381 1387 1394 1401 1409 1417 1426 1436 1440 1447 1454 1460 1467 1475 1479 1484 1486 1488 1490 1493 1498 1503 1507 1511 1512 1512 1511 1509 1502 1489 1467 1465 0 0 0 1218 1200 1195 1193 1192 1191 1190 1190 1189 1188 1187 1186 1186 1185 1184 1182 1182 1179 1166 0 0 0 982 978 978 977 976 976 975 973 971 971 971 972 973 975 976 978 981 986 991 999 1009 1016 1020 1034 0 0 1143 1170 1182 1186 1189 1190 1190 1192 1193 1194 1195 1195 1196 1196 1196 1195 1195 1195 1194 1194 1194 1193 1192 1192 1191 1191 1188 1182 1180 1179 1157 0 1074 1049 1045 1042 1041 1041 1041 1043 1043 1043 1044 1046 1047 1048 1051 1052 1055 1056 1059 1063 1068 1071 1075 1082 1090 1113 1138 1158 1173 1182 1186 1189 1189 1190 1191 1192 1192 1193 1194 1194 1194 1194 1194 1194 1193 1193 1192 1192 1191 1190 1189 1188 1187 1186 1184 1179 1171 1165 1155 1137 1117 1114 1112 1109 1109 1109 1111 1112 1114 1116 1117 1119 1123 1123 1124 1124 1125 1128 1130 1132 1135 1139 1143 1150 1157 1165 1170 1174 1182 1187 1191 1192 1193 1193 1194 1194 1195 1196 1196 1196 1195 1195 1195 1195 1195 1195 1195 1194 1194 1192 1192 1191 1189 1188 1187 1185 1184 1181 1179 1175 1167 1160 1156 1155 1153 1152 1152 1152 1153 1153 1154 1154 1154 1154 1155 1156 1157 1158 1158 1160 1160 1161 1163 1164 1166 1170 1173 1176 1182 1186 1189 1191 1192 1193 1194 1194 1195 1196 1196 1197 1197 1198 1198 1199 1199 1200 1201 1202 1204 1206 1211 1211 1223 0 0 0 0 0 0 0 0 0 0 0 0 0 0 0 1828 1806 1788 1784 1783 1783 1783 1786 1789 1791 1792 1796 1802 1808 1818 1825 1830 1831 1835 1835 1835 1831 1827 1824 1822 1820 1818 1815 1813 1810 1805 1802 1800 1798 1795 1794 1790 1786 1782 1779 1777 1774 1772 1769 1766 1762 1759 1757 1755 1752 1749 1747 1743 1740 1739 1738 1738 1737 1736 1733 1731 1729 1728 1727 1725 1723 1720 1718 1716 1716 1715 1714 1712 1710 1709 1708 1706 1705 1704 1702 1701 1697 1693 1691 1688 1686 1685 1683 1680 1675 1669 1662 1656 1650 1640 1628 1624 1619 1613 1610 1609 1606 1603 1600 1597 1597 1595 1594 1593 1593 1593 1593 1594 1594 1594 1594 1596 1598 1599 1600 1602 1604 1605 1607 1608 1610 1611 1612 1614 1615 1616 1619 1619 1620 1622 1623 1623 1623 1624 1624 1625 1625 1625 1625 1625 1625 1625 1625 1624 1624 1624 1623 1622 1622 1621 1620 1619 1618 1617 1616 1614 1613 1611 1609 1608 1607 1605 1603 1602 1601 1599 1598 1596 1594 1594 1593 1591 1590 1589 1589 1588 1588 1588 1588 1588 1588 1589 1591 1594 1598 1604 1611 1613 1615 1615 1615 1615 1611 1605 1599 1591 1577 1557 1548 1540 1530 1519 1508 1500 1494 1487 1483 1480 1475 1468 1463 1458 1453 1448 1443 1440 1438 1437 1435 1432 1428 1425 1423 1422 1420 1417 1416 1413 1412 1411 1411 1409 1407 1403 1399 1396 1395 1393 1393 1392 1392 1391 1391 1389 1388 1387 1385 1383 1381 1379 1374 1369 1367 1366 1365 1363 1360 1359 1357 1356 1354 1354 1351 1350 1348 1345 1340 1340 1338 1337 1337 1333 1309 0
1013 1020 1029 1038 1046 1051 1058 1065 1076 1084 1090 1095 1102 1111 1120 1132 1144 1158 1170 1174 1189 1205 1220 1234 1243 1256 1269 1277 1283 1289 1295 1300 1304 1308 1312 1315 1319 1325 1331 1339 1346 1354 1360 1366 1371 1378 1385 1390 1396 1403 1410 1418 1426 1436 1440 1448 1454 1460 1467 1475 1480 1484 1488 1490 1492 1495 1498 1503 1507 1511 1512 1512 1511 1509 1501 1489 1475 1472 0 0 0 1218 1200 1193 1192 1192 1191 1191 1190 1189 1188 1187 1186 1186 1185 1184 1183 1182 1179 1168 0 0 0 982 978 975 974 974 974 974 973 971 971 971 971 973 975 976 978 981 986 991 999 1009 1016 1020 1034 0 0 1143 1168 1182 1184 1186 1188 1190 1192 1193 1194 1195 1195 1195 1195 1195 1195 1195 1195 1194 1194 1193 1192 1192 1192 1192 1191 1188 1182 1180 1179 1157 0 1078 1049 1045 1042 1042 1042 1043 1044 1044 1044 1044 1046 1047 1049 1051 1054 1055 1056 1059 1064 1068 1071 1076 1077 1086 1113 1136 1157 1173 1181 1186 1188 1189 1189 1191 1191 1191 1191 1192 1192 1193 1193 1193 1193 1193 1192 1192 1191 1191 1190 1189 1188 1186 1185 1183 1179 1173 1167 1156 1136 1117 1113 1112 1109 1109 1109 1111 1112 1114 1115 1117 1119 1123 1124 1125 1125 1126 1130 1132 1135 1136 1140 1143 1150 1157 1165 1168 1174 1181 1186 1191 1192 1192 1193 1193 1193 1194 1194 1194 1194 1194 1194 1194 1193 1193 1193 1193 1193 1192 1192 1191 1190 1189 1187 1186 1185 1184 1182 1179 1174 1167 1161 1158 1157 1155 1154 1154 1154 1154 1154 1154 1155 1156 1156 1156 1158 1159 1159 1161 1163 1163 1164 1164 1167 1169 1172 1174 1177 1182 1186 1189 1191 1192 1193 1194 1194 1195 1196 1196 1197 1197 1197 1198 1198 1199 1199 1201 1202 1203 1206 1211 1212 1222 0 0 0 0 0 0 0 0 0 0 0 0 0 0 0 1839 1808 1788 1784 1777 1777 1777 1779 1780 1782 1783 1785 1791 1797 1804 1813 1818 1821 1822 1824 1824 1824 1823 1820 1819 1817 1815 1812 1810 1807 1803 1800 1797 1794 1791 1787 1785 1781 1778 1775 1773 1770 1768 1765 1761 1757 1753 1750 1748 1747 1744 1742 1739 1737 1734 1732 1732 1731 1730 1728 1727 1724 1723 1722 1720 1718 1716 1714 1711 1710 1708 1708 1706 1705 1703 1703 1702 1701 1701 1699 1699 1695 1692 1689 1687 1685 1683 1681 1677 1672 1669 1662 1657 1651 1644 1636 1627 1623 1616 1610 1609 1607 1604 1602 1598 1597 1595 1594 1593 1592 1592 1592 1592 1592 1592 1593 1594 1595 1595 1597 1598 1601 1603 1603 1604 1606 1607 1609 1611 1613 1615 1616 1617 1618 1618 1620 1621 1622 1622 1622 1623 1623 1624 1624 1624 1624 1624 1623 1623 1623 1622 1622 1622 1622 1620 1620 1618 1618 1617 1615 1614 1613 1611 1609 1608 1607 1605 1603 1602 1601 1599 1597 1596 1594 1593 1592 1591 1589 1588 1587 1587 1587 1587 1587 1587 1587 1587 1587 1591 1596 1603 1608 1609 1610 1610 1610 1610 1607 1599 1592 1579 1560 1548 1537 1528 1519 1509 1499 1493 1487 1483 1478 1474 1465 1459 1455 1451 1446 1442 1437 1433 1432 1430 1427 1426 1422 1420 1417 1416 1415 1414 1412 1410 1409 1408 1407 1407 1403 1400 1399 1396 1394 1391 1389 1389 1388 1387 1387 1387 1385 1383 1382 1379 1378 1377 1372 1368 1365 1363 1361 1360 1358 1356 1355 1354 1353 1351 1349 1348 1345 1341 1338 1338 1337 1337 1337 1333 1321 0
1015 1021 1029 1038 1047 1051 1060 1068 1076 1084 1090 1098 1106 1115 1125 1137 1149 1159 1172 1177 1193 1211 1227 1241 1251 1262 1273 1283 1288 1293 1298 1303 1307 1312 1318 1320 1325 1328 1334 1341 1350 1359 1365 1370 1375 1380 1385 1390 1396 1403 1410 1419 1427 1437 1442 1448 1453 1458 1465 1473 1480 1485 1488 1490 1493 1495 1498 1503 1507 1510 1511 1511 1510 1506 1499 1488 1475 1472 0 0 0 1221 1200 1193 1191 1191 1191 1191 1191 1190 1188 1187 1186 1186 1184 1183 1183 1183 1177 1167 1148 0 0 982 978 975 974 974 974 974 973 971 971 971 971 973 975 976 977 981 986 991 999 1009 1016 1020 1031 0 0 1143 1168 1182 1184 1186 1188 1189 1191 1193 1194 1194 1194 1194 1194 1195 1195 1195 1194 1193 1193 1192 1192 1192 1192 1191 1189 1187 1182 1177 1175 1160 0 1078 1049 1045 1042 1042 1042 1044 1045 1045 1045 1045 1046 1047 1049 1051 1055 1055 1056 1059 1064 1069 1072 1076 1077 1086 1111 1134 1155 1172 1180 1186 1188 1188 1188 1189 1190 1190 1190 1191 1191 1193 1193 1193 1193 1192 1192 1191 1191 1191 1189 1189 1187 1186 1184 1182 1178 1173 1167 1156 1137 1117 1112 1112 1109 1109 1109 1111 1112 1113 1116 1118 1120 1123 1125 1125 1125 1126 1130 1134 1137 1139 1141 1145 1150 1157 1162 1166 1174 1181 1186 1189 1192 1192 1192 1192 1192 1193 1193 1192 1192 1192 1192 1192 1192 1192 1191 1191 1191 1190 1190 1189 1188 1187 1186 1186 1185 1184 1182 1179 1174 1167 1161 1158 1158 1157 1155 1154 1154 1154 1154 1155 1157 1158 1158 1159 1159 1160 1161 1163 1165 1166 1166 1167 1168 1171 1172 1176 1178 1182 1186 1189 1191 1192 1193 1194 1195 1195 1195 1196 1197 1197 1197 1197 1198 1198 1199 1201 1202 1203 1206 1211 1212 1219 1244 0 0 0 0 0 0 0 0 0 0 0 0 0 0 1844 1813 1792 1787 1777 1774 1774 1774 1775 1776 1776 1778 1781 1787 1794 1801 1807 1808 1812 1814 1818 1818 1818 1817 1815 1812 1810 1808 1806 1803 1800 1797 1794 1790 1788 1784 1780 1777 1774 1771 1769 1766 1763 1761 1757 1754 1750 1747 1744 1742 1740 1738 1735 1734 1732 1729 1728 1725 1723 1721 1720 1720 1719 1717 1714 1713 1711 1709 1708 1706 1704 1703 1702 1700 1699 1699 1698 1697 1697 1696 1695 1692 1689 1687 1684 1681 1680 1677 1674 1672 1669 1663 1660 1654 1646 1641 1633 1627 1620 1615 1610 1608 1604 1602 1599 1597 1595 1594 1593 1591 1591 1590 1590 1590 1591 1591 1592 1592 1593 1595 1596 1598 1600 1601 1602 1603 1603 1605 1607 1610 1611 1614 1614 1615 1617 1618 1619 1620 1620 1620 1621 1622 1622 1622 1622 1622 1622 1622 1622 1622 1622 1622 1621 1620 1620 1619 1618 1617 1616 1614 1614 1612 1611 1609 1607 1606 1605 1603 1601 1600 1599 1597 1595 1594 1592 1592 1591 1589 1588 1587 1587 1585 1585 1585 1584 1584 1584 1584 1589 1594 1598 1605 1605 1606 1605 1605 1603 1598 1590 1580 1565 1548 1532 1518 1513 1506 1497 1493 1485 1478 1471 1466 1462 1455 1451 1447 1443 1439 1436 1432 1430 1427 1425 1424 1422 1419 1416 1415 1413 1412 1412 1409 1406 1405 1403 1402 1401 1398 1397 1396 1394 1392 1389 1388 1385 1385 1383 1381 1381 1381 1381 1380 1379 1377 1374 1370 1365 1364 1361 1359 1357 1357 1355 1353 1352 1351 1351 1349 1346 1342 1339 1337 1337 1337 1337 1337 1333 1325 0
1016 1021 1031 1041 1049 1054 1064 1071 1078 1085 1091 1098 1107 1119 1129 1142 1153 1164 1178 1182 1197 1216 1234 1250 1260 1268 1279 1286 1292 1296 1301 1306 1311 1315 1323 1325 1329 1331 1335 1342 1351 1360 1367 1372 1376 1380 1385 1390 1396 1403 1411 1419 1429 1437 1442 1449 1453 1458 1465 1473 1480 1485 1488 1491 1493 1495 1497 1501 1504 1510 1510 1510 1510 1504 1496 1485 1475 1472 0 0 0 1221 1200 1193 1190 1190 1190 1190 1190 1190 1188 1187 1186 1185 1184 1183 1182 1182 1177 1167 1148 0 0 982 978 974 974 974 974 974 973 972 971 970 970 971 973 974 975 979 983 989 995 1005 1007 1016 1029 1057 0 1139 1165 1182 1184 1186 1188 1189 1191 1193 1193 1194 1194 1194 1194 1194 1193 1193 1193 1192 1192 1192 1192 1191 1191 1191 1188 1186 1180 1176 1173 1160 0 1078 1047 1043 1043 1043 1043 1045 1045 1045 1046 1046 1046 1048 1049 1051 1055 1055 1056 1059 1064 1069 1075 1077 1077 1086 1111 1133 1155 1172 1179 1184 1186 1186 1186 1187 1187 1189 1189 1190 1191 1191 1192 1192 1192 1192 1192 1190 1189 1189 1188 1188 1187 1186 1184 1182 1178 1173 1167 1156 1137 1117 1113 1113 1112 1112 1112 1112 1113 1113 1116 1118 1120 1124 1126 1126 1127 1128 1132 1136 1138 1141 1143 1145 1151 1155 1159 1166 1174 1181 1186 1189 1189 1190 1191 1191 1191 1191 1191 1191 1191 1191 1191 1191 1190 1190 1189 1189 1188 1188 1188 1188 1187 1186 1186 1186 1185 1184 1182 1179 1174 1167 1161 1160 1159 1159 1158 1157 1157 1157 1157 1159 1160 1160 1160 1161 1161 1162 1162 1164 1167 1169 1170 1170 1171 1173 1174 1179 1181 1183 1186 1189 1191 1193 1193 1195 1195 1195 1195 1196 1197 1197 1197 1197 1198 1198 1198 1201 1202 1203 1206 1211 1213 1218 1218 1229 1240 0 0 0 0 0 0 0 0 0 0 0 0 1844 1822 1809 1789 1781 1772 1772 1772 1770 1770 1770 1770 1775 1779 1781 1789 1794 1796 1801 1805 1806 1813 1813 1813 1812 1809 1806 1804 1802 1798 1795 1792 1790 1787 1785 1781 1778 1774 1770 1768 1765 1762 1760 1757 1755 1752 1748 1744 1740 1738 1735 1734 1733 1731 1729 1726 1723 1720 1718 1716 1715 1715 1713 1711 1709 1707 1705 1704 1703 1702 1700 1698 1697 1696 1694 1694 1693 1693 1692 1691 1689 1689 1685 1683 1680 1677 1676 1674 1672 1669 1668 1663 1660 1655 1650 1643 1639 1633 1627 1619 1612 1609 1606 1603 1600 1598 1596 1594 1593 1591 1590 1589 1589 1589 1589 1589 1589 1590 1591 1591 1593 1595 1597 1599 1600 1601 1602 1604 1605 1607 1608 1611 1612 1613 1615 1616 1616 1618 1618 1619 1619 1620 1620 1620 1620 1620 1620 1620 1620 1620 1620 1620 1620 1620 1619 1618 1618 1616 1615 1614 1613 1612 1610 1609 1607 1606 1604 1603 1601 1599 1598 1597 1595 1594 1592 1591 1590 1589 1587 1587 1586 1585 1585 1584 1583 1583 1584 1584 1585 1590 1592 1599 1599 1599 1599 1598 1593 1585 1579 1566 1553 1533 1523 1510 1500 1498 1491 1480 1474 1466 1459 1453 1449 1446 1441 1437 1435 1432 1430 1428 1425 1423 1421 1419 1417 1414 1413 1412 1410 1409 1408 1406 1405 1402 1401 1399 1397 1395 1393 1392 1392 1390 1388 1387 1384 1382 1380 1378 1376 1376 1375 1374 1372 1372 1369 1367 1364 1362 1360 1358 1356 1355 1354 1353 1352 1350 1349 1348 1346 1342 1338 1337 1337 1336 1334 1332 1329 1325 0
1021 1027 1036 1047 1056 1061 1068 1077 1084 1090 1094 1099 1108 1120 1131 1144 1157 1168 1180 1185 1201 1222 1239 1253 1266 1277 1284 1292 1295 1300 1305 1310 1314 1321 1324 1328 1330 1333 1336 1343 1353 1361 1369 1373 1376 1380 1385 1390 1396 1404 1411 1420 1430 1437 1444 1449 1453 1458 1465 1473 1479 1485 1489 1491 1493 1495 1497 1500 1503 1509 1509 1509 1506 1500 1495 1482 1464 1462 0 0 0 1221 1198 1192 1190 1190 1190 1190 1190 1190 1188 1187 1186 1185 1184 1182 1182 1180 1177 1167 1150 0 0 982 979 974 974 974 974 974 974 972 972 971 971 972 973 974 975 979 983 987 994 1004 1007 1016 1028 1057 0 1139 1165 1182 1184 1187 1188 1189 1191 1193 1193 1193 1193 1193 1193 1193 1193 1192 1192 1191 1190 1190 1190 1190 1190 1190 1187 1182 1178 1175 1169 1157 0 1069 1043 1043 1043 1043 1044 1047 1047 1047 1047 1047 1047 1047 1049 1051 1055 1056 1056 1059 1064 1070 1076 1081 1081 1086 1107 1131 1154 1171 1177 1180 1183 1184 1186 1186 1187 1187 1188 1190 1190 1190 1191 1191 1191 1191 1191 1190 1188 1188 1187 1187 1186 1186 1184 1181 1177 1173 1165 1154 1138 1117 1115 1115 1114 1114 1114 1114 1114 1114 1116 1121 1127 1128 1129 1129 1131 1133 1135 1137 1140 1142 1143 1146 1152 1155 1159 1166 1173 1180 1186 1188 1188 1189 1189 1190 1190 1189 1189 1189 1189 1189 1189 1189 1189 1189 1188 1187 1187 1186 1186 1185 1185 1185 1185 1185 1185 1184 1183 1180 1174 1167 1163 1163 1163 1163 1163 1163 1162 1162 1162 1162 1163 1163 1164 1164 1165 1165 1166 1167 1171 1172 1172 1174 1176 1178 1180 1183 1184 1184 1187 1190 1192 1193 1194 1195 1195 1196 1196 1196 1196 1197 1197 1197 1198 1198 1198 1199 1201 1203 1205 1210 1210 1211 1211 1211 1214 1230 0 0 0 0 0 0 0 0 0 1865 1856 1844 1831 1813 1790 1783 1776 1772 1770 1769 1768 1768 1768 1769 1770 1770 1770 1776 1784 1789 1795 1799 1801 1804 1804 1804 1804 1801 1800 1797 1794 1791 1788 1786 1784 1781 1778 1774 1770 1767 1764 1761 1758 1757 1755 1751 1748 1744 1741 1736 1734 1733 1731 1729 1727 1724 1723 1720 1717 1714 1712 1710 1709 1708 1706 1704 1701 1700 1699 1699 1697 1696 1694 1692 1692 1689 1688 1688 1687 1687 1686 1684 1683 1681 1678 1675 1675 1673 1671 1669 1667 1665 1663 1660 1655 1650 1646 1641 1636 1632 1625 1616 1611 1608 1605 1602 1600 1597 1595 1593 1592 1590 1589 1588 1587 1587 1587 1587 1587 1588 1589 1590 1592 1594 1597 1598 1599 1601 1602 1603 1605 1606 1608 1610 1611 1612 1613 1613 1614 1615 1616 1617 1618 1618 1618 1618 1618 1618 1619 1619 1619 1619 1619 1619 1618 1618 1617 1617 1616 1615 1614 1613 1611 1610 1609 1607 1606 1604 1602 1601 1599 1598 1596 1594 1593 1592 1591 1589 1588 1586 1586 1585 1584 1583 1582 1582 1582 1582 1582 1583 1588 1590 1592 1592 1592 1590 1589 1585 1577 1565 1553 1536 1525 1513 1500 1491 1479 1472 1469 1463 1457 1451 1445 1442 1437 1434 1431 1429 1426 1426 1423 1421 1419 1417 1415 1413 1411 1410 1409 1408 1407 1405 1403 1401 1400 1399 1398 1396 1394 1393 1390 1389 1388 1386 1384 1382 1382 1379 1378 1376 1373 1370 1368 1367 1366 1364 1363 1361 1359 1358 1357 1355 1353 1353 1352 1350 1349 1348 1346 1344 1341 1338 1337 1336 1333 1332 1330 1325 1325 0
1029 1037 1047 1056 1064 1068 1075 1082 1090 1095 1101 1106 1113 1122 1134 1148 1161 1172 1183 1187 1202 1222 1239 1253 1266 1277 1285 1294 1301 1306 1312 1315 1321 1325 1328 1331 1332 1335 1338 1345 1354 1362 1369 1373 1377 1381 1385 1390 1396 1404 1411 1420 1431 1437 1444 1451 1457 1461 1466 1473 1479 1485 1489 1492 1493 1495 1497 1500 1502 1507 1507 1507 1504 1500 1494 1479 1456 1453 0 0 0 1218 1197 1192 1190 1190 1190 1190 1190 1190 1188 1187 1186 1185 1184 1183 1182 1180 1177 1167 1152 0 0 1008 988 974 974 974 974 974 974 972 972 971 971 972 973 974 975 979 983 987 994 1004 1007 1016 1028 1057 0 1139 1165 1178 1184 1188 1188 1189 1191 1193 1193 1193 1193 1193 1192 1192 1192 1191 1191 1189 1189 1189 1189 1189 1188 1188 1184 1178 1177 1175 1166 1153 0 1066 1044 1044 1044 1047 1049 1049 1049 1049 1049 1049 1049 1050 1050 1051 1055 1056 1056 1059 1064 1070 1076 1081 1084 1088 1107 1131 1154 1171 1177 1180 1182 1182 1184 1184 1185 1186 1187 1188 1189 1189 1189 1189 1190 1190 1190 1189 1186 1186 1186 1186 1186 1185 1181 1178 1175 1172 1164 1154 1139 1119 1119 1119 1120 1120 1120 1115 1115 1115 1121 1128 1134 1135 1136 1136 1138 1138 1139 1140 1144 1147 1148 1151 1153 1155 1159 1166 1173 1179 1185 1186 1187 1187 1188 1188 1188 1187 1186 1185 1185 1185 1186 1187 1187 1187 1187 1185 1184 1184 1184 1184 1183 1183 1182 1182 1182 1182 1181 1180 1179 1171 1168 1168 1168 1168 1168 1169 1169 1169 1169 1169 1169 1169 1169 1169 1171 1172 1172 1174 1175 1175 1176 1177 1179 1181 1182 1185 1187 1188 1189 1190 1193 1194 1195 1195 1195 1196 1196 1196 1196 1197 1197 1197 1197 1198 1198 1199 1200 1200 1205 1205 1205 1210 1203 1203 1210 1222 0 0 0 0 0 0 0 0 1863 1854 1853 1844 1832 1814 1793 1786 1778 1777 1772 1763 1763 1763 1764 1764 1764 1762 1762 1762 1770 1778 1786 1790 1793 1796 1799 1799 1799 1798 1795 1793 1790 1787 1784 1782 1780 1777 1775 1771 1767 1763 1760 1757 1753 1751 1748 1747 1744 1740 1737 1734 1731 1729 1727 1725 1724 1721 1718 1716 1714 1711 1707 1706 1704 1703 1701 1700 1697 1696 1695 1695 1693 1692 1690 1689 1687 1685 1683 1682 1682 1682 1681 1680 1679 1676 1674 1673 1671 1669 1668 1665 1662 1660 1659 1658 1655 1650 1646 1641 1637 1632 1629 1622 1613 1609 1607 1605 1603 1599 1596 1593 1592 1590 1589 1588 1587 1586 1586 1586 1586 1586 1586 1588 1589 1591 1593 1594 1596 1598 1599 1601 1602 1603 1604 1606 1608 1610 1610 1611 1611 1613 1614 1615 1615 1616 1616 1616 1617 1617 1617 1617 1618 1618 1618 1618 1617 1617 1616 1616 1614 1614 1613 1612 1610 1610 1608 1607 1605 1604 1602 1600 1598 1597 1596 1594 1592 1591 1590 1589 1587 1586 1585 1584 1584 1582 1580 1580 1580 1580 1580 1581 1582 1583 1590 1590 1590 1587 1587 1582 1573 1562 1548 1533 1516 1501 1486 1476 1471 1466 1462 1458 1452 1446 1440 1437 1433 1430 1426 1424 1422 1421 1419 1415 1414 1413 1411 1409 1408 1408 1405 1404 1402 1401 1399 1398 1397 1396 1395 1394 1392 1390 1389 1387 1387 1385 1383 1381 1381 1379 1378 1375 1373 1370 1368 1366 1364 1362 1360 1358 1357 1355 1354 1353 1352 1352 1351 1349 1347 1345 1343 1341 1340 1337 1336 1332 1331 1330 1327 1323 1323 0
1036 1045 1057 1066 1073 1077 1082 1087 1093 1100 1107 1111 1117 1125 1137 1151 1165 1175 1185 1191 1205 1222 1239 1253 1266 1277 1285 1295 1304 1311 1316 1320 1324 1327 1331 1333 1336 1339 1342 1348 1356 1363 1369 1373 1377 1381 1386 1390 1397 1404 1412 1421 1431 1437 1444 1451 1457 1462 1467 1472 1479 1485 1490 1494 1495 1496 1498 1499 1501 1504 1504 1504 1502 1500 1494 1479 1448 1444 0 0 0 1216 1197 1192 1192 1190 1190 1190 1190 1190 1188 1187 1186 1185 1185 1183 1182 1180 1177 1166 1163 0 0 1008 988 975 975 975 975 975 975 972 972 971 971 972 973 978 979 980 983 987 994 1005 1012 1019 1029 1057 0 1139 1165 1178 1184 1188 1188 1189 1191 1191 1191 1191 1191 1191 1191 1191 1190 1190 1190 1188 1188 1188 1188 1188 1188 1188 1183 1177 1176 1175 1166 1153 0 1066 1048 1048 1048 1049 1050 1052 1053 1054 1054 1054 1050 1050 1050 1051 1055 1057 1058 1059 1064 1071 1077 1082 1085 1088 1107 1131 1154 1167 1176 1180 1180 1181 1182 1182 1183 1183 1185 1186 1186 1186 1187 1187 1187 1187 1187 1187 1185 1185 1184 1184 1184 1184 1178 1175 1175 1172 1163 1154 1142 1127 1127 1127 1127 1127 1124 1123 1123 1123 1128 1135 1142 1142 1146 1150 1150 1150 1152 1152 1153 1156 1156 1156 1158 1163 1170 1171 1173 1177 1182 1184 1184 1184 1184 1184 1184 1184 1184 1183 1183 1183 1183 1184 1184 1184 1184 1182 1181 1181 1181 1181 1181 1181 1180 1180 1180 1180 1180 1180 1180 1176 1174 1174 1174 1175 1175 1175 1175 1174 1174 1174 1174 1176 1176 1176 1178 1178 1178 1179 1179 1179 1179 1183 1184 1185 1186 1187 1189 1189 1191 1192 1193 1194 1195 1195 1196 1196 1196 1196 1196 1196 1197 1197 1197 1197 1198 1198 1199 1199 1203 1203 1203 1203 1203 1203 1210 1222 0 0 0 0 0 1891 1891 1873 1860 1852 1847 1844 1832 1817 1806 1794 1786 1781 1772 1762 1760 1760 1757 1757 1757 1754 1754 1754 1761 1768 1775 1781 1786 1789 1792 1792 1792 1792 1792 1790 1787 1783 1780 1777 1775 1774 1772 1768 1764 1761 1757 1753 1750 1749 1745 1742 1740 1737 1733 1730 1728 1726 1723 1721 1720 1717 1714 1712 1710 1708 1704 1703 1701 1700 1699 1696 1695 1694 1692 1691 1689 1689 1686 1685 1683 1681 1679 1678 1678 1677 1676 1675 1674 1672 1671 1669 1667 1665 1664 1662 1659 1657 1655 1651 1649 1647 1646 1641 1637 1635 1630 1625 1617 1612 1609 1607 1604 1601 1598 1595 1592 1590 1589 1588 1587 1586 1585 1585 1585 1585 1585 1586 1588 1589 1591 1591 1594 1595 1597 1598 1599 1600 1602 1603 1605 1607 1608 1609 1609 1610 1610 1612 1614 1614 1614 1614 1615 1615 1615 1615 1615 1616 1616 1616 1616 1615 1615 1614 1614 1613 1612 1610 1610 1609 1608 1607 1605 1603 1602 1600 1598 1597 1595 1594 1592 1591 1589 1588 1587 1586 1584 1583 1583 1581 1579 1579 1579 1578 1577 1577 1577 1578 1580 1581 1581 1581 1579 1575 1559 1545 1533 1525 1513 1498 1483 1474 1468 1463 1460 1455 1449 1444 1438 1436 1431 1426 1424 1421 1420 1418 1415 1412 1409 1409 1406 1405 1405 1404 1402 1400 1398 1397 1397 1395 1394 1392 1392 1390 1388 1387 1385 1385 1385 1383 1382 1381 1380 1379 1377 1374 1371 1370 1368 1365 1364 1362 1360 1358 1355 1354 1352 1352 1352 1352 1350 1348 1345 1343 1341 1339 1338 1336 1336 1332 1326 1322 1319 1318 1318 0
1041 1051 1063 1073 1079 1082 1087 1091 1097 1104 1110 1116 1122 1130 1141 1157 1171 1180 1189 1194 1207 1223 1237 1250 1262 1273 1285 1295 1304 1311 1317 1320 1324 1327 1331 1334 1338 1341 1345 1350 1356 1363 1369 1373 1377 1381 1387 1392 1399 1406 1414 1422 1431 1437 1444 1451 1457 1462 1467 1472 1478 1484 1490 1494 1495 1497 1498 1499 1501 1501 1501 1501 1500 1499 1492 1479 1446 1444 0 0 0 1215 1197 1194 1193 1191 1191 1190 1190 1189 1188 1187 1186 1185 1185 1183 1183 1181 1177 1165 1163 0 0 1008 989 975 975 975 976 976 976 972 972 971 971 972 974 978 982 983 985 987 999 1011 1020 1025 1041 1058 0 1139 1162 1176 1184 1187 1188 1189 1189 1189 1189 1189 1189 1189 1189 1189 1189 1189 1189 1187 1187 1187 1187 1187 1187 1187 1181 1177 1177 1175 1166 1153 0 1066 1050 1050 1050 1051 1051 1052 1055 1058 1060 1062 1062 1062 1064 1064 1066 1071 1071 1072 1072 1072 1079 1082 1087 1103 1115 1138 1155 1166 1176 1180 1180 1180 1180 1180 1181 1182 1183 1183 1183 1183 1183 1183 1182 1182 1181 1179 1179 1179 1179 1179 1179 1177 1175 1174 1174 1167 1161 1154 1146 1141 1140 1139 1139 1140 1140 1141 1141 1142 1145 1151 1155 1157 1160 1161 1163 1163 1163 1163 1163 1163 1165 1165 1166 1169 1171 1173 1173 1175 1175 1176 1179 1181 1182 1182 1182 1181 1181 1180 1180 1180 1180 1180 1178 1178 1178 1177 1176 1176 1176 1177 1178 1179 1179 1179 1179 1179 1179 1180 1180 1180 1180 1180 1180 1180 1181 1181 1181 1180 1180 1180 1180 1181 1181 1181 1183 1183 1183 1184 1184 1184 1185 1187 1187 1188 1188 1189 1191 1192 1192 1192 1193 1195 1195 1195 1196 1196 1196 1196 1196 1196 1196 1197 1197 1197 1197 1197 1198 1198 1200 1202 1203 1203 1203 1205 1210 1222 0 0 0 0 1871 1871 1871 1863 1856 1850 1844 1840 1832 1825 1817 1809 1791 1782 1772 1762 1754 1753 1753 1751 1750 1748 1748 1748 1752 1756 1762 1768 1773 1779 1784 1786 1786 1786 1786 1786 1784 1779 1777 1774 1772 1770 1767 1764 1760 1757 1753 1750 1748 1746 1743 1741 1736 1734 1730 1727 1724 1722 1720 1718 1715 1713 1710 1709 1707 1705 1703 1701 1699 1697 1695 1693 1691 1690 1689 1687 1686 1685 1684 1681 1680 1677 1676 1675 1674 1673 1673 1671 1670 1669 1667 1665 1664 1661 1660 1657 1656 1654 1653 1649 1648 1646 1643 1641 1637 1635 1631 1626 1620 1614 1611 1609 1607 1602 1598 1595 1593 1590 1589 1588 1587 1585 1585 1585 1584 1584 1584 1585 1586 1588 1589 1589 1591 1593 1595 1596 1597 1598 1599 1601 1602 1605 1605 1607 1607 1607 1609 1611 1612 1612 1612 1612 1612 1613 1613 1614 1614 1614 1614 1614 1614 1614 1613 1613 1613 1612 1611 1609 1609 1608 1607 1606 1605 1603 1602 1600 1598 1596 1595 1593 1592 1591 1588 1587 1585 1585 1584 1583 1581 1580 1578 1576 1576 1576 1575 1575 1575 1575 1575 1574 1574 1573 1570 1563 1544 1531 1524 1510 1497 1484 1476 1469 1463 1457 1453 1448 1444 1440 1436 1433 1429 1423 1420 1419 1417 1415 1412 1409 1408 1406 1405 1403 1402 1402 1400 1398 1396 1394 1392 1391 1390 1389 1388 1387 1385 1384 1383 1383 1383 1381 1380 1379 1378 1378 1377 1374 1371 1369 1367 1365 1363 1362 1360 1358 1355 1353 1352 1352 1351 1351 1349 1346 1343 1340 1338 1336 1336 1336 1335 1329 1317 1312 1312 1312 1310 0
1047 1055 1066 1075 1081 1085 1089 1094 1101 1109 1114 1122 1127 1135 1146 1161 1174 1185 1194 1199 1211 1224 1237 1250 1262 1273 1283 1295 1304 1311 1317 1321 1325 1328 1332 1335 1339 1342 1346 1350 1357 1363 1369 1373 1377 1382 1387 1393 1400 1406 1414 1423 1431 1437 1444 1451 1457 1462 1467 1472 1477 1484 1490 1494 1495 1497 1498 1498 1499 1499 1499 1500 1499 1497 1492 1478 1445 1444 0 0 0 1215 1197 1195 1193 1192 1191 1190 1190 1189 1188 1187 1186 1186 1185 1184 1183 1181 1179 1166 1165 0 0 1008 990 978 978 978 978 978 978 975 972 971 971 972 974 979 992 994 996 999 1014 1025 1034 1037 1044 1060 0 1137 1158 1171 1179 1184 1185 1186 1187 1187 1187 1187 1184 1184 1184 1187 1187 1187 1187 1184 1184 1184 1185 1186 1186 1186 1181 1177 1177 1175 1164 1153 0 0 1069 1068 1066 1068 1068 1068 1073 1073 1075 1077 1081 1089 1093 1094 1095 1100 1100 1100 1102 1102 1102 1106 1117 1133 1142 1145 1158 1165 1170 1177 1178 1178 1178 1178 1178 1178 1175 1174 1174 1174 1176 1177 1177 1177 1174 1171 1171 1171 1172 1172 1172 1172 1170 1166 1161 1160 1157 1155 1155 1155 1156 1156 1157 1158 1158 1160 1161 1162 1165 1167 1167 1167 1168 1168 1169 1170 1170 1171 1172 1173 1175 1176 1177 1177 1177 1176 1175 1174 1174 1174 1174 1175 1175 1175 1173 1173 1172 1172 1172 1171 1171 1170 1169 1168 1168 1168 1168 1168 1169 1170 1172 1173 1173 1173 1174 1174 1175 1178 1181 1181 1182 1182 1182 1183 1183 1184 1185 1185 1185 1185 1185 1185 1185 1185 1186 1187 1188 1188 1188 1188 1189 1189 1189 1189 1190 1191 1192 1192 1192 1193 1194 1195 1195 1195 1196 1196 1196 1196 1196 1196 1196 1196 1197 1197 1197 1197 1198 1198 1199 1200 1202 1203 1209 1219 1233 0 0 0 0 0 1842 1848 1848 1848 1848 1846 1843 1838 1832 1825 1820 1813 1807 1783 1772 1762 1754 1751 1748 1748 1744 1743 1742 1742 1742 1745 1750 1754 1757 1762 1767 1777 1780 1780 1780 1780 1780 1776 1773 1772 1770 1767 1763 1760 1757 1754 1751 1747 1744 1742 1741 1738 1734 1731 1727 1724 1721 1719 1717 1715 1712 1710 1708 1707 1705 1703 1700 1698 1695 1694 1691 1689 1687 1686 1685 1684 1683 1681 1680 1677 1675 1672 1672 1672 1670 1669 1668 1668 1666 1665 1664 1662 1660 1658 1657 1655 1653 1652 1650 1648 1646 1645 1643 1640 1637 1635 1631 1628 1623 1617 1615 1609 1608 1604 1599 1596 1594 1591 1590 1588 1587 1585 1585 1585 1584 1584 1584 1584 1586 1586 1587 1587 1589 1590 1592 1593 1595 1596 1598 1599 1599 1601 1602 1604 1605 1605 1607 1607 1609 1610 1610 1610 1610 1611 1612 1612 1613 1613 1613 1613 1613 1612 1612 1612 1612 1611 1610 1609 1608 1607 1606 1605 1604 1603 1601 1599 1597 1596 1595 1593 1591 1590 1588 1587 1585 1583 1583 1582 1581 1580 1578 1575 1574 1574 1574 1572 1569 1567 1567 1566 1565 1564 1557 1544 1529 1522 1510 1492 1484 1478 1470 1462 1455 1451 1445 1441 1437 1434 1430 1428 1423 1420 1418 1416 1414 1412 1408 1406 1404 1402 1402 1401 1401 1400 1398 1396 1394 1392 1390 1389 1387 1386 1386 1385 1383 1382 1381 1380 1379 1379 1378 1377 1377 1376 1375 1373 1371 1368 1366 1365 1362 1362 1361 1358 1355 1353 1352 1351 1350 1348 1346 1344 1341 1339 1336 1336 1335 1334 1334 1327 1314 1310 1310 1310 1309 0
1054 1062 1070 1077 1082 1086 1092 1099 1107 1115 1121 1129 1136 1146 1154 1164 1177 1187 1197 1202 1212 1224 1237 1250 1262 1273 1283 1293 1302 1311 1317 1321 1325 1328 1332 1335 1339 1342 1346 1351 1357 1363 1369 1373 1377 1382 1388 1393 1400 1406 1414 1423 1431 1437 1444 1451 1457 1462 1467 1472 1477 1484 1490 1494 1495 1497 1498 1498 1499 1499 1498 1499 1498 1494 1492 1478 1440 1437 0 0 0 1215 1198 1195 1193 1193 1191 1190 1190 1189 1188 1187 1186 1186 1186 1185 1184 1181 1179 1167 1165 0 0 0 995 994 994 995 999 0 0 0 0 0 0 0 0 1004 1011 1014 1016 1020 1023 1030 1044 1051 1060 1079 1098 1137 1147 1163 1169 1173 1179 1180 1183 1183 1183 1183 1182 1182 1182 1183 1183 1183 1183 1182 1181 1181 1181 1181 1181 1181 1181 1177 1177 1175 1164 1153 1142 1121 0 0 0 0 0 0 0 0 0 1123 1124 1124 1127 1131 1131 1134 1135 1135 1139 1139 1139 1142 1148 1156 1160 1160 1161 1163 1164 1166 1170 1170 1170 1169 1168 1166 1163 1163 1163 1163 1163 1163 1163 1163 1163 1163 1160 1158 1158 1158 1158 1158 1156 1148 1148 1148 1154 1156 1160 1165 1166 1167 1168 1168 1170 1172 1174 1175 1175 1175 1176 1176 1176 1178 1178 1178 1178 1180 1181 1181 1182 1182 1182 1182 1182 1181 1178 1175 1171 1168 1166 1163 1161 1158 1157 1155 1155 1155 1155 1157 1159 1159 1159 1159 1158 1157 1157 1157 1159 1161 1165 1166 1167 1169 1169 1172 1175 1178 1181 1182 1184 1185 1186 1186 1186 1186 1187 1188 1188 1188 1188 1188 1188 1188 1189 1190 1190 1191 1191 1191 1191 1191 1191 1191 1192 1192 1192 1193 1193 1194 1194 1195 1195 1195 1196 1196 1196 1196 1196 1196 1196 1196 1197 1197 1197 1197 1197 1197 1197 1200 1203 1204 1215 1239 0 0 0 0 0 0 1842 1847 1847 1847 1844 1839 1839 1837 1832 1826 1822 1817 1811 1805 1776 1763 1754 1751 1748 1744 1741 1737 1737 1737 1737 1741 1743 1747 1752 1753 1755 1764 1773 1773 1773 1772 1772 1772 1771 1770 1767 1763 1761 1757 1755 1751 1747 1744 1742 1740 1737 1734 1731 1728 1725 1722 1719 1717 1715 1713 1710 1708 1706 1705 1703 1699 1697 1694 1691 1689 1688 1686 1684 1683 1681 1680 1680 1678 1677 1674 1671 1669 1668 1667 1666 1665 1664 1663 1661 1661 1659 1658 1657 1656 1654 1652 1651 1649 1648 1646 1645 1643 1641 1639 1637 1635 1631 1628 1624 1619 1616 1613 1609 1607 1601 1597 1594 1592 1590 1589 1587 1586 1585 1584 1583 1583 1583 1583 1585 1585 1585 1586 1586 1587 1589 1590 1593 1594 1596 1596 1597 1599 1600 1601 1602 1604 1604 1606 1607 1607 1608 1608 1608 1609 1609 1610 1610 1611 1611 1611 1611 1611 1611 1611 1610 1610 1609 1608 1607 1606 1606 1605 1603 1602 1600 1598 1597 1596 1594 1593 1590 1589 1587 1585 1583 1582 1581 1581 1580 1578 1577 1573 1572 1570 1569 1567 1562 1559 1559 1558 1556 1551 1539 1523 1517 1508 1496 1483 1474 1467 1460 1453 1450 1445 1439 1436 1432 1429 1425 1422 1419 1417 1415 1413 1410 1407 1405 1404 1401 1401 1399 1398 1398 1396 1395 1394 1392 1390 1386 1386 1386 1385 1383 1383 1381 1379 1379 1378 1378 1377 1376 1376 1376 1375 1374 1372 1370 1367 1366 1364 1362 1362 1361 1358 1355 1352 1351 1350 1348 1348 1344 1343 1340 1338 1336 1334 1334 1334 1331 1324 1313 1309 1309 1309 1308 0
1060 1066 1074 1077 1083 1088 1095 1104 1113 1122 1128 1134 1142 1152 1161 1171 1180 1190 1199 1204 1213 1225 1237 1251 1262 1273 1283 1293 1302 1310 1317 1321 1325 1329 1332 1335 1339 1342 1346 1351 1357 1363 1369 1373 1377 1382 1388 1394 1400 1406 1414 1423 1432 1437 1445 1453 1458 1462 1467 1472 1477 1484 1490 1493 1494 1496 1496 1497 1497 1497 1497 1497 1494 1494 1487 1465 1437 1436 0 0 0 1215 1199 1195 1194 1193 1192 1191 1190 1189 1188 1187 1186 1186 1186 1185 1184 1181 1179 1170 1165 0 0 0 0 0 0 0 0 0 0 0 0 0 0 0 0 0 0 0 0 0 0 0 0 0 1099 1103 1110 1137 1147 1157 1161 1162 1165 1165 1166 1167 1170 1171 1171 1173 1173 1173 1173 1174 1174 1174 1174 1171 1168 1164 1163 1163 1161 1161 1160 1159 1155 1154 1144 1144 1144 1144 1150 1153 1153 1154 1155 1155 1156 1158 1158 1158 1156 1156 1156 1156 1160 1163 1163 1164 1165 1165 1167 1168 1169 1169 1169 1161 1155 1147 1143 1143 1142 1142 1141 1138 1137 1137 1135 1135 1134 1134 1134 1135 1135 1135 1130 1129 1129 1129 1129 1129 1130 1131 1133 1145 1154 1161 1172 1173 1173 1174 1175 1177 1177 1178 1179 1180 1181 1181 1181 1183 1184 1184 1184 1184 1184 1184 1184 1184 1185 1185 1185 1185 1182 1181 1178 1174 1170 1164 1154 1151 1149 1149 1148 1148 1148 1148 1149 1151 1153 1153 1153 1152 1152 1152 1153 1154 1155 1158 1161 1163 1164 1166 1168 1171 1174 1178 1181 1184 1185 1187 1187 1187 1188 1188 1189 1189 1190 1190 1190 1190 1190 1190 1191 1191 1192 1192 1192 1192 1192 1192 1192 1193 1193 1193 1193 1194 1194 1194 1194 1195 1195 1195 1195 1195 1196 1196 1196 1196 1196 1196 1197 1197 1197 1197 1197 1197 1197 1200 1203 1206 1215 0 0 0 0 0 0 0 1842 1843 1843 1843 1842 1839 1837 1835 1831 1826 1822 1817 1812 1805 1799 1775 1759 1754 1748 1744 1738 1733 1733 1733 1735 1737 1740 1742 1744 1746 1748 1753 1762 1764 1765 1765 1765 1765 1765 1765 1765 1761 1757 1754 1751 1748 1744 1741 1739 1737 1734 1732 1729 1726 1723 1721 1717 1715 1713 1711 1709 1706 1704 1702 1700 1697 1694 1692 1689 1688 1685 1683 1681 1680 1677 1676 1675 1674 1672 1670 1669 1667 1665 1664 1662 1662 1660 1659 1657 1656 1656 1655 1654 1653 1651 1649 1648 1647 1646 1643 1642 1640 1638 1637 1635 1632 1630 1628 1624 1621 1618 1614 1612 1609 1604 1601 1596 1593 1592 1590 1588 1586 1585 1584 1583 1583 1583 1583 1584 1584 1584 1584 1585 1585 1587 1588 1589 1590 1592 1594 1596 1597 1597 1598 1599 1601 1602 1603 1604 1605 1605 1606 1606 1607 1607 1608 1608 1608 1609 1609 1609 1609 1609 1609 1608 1608 1608 1607 1606 1606 1604 1604 1603 1601 1599 1597 1597 1595 1593 1591 1589 1587 1585 1584 1582 1580 1580 1579 1578 1577 1573 1570 1567 1567 1563 1561 1560 1555 1551 1546 1545 1539 1523 1512 1504 1495 1483 1473 1465 1456 1450 1447 1443 1439 1434 1432 1427 1422 1420 1417 1415 1413 1411 1409 1407 1404 1403 1401 1399 1399 1397 1397 1395 1392 1390 1388 1388 1387 1385 1383 1381 1379 1378 1378 1377 1377 1376 1376 1375 1374 1374 1374 1374 1373 1373 1371 1369 1367 1366 1364 1362 1362 1361 1358 1355 1352 1350 1349 1347 1346 1344 1342 1339 1337 1334 1332 1332 1332 1330 1323 1311 1308 1308 1308 1308 0
1062 1069 1075 1079 1086 1090 1097 1106 1116 1124 1130 1137 1144 1153 1163 1171 1181 1191 1201 1205 1215 1226 1238 1253 1265 1276 1284 1292 1302 1310 1317 1323 1327 1330 1333 1336 1339 1342 1347 1352 1358 1364 1370 1375 1379 1384 1389 1394 1400 1407 1414 1424 1432 1437 1446 1455 1460 1464 1468 1474 1479 1485 1489 1492 1493 1495 1496 1496 1497 1496 1497 1497 1494 1492 1483 1463 1436 1434 0 0 0 1218 1199 1194 1194 1194 1192 1191 1190 1189 1188 1187 1187 1186 1186 1185 1184 1181 1180 1171 1168 0 0 0 0 0 0 0 0 0 0 0 0 0 0 0 0 0 0 0 0 0 0 0 0 1141 1141 1142 1143 1145 1147 1147 1147 1136 0 0 0 0 0 0 0 0 0 0 0 0 0 0 0 0 0 0 0 0 0 1107 1107 1107 1122 1150 1156 1165 1172 1173 1175 1175 1175 1171 1171 1171 1173 1173 1173 1173 1172 1169 1169 1169 1169 1169 1171 1174 1176 1176 1176 1175 1173 1172 1170 1160 1149 1122 1104 1104 1104 1104 1104 1101 1101 1101 1102 1104 1105 1106 1109 1113 1115 1115 1115 1114 1112 1112 1112 1114 1117 1121 1133 1145 1154 1167 1174 1176 1176 1178 1178 1179 1181 1181 1182 1182 1183 1184 1184 1184 1185 1186 1187 1187 1187 1186 1186 1186 1186 1186 1186 1185 1182 1181 1178 1173 1169 1160 1150 1148 1146 1146 1145 1144 1144 1144 1145 1145 1148 1149 1149 1150 1150 1150 1151 1153 1154 1155 1158 1161 1163 1165 1168 1171 1174 1178 1181 1184 1186 1187 1188 1188 1189 1190 1190 1191 1191 1191 1191 1191 1191 1191 1191 1192 1192 1193 1193 1193 1193 1193 1193 1193 1194 1194 1194 1194 1194 1194 1195 1195 1195 1195 1195 1195 1195 1195 1195 1195 1195 1196 1197 1197 1198 1198 1198 1198 1198 1201 1204 1208 1216 0 0 0 0 0 0 1835 1842 1845 1845 1845 1842 1838 1836 1835 1831 1826 1823 1819 1814 1807 1802 1792 1771 1757 1750 1744 1738 1732 1732 1732 1732 1733 1733 1733 1733 1738 1738 1740 1746 1752 1758 1758 1759 1760 1761 1761 1761 1758 1754 1751 1749 1746 1743 1739 1736 1735 1733 1730 1727 1723 1721 1718 1716 1713 1711 1709 1706 1704 1701 1699 1697 1695 1692 1690 1686 1685 1683 1681 1679 1676 1674 1673 1672 1671 1670 1668 1666 1664 1662 1660 1659 1658 1657 1656 1654 1653 1653 1652 1650 1649 1648 1647 1644 1643 1642 1641 1639 1638 1636 1634 1632 1631 1628 1626 1624 1621 1618 1615 1614 1610 1606 1602 1599 1595 1593 1591 1589 1586 1585 1584 1583 1583 1583 1583 1583 1583 1584 1584 1584 1585 1585 1587 1587 1589 1589 1591 1593 1593 1594 1595 1595 1597 1599 1600 1601 1602 1602 1603 1603 1603 1605 1605 1605 1605 1606 1606 1607 1607 1608 1608 1608 1607 1607 1607 1605 1605 1604 1603 1602 1601 1599 1597 1596 1595 1593 1591 1589 1587 1585 1583 1582 1579 1579 1575 1574 1573 1571 1567 1565 1563 1559 1555 1553 1552 1548 1543 1534 1523 1509 1497 1488 1478 1472 1465 1456 1451 1445 1440 1437 1434 1429 1426 1422 1418 1416 1413 1410 1409 1406 1406 1404 1402 1400 1399 1397 1396 1395 1393 1393 1389 1388 1385 1385 1383 1382 1380 1376 1375 1374 1374 1374 1374 1374 1374 1373 1373 1373 1372 1372 1372 1371 1370 1369 1367 1366 1364 1362 1362 1360 1358 1355 1352 1350 1348 1347 1346 1344 1341 1338 1334 1331 1328 1328 1326 1323 1313 1306 1306 1306 1306 1306 0
