403 403 403 404 404 406 407 408 416 416 416 404 404 404 406 417 430 437 437 437 438 438 447 454 459 464 468 476 484 489 489 489 487 487 487 494 502 510 521 539 557 560 570 579 595 618 0 0 0 0 0 0 0 0 0 0 0 0 0 0 0 0 0 0 0 0 0 0 0 0 0 0 0 0 0 0 0 0 0 0 0 0 0 0 0 0 0 0 0 0 0 0 0 0 0 0 0 0 0 0 0 0 0 0 0 0 0 0 0 0 0 0 0 0 0 0 0 0 0 0 0 0 0 0 0 0 0 0 0 0 0 0 0 0 0 0 0 0 0 0 0 0 0 0 0 0 0 0 0 0 0 0 0 0 0 0 0 0 0 0 0 0 0 0 0 0 0 0 0 0 0 0 0 0 0 0 0 0 0 0 0 0 0 0 0 0 0 0 0 0 0 0 0 0 0 0 0 0 0 0 0 0 0 0 0 0 0 0 0 0 0 0 0 0 0 0 0 0 0 0 0 0 0 0 0 0 0 0 0 0 0 0 0 0 0 0 0 0 0 0 0 0 0 0 0 0 0 0 0 0 0 0 0 0 0 0 0 0 0 0 0 0 0 0 0 0 0 2283 2304 2304 2304 2304 2301 2301 2301 2305 2329 0 0 0 0 0 0 0 0 0 0 0 0 0 0 0 0 0 0 0 0 0 0 1405 1392 1384 1378 1375 1375 1373 1373 1370 1367 1365 1362 1360 1358 1351 1342 1334 1329 1325 1321 1320 1318 1316 1314 1313 1311 1310 1309 1307 1307 1305 1302 1301 1299 1296 1295 1292 1290 1289 1287 1285 1284 1282 1280 1278 1275 1274 1273 1271 1269 1266 1265 1262 1258 1253 1250 1246 1237 1229 1214 1186 1167 1167 1166 1164 1162 1159 1157 1154 1153 1153 1152 1152 1152 1153 1153 1153 1153 1155 1158 1165 1172 1179 1187 1194 1198 1199 1199 1200 1200 1200 1199 1198 1197 1196 1194 1193 1191 1190 1188 1187 1185 1184 1183 1181 1179 1178 1175 1172 1170 1169 1166 1162 1151 1141 1133 1124 1119 1117 1114 1112 1112 1110 1109 1106 1105 1103 1102 1101 1100 1099 1096 1096 1096 1096 1096 1097 1099 1101 1103 1103 1106 1110 1111 1112 1113 1113 1113 1113 1113 1113 1112 1111 1111 1110 1109 1107 1106 1104 1104 1102 1101 1099 1097 1096 1094 1093 1092 1090 1088 1087 1084 1083 1081 1079 1076 1074 1070 1066 1061 1058 1056 1055 1053 1052 1050 1050 1047 1044 1041 1040 1040 1038 1038 1038 1037 1038 1038 1038 1039 1040 1040 1040 1037 1036 1035 1035 1034 1034 1034 1033 1032 1032 1031 1031 1030 1029 1029 1028 1026 1023 1022 1021 1020 1019 1017 1015 1014 1013 1012 1011 1010 1010 1008 1008 1006 1005 1003 1001 998 996 996 996 996 996 995 995 995 995 996 996 996 996 996 995 994 994 993 992 991 990 989 988 987 986 985 984 984 984 984 983 983 983 983 984 986 998 1016 0 0 0 0 0 1356 1382 1402 1411 1412 1412 1412 1412 1412 1413 1413 1413 1413 1412 1411 1410 1408 1408 1407 1407 1406 1405 1404 1403 1402 1402 1400 1400 1399 1397 1396 1394 1393 1391 1389 1386 1383 1380 1377 1375 1372 1370 1366 1363 1359 1357 1354 1353 1351 1348 1344 1339 1332 1328 1325 1319 1309 0
403 403 398 398 398 398 400 407 411 411 411 402 402 402 406 414 422 427 427 427 427 427 435 443 453 463 473 483 488 489 489 489 487 487 487 494 502 510 521 535 551 554 567 579 594 617 0 0 0 0 0 0 0 0 0 0 0 0 0 0 0 0 0 0 0 0 0 0 0 0 0 0 0 0 0 0 0 0 0 0 0 0 0 0 0 0 0 0 0 0 0 0 0 0 0 0 0 0 0 0 0 0 0 0 0 0 0 0 0 0 0 0 0 0 0 0 0 0 0 0 0 0 0 0 0 0 0 0 0 0 0 0 0 0 0 0 0 0 0 0 0 0 0 0 0 0 0 0 0 0 0 0 0 0 0 0 0 0 0 0 0 0 0 0 0 0 0 0 0 0 0 0 0 0 0 0 0 0 0 0 0 0 0 0 0 0 0 0 0 0 0 0 0 0 0 0 0 0 0 0 0 0 0 0 0 0 0 0 0 0 0 0 0 0 0 0 0 0 0 0 0 0 0 0 0 0 0 0 0 0 0 0 0 0 0 0 0 0 0 0 0 0 0 0 0 0 0 0 0 0 0 0 0 0 0 0 0 0 0 0 0 0 0 0 0 0 0 0 2293 2301 2304 2305 2310 2340 0 0 0 0 0 0 0 0 0 0 0 0 0 0 0 0 0 0 0 0 0 0 0 0 0 1405 1392 1384 1378 1375 1375 1373 1370 1369 1366 1364 1361 1358 1356 1351 1342 1334 1328 1324 1321 1320 1318 1316 1314 1312 1311 1310 1309 1306 1305 1303 1301 1299 1297 1294 1293 1291 1289 1287 1285 1283 1281 1280 1278 1276 1275 1273 1271 1269 1267 1265 1263 1260 1257 1253 1250 1246 1237 1228 1214 1187 1174 1167 1167 1164 1161 1159 1157 1155 1154 1154 1153 1153 1153 1153 1153 1153 1154 1156 1158 1165 1174 1179 1187 1193 1198 1199 1199 1199 1199 1199 1199 1198 1197 1196 1194 1192 1191 1190 1188 1187 1185 1184 1183 1181 1179 1178 1175 1172 1170 1169 1166 1160 1150 1141 1133 1124 1119 1117 1114 1112 1111 1109 1107 1105 1104 1103 1101 1100 1099 1097 1096 1094 1094 1094 1095 1097 1098 1100 1102 1102 1105 1110 1111 1112 1113 1113 1114 1114 1114 1113 1112 1112 1111 1110 1109 1108 1107 1105 1104 1102 1101 1100 1098 1097 1095 1094 1092 1090 1089 1087 1085 1084 1081 1079 1076 1074 1071 1063 1058 1057 1055 1054 1052 1050 1048 1047 1045 1042 1039 1038 1037 1036 1036 1036 1036 1036 1036 1036 1036 1036 1036 1036 1034 1033 1033 1033 1033 1033 1033 1033 1032 1032 1032 1032 1032 1031 1029 1028 1027 1027 1025 1023 1021 1021 1019 1016 1015 1015 1014 1013 1013 1013 1011 1010 1010 1009 1007 1005 1002 1001 1001 1000 1000 998 996 996 996 996 996 996 996 996 995 995 994 994 993 992 991 990 989 988 987 986 985 984 984 984 983 983 983 983 984 984 986 997 1015 1069 0 0 0 0 1352 1382 1402 1412 1412 1412 1412 1412 1412 1413 1414 1414 1414 1412 1411 1410 1409 1408 1407 1407 1405 1405 1403 1403 1402 1401 1400 1399 1398 1397 1396 1394 1393 1391 1388 1386 1383 1380 1377 1374 1372 1370 1366 1362 1358 1356 1353 1353 1351 1348 1344 1338 1330 1324 1322 1319 1313 0
408 408 393 393 393 393 397 405 405 405 403 402 402 402 405 413 417 417 417 415 410 410 410 429 447 460 473 483 488 488 490 490 490 490 490 495 504 510 518 527 537 553 555 570 588 0 0 0 0 0 0 0 0 0 0 0 0 0 0 0 0 0 0 0 0 0 0 0 0 0 0 0 0 0 0 0 0 0 0 0 0 0 0 0 0 0 0 0 0 0 0 0 0 0 0 0 0 0 0 0 0 0 0 0 0 0 0 0 0 0 0 0 0 0 0 0 0 1645 1643 1632 1632 1632 1638 1644 1665 1665 1665 1638 0 0 0 0 0 0 0 0 0 0 0 0 0 0 0 0 0 0 0 0 0 0 0 0 0 0 0 0 0 0 0 0 0 0 0 0 0 0 0 0 0 0 0 0 0 0 0 0 0 0 0 0 0 0 0 0 0 0 0 0 0 0 0 0 0 0 0 0 0 0 0 0 0 0 0 0 0 0 0 0 0 0 0 0 0 0 0 0 0 0 0 0 0 0 0 0 0 0 0 0 0 0 0 0 0 0 0 0 0 0 0 0 0 0 0 0 0 0 0 0 0 0 0 0 0 0 0 0 0 0 0 0 0 0 0 0 0 0 0 0 2290 2303 2314 2320 2341 2402 0 0 0 2501 2598 2602 2602 2602 0 0 0 0 0 0 0 0 0 0 0 0 0 0 0 0 0 1407 1393 1385 1378 1375 1374 1373 1370 1368 1365 1362 1360 1357 1354 1348 1339 1333 1328 1324 1321 1320 1318 1316 1314 1312 1311 1310 1308 1306 1304 1302 1300 1297 1295 1294 1291 1288 1286 1284 1282 1280 1280 1278 1277 1275 1274 1272 1270 1268 1267 1264 1261 1260 1257 1253 1250 1246 1239 1223 1208 1189 1176 1172 1169 1164 1161 1159 1157 1155 1155 1155 1154 1153 1153 1153 1154 1154 1157 1157 1159 1165 1175 1181 1187 1193 1197 1199 1199 1199 1199 1199 1199 1198 1197 1196 1194 1192 1191 1189 1188 1186 1185 1184 1183 1181 1179 1178 1175 1172 1170 1168 1166 1160 1150 1141 1132 1124 1119 1116 1114 1112 1111 1108 1106 1104 1103 1103 1100 1098 1098 1097 1096 1094 1093 1093 1093 1094 1096 1098 1101 1102 1105 1110 1111 1112 1113 1114 1114 1114 1114 1113 1113 1112 1111 1110 1109 1108 1107 1106 1104 1103 1102 1100 1099 1098 1096 1094 1093 1091 1090 1088 1086 1084 1082 1078 1076 1073 1070 1062 1058 1056 1054 1051 1050 1048 1047 1045 1044 1041 1039 1037 1036 1036 1035 1035 1034 1034 1034 1034 1034 1034 1034 1033 1032 1032 1032 1032 1032 1033 1033 1033 1033 1033 1032 1032 1032 1032 1030 1030 1028 1028 1027 1025 1023 1022 1020 1018 1016 1016 1015 1014 1013 1013 1013 1012 1011 1010 1008 1006 1005 1004 1003 1002 1001 1000 997 997 997 997 997 997 996 996 995 995 994 994 992 992 991 990 989 988 987 985 985 984 984 984 983 983 983 983 984 985 987 995 1012 1069 0 0 0 0 1349 1382 1402 1413 1413 1413 1412 1412 1412 1414 1414 1414 1414 1412 1411 1410 1409 1408 1407 1406 1405 1404 1403 1402 1402 1401 1400 1399 1398 1397 1396 1394 1393 1390 1388 1386 1383 1380 1378 1374 1371 1368 1365 1361 1358 1355 1352 1352 1351 1350 1345 1338 1328 1323 1319 1317 1314 0
417 417 393 393 393 393 394 399 401 401 401 401 401 403 405 410 412 412 412 409 409 409 409 415 435 460 473 483 487 488 491 495 496 497 499 499 504 510 512 515 523 538 540 561 583 0 0 0 0 0 0 0 0 0 0 0 0 0 0 0 0 0 0 0 0 0 0 0 0 0 0 0 0 0 0 0 0 0 0 0 0 0 0 0 0 0 0 0 0 0 0 0 0 0 0 0 0 0 0 0 0 0 0 0 0 0 0 0 0 0 0 0 0 0 0 0 1643 1643 1643 1632 1632 1632 1638 1644 1656 1656 1656 1638 0 0 0 0 0 0 1592 1592 1592 1566 1553 1553 1553 1561 1569 1572 1576 1587 1593 1594 1594 1594 1592 1582 1582 1582 1586 0 0 0 0 0 0 0 0 0 0 0 0 0 0 0 0 0 0 0 0 0 0 0 0 0 0 0 0 0 0 1561 1555 1554 0 0 0 0 1547 1549 1552 1552 1552 1548 1548 1546 1536 0 0 0 0 0 0 0 0 0 0 0 0 0 0 0 0 0 0 0 0 0 0 0 0 0 0 0 0 0 0 0 0 0 0 0 0 0 0 0 0 0 0 0 0 0 0 0 0 0 0 0 0 0 0 0 0 0 0 0 0 0 0 0 0 0 0 0 2283 2302 2314 2339 2378 0 0 0 2516 2591 2672 2672 2672 2633 2564 0 0 0 0 0 0 0 0 0 0 0 0 0 0 0 0 1410 1394 1385 1378 1374 1373 1373 1370 1367 1365 1362 1359 1355 1353 1347 1339 1332 1328 1324 1321 1320 1318 1316 1314 1312 1312 1310 1308 1306 1304 1301 1300 1297 1295 1294 1291 1287 1283 1282 1281 1279 1278 1276 1274 1274 1273 1272 1269 1266 1263 1262 1260 1258 1256 1253 1250 1246 1239 1223 1208 1192 1182 1177 1171 1165 1161 1159 1157 1156 1156 1155 1155 1153 1153 1153 1154 1157 1160 1160 1162 1168 1180 1184 1188 1193 1197 1198 1199 1199 1199 1199 1199 1198 1197 1196 1194 1192 1191 1189 1188 1186 1185 1184 1182 1181 1179 1178 1175 1172 1170 1167 1166 1158 1150 1142 1132 1124 1119 1116 1114 1113 1110 1108 1106 1103 1103 1101 1099 1097 1097 1096 1095 1094 1093 1092 1092 1092 1094 1098 1101 1102 1105 1110 1112 1112 1113 1114 1114 1114 1114 1114 1113 1112 1111 1110 1109 1108 1107 1106 1105 1103 1102 1101 1099 1098 1096 1094 1093 1092 1090 1088 1086 1084 1082 1078 1074 1072 1069 1061 1058 1054 1052 1050 1047 1046 1045 1044 1042 1040 1038 1036 1035 1034 1034 1033 1033 1033 1032 1032 1032 1032 1032 1032 1032 1031 1031 1032 1032 1032 1033 1033 1033 1033 1033 1033 1032 1032 1031 1031 1030 1029 1027 1026 1026 1024 1023 1021 1020 1018 1017 1016 1015 1015 1014 1014 1013 1011 1009 1008 1006 1006 1004 1003 1003 1002 1000 999 999 998 998 997 996 996 995 994 994 994 992 992 991 990 989 988 987 985 985 984 983 983 983 983 983 983 984 987 987 995 1012 1069 0 0 0 0 1349 1381 1402 1413 1413 1413 1413 1413 1414 1414 1414 1414 1413 1412 1411 1410 1409 1407 1407 1406 1405 1404 1403 1402 1401 1400 1399 1398 1397 1397 1395 1393 1392 1390 1388 1386 1383 1381 1378 1374 1370 1368 1364 1360 1358 1355 1352 1352 1352 1350 1345 1337 1326 1323 1317 1317 1314 0
418 418 393 393 378 378 378 382 397 398 399 399 401 403 405 409 409 409 409 407 406 405 405 406 419 451 472 475 483 485 491 495 502 502 504 504 504 504 506 508 508 532 539 558 583 0 0 0 0 0 0 0 0 0 0 0 0 0 0 0 0 0 0 0 0 0 0 0 0 0 0 0 0 0 0 0 0 0 0 0 0 0 0 0 0 0 0 0 0 0 0 0 0 0 0 0 0 0 0 0 0 0 0 0 0 0 0 0 0 0 0 0 0 0 0 0 1643 1643 1643 1632 1632 1632 1638 1644 1656 1656 1656 1638 0 0 0 0 0 1585 1585 1584 1575 1559 1548 1548 1548 1558 1567 1571 1573 1578 1581 1582 1582 1581 1580 1579 1579 1579 1580 1589 0 0 0 0 0 0 0 0 0 0 0 0 0 0 0 0 0 0 0 0 0 0 0 0 0 0 0 0 1555 1545 1540 1530 1518 1517 1517 1517 1525 1525 1530 1532 1532 1532 1528 1527 1506 1486 1466 1449 0 0 0 0 0 0 0 0 0 0 0 0 0 0 0 0 0 0 0 0 0 0 0 0 0 0 0 0 0 0 0 0 0 0 0 0 0 0 0 0 0 0 0 0 0 0 0 0 0 0 0 0 0 0 0 0 0 0 0 0 0 0 0 0 2273 2288 2314 2340 2404 0 0 0 2517 2591 2672 2672 2672 2633 2564 0 0 0 0 0 0 0 0 0 0 0 0 0 0 0 0 1410 1397 1385 1378 1373 1370 1370 1369 1367 1365 1362 1359 1354 1351 1346 1339 1332 1328 1324 1322 1320 1318 1316 1314 1313 1312 1310 1308 1306 1304 1301 1299 1297 1295 1293 1290 1287 1282 1280 1279 1276 1275 1273 1272 1272 1271 1269 1268 1264 1260 1258 1258 1256 1254 1251 1249 1246 1239 1223 1208 1199 1189 1182 1174 1167 1163 1160 1159 1159 1158 1157 1155 1153 1153 1153 1154 1159 1162 1162 1165 1172 1180 1184 1188 1192 1197 1198 1199 1199 1199 1199 1198 1198 1196 1195 1193 1192 1190 1189 1188 1186 1185 1184 1182 1181 1179 1178 1175 1172 1170 1167 1164 1158 1152 1143 1131 1124 1119 1116 1114 1113 1110 1108 1105 1103 1102 1100 1098 1097 1095 1095 1095 1094 1093 1092 1092 1092 1094 1098 1101 1102 1106 1110 1112 1112 1114 1114 1114 1114 1114 1114 1113 1112 1111 1110 1109 1108 1107 1106 1105 1104 1102 1101 1099 1098 1096 1095 1093 1092 1090 1088 1086 1084 1082 1078 1074 1070 1068 1061 1055 1052 1050 1047 1045 1043 1042 1041 1040 1039 1038 1036 1034 1034 1033 1032 1031 1031 1031 1031 1031 1031 1030 1030 1030 1030 1030 1031 1032 1032 1033 1033 1033 1033 1033 1033 1033 1033 1033 1031 1031 1030 1028 1027 1027 1025 1024 1023 1021 1020 1019 1018 1017 1016 1016 1015 1014 1012 1011 1010 1008 1007 1006 1005 1004 1002 1001 1001 1000 999 998 997 997 996 995 994 994 994 992 992 991 990 989 987 987 985 985 984 984 983 983 983 983 983 985 989 989 995 1012 1032 0 0 0 0 1349 1380 1402 1412 1413 1413 1414 1415 1415 1415 1414 1414 1413 1412 1411 1410 1409 1407 1406 1406 1405 1404 1402 1401 1400 1399 1399 1398 1396 1395 1395 1393 1392 1390 1388 1386 1383 1381 1378 1374 1370 1366 1362 1360 1357 1354 1351 1351 1351 1350 1345 1337 1324 1323 1323 1317 1323 0
427 427 398 398 378 371 371 371 387 393 397 398 400 403 404 408 408 408 408 406 406 405 399 399 399 0 453 468 470 479 490 500 505 505 505 500 499 499 499 500 508 528 539 555 578 0 0 0 0 0 0 0 0 0 0 0 0 0 0 0 0 0 0 0 0 0 0 0 0 0 0 0 0 0 0 0 0 0 0 0 0 0 0 0 0 0 0 0 0 0 0 0 0 0 0 0 0 0 0 0 0 0 0 0 0 0 0 0 0 0 0 0 0 0 0 0 1645 1645 1645 1645 1645 1645 1646 1662 1662 1662 1656 1638 0 0 0 0 0 1574 1574 1574 1574 1559 1548 1548 1548 1555 1561 1563 1564 1568 1570 1571 1571 1571 1571 1571 1573 1577 1580 1589 0 0 0 0 0 0 0 0 0 0 0 0 0 0 0 0 0 0 0 0 0 0 0 0 0 0 0 0 1539 1527 1520 1516 1505 1505 1505 1505 1513 1521 1521 1521 1519 1518 1515 1506 1483 1466 1457 1449 1430 0 0 0 0 0 0 0 0 0 0 0 0 0 0 0 0 0 0 0 0 0 0 0 0 0 0 0 0 0 0 0 0 0 0 0 0 0 0 0 0 0 0 0 0 0 0 0 0 0 0 0 0 0 0 0 0 0 0 0 0 0 0 0 2271 2285 2308 2340 2404 0 0 0 2517 2591 2672 2672 2672 2633 2521 0 0 0 0 0 0 0 0 0 0 0 0 0 0 0 0 1411 1403 1385 1376 1373 1370 1369 1369 1367 1364 1362 1358 1353 1350 1346 1338 1331 1328 1325 1323 1321 1319 1317 1314 1313 1312 1309 1307 1305 1303 1300 1298 1297 1293 1290 1287 1284 1281 1279 1277 1275 1272 1271 1270 1269 1267 1265 1264 1261 1258 1255 1255 1254 1251 1249 1247 1244 1239 1229 1212 1199 1191 1184 1175 1169 1166 1163 1162 1162 1162 1160 1159 1157 1157 1157 1157 1161 1162 1164 1167 1173 1180 1184 1188 1193 1196 1198 1199 1199 1199 1199 1198 1197 1196 1195 1193 1192 1190 1189 1188 1186 1185 1183 1182 1181 1179 1177 1174 1172 1169 1167 1164 1158 1152 1143 1131 1124 1119 1116 1114 1113 1110 1107 1105 1102 1101 1099 1097 1096 1095 1094 1093 1093 1093 1092 1092 1092 1094 1098 1101 1103 1107 1111 1112 1113 1114 1114 1114 1114 1114 1114 1113 1112 1111 1110 1109 1108 1107 1106 1105 1104 1102 1101 1099 1098 1096 1095 1094 1092 1090 1088 1086 1084 1081 1078 1073 1068 1062 1057 1054 1052 1050 1047 1044 1042 1040 1038 1037 1036 1035 1035 1033 1032 1031 1030 1030 1030 1030 1030 1030 1029 1029 1029 1029 1029 1029 1031 1032 1032 1033 1034 1034 1034 1034 1034 1034 1034 1033 1033 1032 1031 1029 1028 1027 1026 1025 1024 1023 1022 1021 1019 1019 1018 1017 1016 1015 1013 1012 1011 1010 1008 1007 1006 1004 1003 1002 1001 1001 1000 999 998 998 996 995 994 994 993 992 992 991 990 989 987 986 985 985 984 984 983 983 983 983 983 985 989 996 1008 1014 0 0 0 0 1337 1349 1380 1402 1412 1412 1413 1414 1416 1416 1416 1415 1414 1413 1412 1411 1410 1409 1407 1406 1405 1405 1403 1402 1401 1400 1399 1398 1397 1396 1395 1393 1392 1391 1388 1387 1385 1383 1381 1377 1374 1370 1366 1362 1358 1356 1353 1351 1351 1350 1350 1341 1335 1324 1323 1323 1317 1323 0
427 427 398 398 378 371 371 371 380 389 395 398 400 400 401 404 406 406 407 407 407 406 404 0 404 415 438 458 460 476 490 500 505 505 505 494 494 494 494 498 508 528 539 545 568 0 0 0 0 0 0 0 0 0 0 0 0 0 0 0 0 0 0 0 0 0 0 1502 1524 1524 1524 0 0 0 0 0 0 0 0 0 0 0 0 0 0 0 0 0 0 0 0 0 0 0 0 0 0 0 0 0 0 0 0 0 0 0 0 0 0 0 0 0 0 0 0 0 0 1651 1651 1651 1653 1659 1662 1669 1669 1669 1665 1648 0 0 0 0 0 1574 1574 1574 1574 1559 1548 1548 1548 1550 1556 1557 1562 1563 1567 1569 1569 1570 1570 1571 1573 1577 1580 1604 1636 0 0 0 0 0 0 0 0 0 1734 1733 1720 0 0 0 0 0 0 0 0 0 0 0 0 0 0 0 1539 1521 1511 1503 1492 1492 1492 1492 1503 1519 1519 1519 1510 1502 1495 1483 1470 1461 1457 1449 1430 0 0 0 0 0 0 0 0 0 0 0 0 0 0 0 0 0 0 0 0 0 0 0 0 0 0 0 0 0 0 0 0 0 0 0 0 0 0 0 0 0 0 0 0 0 0 0 0 0 0 0 0 0 0 0 0 0 0 0 0 0 0 0 0 2276 2292 2340 0 0 0 0 0 2564 2564 2564 2564 2505 0 0 0 0 0 0 0 0 0 0 0 0 0 0 0 0 0 1420 1408 1385 1376 1372 1369 1368 1367 1366 1364 1361 1356 1353 1348 1343 1337 1331 1328 1325 1323 1321 1319 1317 1314 1313 1311 1309 1307 1303 1301 1298 1297 1294 1289 1285 1284 1282 1280 1277 1276 1274 1272 1269 1267 1263 1261 1260 1258 1257 1253 1253 1253 1251 1250 1248 1245 1241 1239 1230 1212 1199 1191 1184 1177 1172 1167 1167 1167 1167 1166 1162 1162 1160 1160 1160 1161 1161 1163 1166 1168 1174 1180 1185 1189 1194 1196 1197 1199 1199 1199 1199 1198 1197 1196 1195 1193 1192 1190 1189 1187 1186 1184 1183 1181 1180 1179 1177 1174 1171 1169 1167 1164 1159 1154 1143 1131 1124 1119 1116 1114 1113 1110 1107 1104 1102 1101 1099 1097 1096 1094 1093 1093 1092 1092 1092 1093 1093 1095 1098 1101 1104 1108 1111 1113 1114 1114 1114 1114 1114 1114 1114 1113 1112 1111 1110 1109 1108 1107 1106 1105 1104 1102 1101 1099 1098 1096 1095 1094 1092 1090 1088 1086 1083 1080 1076 1072 1068 1062 1057 1053 1051 1049 1045 1042 1040 1039 1038 1037 1036 1035 1034 1032 1031 1031 1030 1029 1029 1029 1029 1029 1029 1029 1029 1029 1029 1029 1031 1032 1032 1033 1033 1034 1034 1034 1035 1035 1034 1034 1033 1033 1031 1031 1029 1028 1027 1026 1025 1024 1023 1021 1021 1019 1019 1018 1016 1015 1014 1013 1012 1010 1009 1008 1007 1005 1004 1003 1002 1002 1001 999 998 998 996 996 995 994 993 993 992 991 990 989 987 986 985 985 984 984 983 983 983 983 983 985 989 996 1008 0 0 0 0 0 1354 1357 1380 1406 1412 1412 1413 1414 1416 1416 1416 1415 1414 1413 1412 1411 1410 1409 1407 1406 1405 1404 1402 1401 1401 1399 1398 1397 1395 1394 1394 1392 1391 1390 1388 1386 1385 1383 1381 1377 1374 1370 1365 1361 1358 1354 1352 1351 1350 1349 1348 1341 1332 1323 1323 1323 1315 1323 0
427 427 398 398 380 376 376 376 378 386 392 395 397 398 398 399 406 406 407 408 407 406 404 404 404 415 433 452 455 470 487 500 505 505 505 494 490 490 490 498 509 528 539 545 556 567 0 0 0 0 0 0 0 0 0 0 0 0 0 0 0 0 0 0 0 1441 1473 1502 1524 1540 1552 1552 1552 1555 1555 1561 1573 1582 1592 1605 1608 1620 1626 1626 1628 1631 1634 1641 1645 1651 1664 1691 1707 1707 1707 1676 0 0 0 0 0 0 0 0 0 0 0 0 0 0 0 0 0 0 0 0 0 0 0 0 0 0 0 0 0 0 0 0 0 0 0 0 0 0 1574 1574 1574 1571 1558 1548 1548 1548 1550 1557 1562 1563 1567 1569 1569 1570 1570 1571 1575 1578 1596 1626 1676 0 0 0 0 0 0 0 0 1741 1741 1741 1752 1760 0 0 0 0 0 0 0 0 0 0 0 0 0 0 1539 1521 1511 1503 1492 1492 1492 1492 1503 1519 1519 1519 1501 1491 1484 1468 1459 1459 1457 1454 1454 0 0 0 0 0 0 0 0 0 0 0 0 0 0 0 0 0 0 0 0 0 0 0 0 0 0 0 0 0 0 0 0 0 0 0 0 0 0 0 0 0 0 0 0 0 0 0 0 0 0 0 0 0 0 0 0 0 0 0 0 0 0 0 0 0 0 0 0 0 0 0 0 0 0 0 0 0 0 0 0 0 0 0 0 0 0 0 0 0 0 0 0 0 0 1420 1408 1390 1375 1372 1369 1368 1365 1364 1361 1359 1356 1351 1346 1341 1336 1331 1328 1325 1323 1321 1319 1317 1314 1313 1311 1309 1307 1303 1301 1296 1294 1290 1287 1282 1278 1277 1274 1274 1273 1272 1272 1264 1257 1256 1255 1252 1252 1252 1251 1250 1249 1249 1248 1246 1243 1238 1237 1231 1212 1199 1192 1186 1181 1176 1173 1171 1171 1170 1169 1165 1163 1161 1161 1161 1161 1162 1164 1167 1172 1176 1180 1185 1191 1194 1196 1197 1198 1198 1198 1198 1198 1197 1196 1194 1193 1192 1190 1188 1187 1185 1184 1182 1181 1179 1178 1176 1173 1170 1169 1167 1164 1161 1154 1143 1133 1125 1120 1116 1114 1113 1110 1106 1104 1102 1101 1099 1097 1096 1094 1093 1093 1092 1092 1092 1093 1094 1096 1098 1101 1105 1109 1112 1114 1114 1115 1115 1115 1115 1114 1114 1113 1112 1111 1110 1109 1108 1107 1105 1104 1103 1102 1101 1099 1098 1097 1095 1094 1092 1090 1089 1086 1083 1079 1075 1071 1067 1062 1057 1053 1051 1048 1044 1042 1040 1039 1038 1037 1036 1035 1034 1032 1031 1031 1030 1029 1028 1028 1028 1028 1028 1028 1028 1028 1028 1029 1030 1031 1032 1032 1034 1034 1034 1035 1035 1035 1035 1035 1033 1033 1032 1031 1030 1029 1028 1027 1025 1024 1023 1022 1021 1020 1019 1018 1017 1016 1014 1014 1012 1011 1010 1008 1007 1006 1004 1003 1003 1002 1001 1000 999 998 997 996 995 994 993 993 992 991 990 989 987 986 986 985 984 984 983 983 983 983 983 985 988 997 1008 0 0 0 0 0 1354 1366 1399 1410 1412 1412 1414 1414 1416 1416 1416 1415 1414 1413 1412 1410 1410 1408 1407 1406 1404 1404 1402 1401 1400 1399 1398 1396 1395 1393 1393 1391 1391 1389 1386 1385 1383 1382 1379 1377 1373 1370 1365 1361 1358 1354 1351 1349 1346 1346 1343 1337 1329 1321 1314 1312 1309 1309 0
418 418 397 397 385 378 378 378 378 383 389 393 394 396 396 397 406 407 409 409 408 408 404 404 404 415 431 446 448 463 474 486 500 500 500 494 490 490 490 499 512 530 539 545 554 558 562 570 596 618 0 0 0 0 0 0 0 0 0 0 0 0 0 0 1420 1441 1473 1502 1524 1540 1552 1552 1552 1555 1555 1568 1583 1592 1605 1614 1620 1623 1626 1630 1633 1636 1642 1644 1649 1657 1664 1691 1707 1707 1707 1676 1637 0 0 0 0 0 0 0 0 0 0 0 0 0 0 0 0 0 0 0 0 0 0 0 0 0 0 0 0 0 0 0 0 0 0 0 0 0 0 1588 1587 1587 1587 1570 1550 1550 1550 1557 1562 1563 1567 1569 1569 1570 1571 1583 1598 1600 1621 1659 1702 0 0 0 0 0 0 0 1751 1741 1741 1741 1752 1760 1771 1778 1785 1801 1801 1822 1822 1822 0 0 0 0 0 0 1544 1521 1511 1503 1492 1492 1492 1492 1503 1519 1519 1519 1501 1491 1484 1468 1464 1464 1464 1485 1488 0 0 0 0 0 0 0 0 0 0 0 0 0 0 0 0 0 0 0 0 0 0 0 0 0 0 0 0 0 0 0 0 0 0 0 0 0 0 0 0 0 0 0 0 0 0 0 0 0 0 0 0 0 0 0 0 0 0 0 0 0 0 0 0 2239 2257 2266 0 0 0 0 0 0 0 0 0 0 0 0 0 0 0 0 0 0 0 0 0 0 0 0 0 0 0 1423 1408 1390 1375 1369 1368 1363 1362 1361 1359 1356 1352 1349 1344 1338 1335 1331 1328 1325 1323 1321 1319 1317 1314 1312 1311 1309 1307 1303 1301 1296 1290 1285 1281 1271 1269 1267 1267 1267 1267 1267 1267 1259 1253 1253 1252 1252 1252 1251 1250 1250 1245 1243 1242 1242 1239 1238 1237 1232 1215 1200 1193 1187 1185 1182 1180 1178 1174 1173 1171 1167 1163 1161 1161 1161 1161 1164 1165 1169 1174 1177 1180 1185 1191 1194 1196 1197 1198 1198 1198 1197 1197 1196 1195 1193 1192 1191 1190 1188 1186 1185 1183 1182 1180 1179 1177 1175 1173 1170 1167 1165 1164 1161 1154 1143 1133 1127 1122 1118 1116 1113 1110 1106 1104 1102 1101 1099 1098 1096 1094 1093 1093 1093 1093 1093 1094 1095 1096 1098 1101 1105 1109 1112 1114 1114 1115 1115 1115 1115 1114 1114 1113 1112 1110 1110 1109 1108 1107 1105 1104 1103 1102 1101 1099 1098 1096 1095 1094 1092 1090 1089 1086 1083 1079 1075 1070 1067 1060 1054 1050 1050 1047 1044 1042 1040 1039 1038 1038 1037 1035 1034 1032 1031 1031 1029 1029 1027 1027 1027 1028 1028 1028 1028 1028 1028 1029 1030 1031 1031 1032 1033 1034 1034 1035 1035 1035 1035 1035 1034 1033 1032 1031 1030 1029 1028 1027 1026 1025 1024 1022 1022 1020 1020 1018 1017 1016 1015 1014 1013 1012 1010 1009 1008 1007 1005 1005 1003 1002 1001 1000 999 998 997 996 995 995 993 993 992 991 990 989 987 986 986 985 984 984 983 983 983 983 983 985 987 996 1008 0 0 0 0 0 1354 1372 1400 1412 1412 1413 1413 1413 1414 1414 1414 1414 1414 1413 1412 1410 1410 1408 1407 1406 1404 1403 1402 1401 1399 1399 1397 1396 1394 1393 1392 1390 1389 1388 1386 1384 1381 1380 1379 1376 1373 1369 1365 1360 1356 1353 1350 1348 1345 1343 1340 1335 1328 1321 1312 1307 1304 1298 0
400 400 397 397 386 378 377 377 377 382 385 389 392 393 395 397 403 406 409 409 409 408 408 408 411 416 430 435 443 446 453 462 471 488 488 488 490 490 490 501 520 530 541 546 550 553 556 567 586 605 618 0 0 0 0 0 0 0 0 0 0 0 0 0 1420 1441 1473 1497 1516 1540 1552 1552 1552 1555 1555 1568 1583 1592 1605 1614 1620 1623 1626 1630 1633 1636 1642 1644 1649 1657 1664 1691 1707 1707 1707 1676 1646 0 0 0 0 0 0 0 0 0 0 0 0 0 0 0 0 0 0 0 0 0 0 0 0 0 0 0 0 0 0 0 0 0 0 0 0 0 0 1612 1609 1606 1603 1571 1550 1550 1550 1562 1564 1571 1572 1585 1588 1589 1591 1601 1615 1631 1654 1679 1702 1743 0 0 0 0 0 0 1751 1741 1741 1741 1752 1760 1771 1771 1785 1786 1771 1753 1740 1735 1735 0 0 0 0 1603 1571 1558 1551 1542 1521 1503 1503 1503 1517 1522 1522 1522 1501 1491 1484 1468 1468 1468 1491 1521 1540 0 0 0 0 0 0 0 0 0 0 0 0 0 0 0 0 0 0 0 0 0 0 0 0 0 0 0 0 0 0 0 0 0 0 0 0 0 0 0 0 0 0 0 0 0 0 0 0 0 0 0 0 0 0 0 0 0 0 0 0 0 0 0 2188 2207 2213 2224 2233 0 0 0 0 0 0 0 0 0 0 0 0 0 0 0 0 0 0 0 0 0 0 0 0 0 0 1422 1404 1390 1377 1368 1363 1360 1360 1360 1358 1354 1351 1348 1343 1337 1333 1330 1327 1325 1323 1321 1319 1317 1314 1312 1311 1309 1307 1304 1301 1296 1290 1282 1272 1259 1256 1255 1255 1250 1248 1247 1247 1245 1245 1241 1240 1240 1240 1245 1245 1245 1241 1241 1241 1239 1237 1236 1235 1232 1218 1200 1198 1194 1193 1188 1184 1181 1178 1178 1176 1170 1164 1162 1162 1162 1163 1165 1168 1171 1174 1178 1180 1186 1191 1194 1196 1196 1196 1197 1197 1196 1195 1195 1194 1192 1191 1189 1189 1187 1186 1184 1183 1182 1179 1179 1177 1175 1173 1169 1167 1164 1162 1161 1154 1142 1133 1127 1124 1120 1117 1114 1111 1106 1104 1102 1101 1099 1098 1096 1094 1093 1093 1093 1093 1094 1095 1095 1096 1097 1101 1105 1109 1112 1113 1114 1115 1115 1115 1115 1114 1113 1113 1112 1110 1110 1108 1107 1106 1105 1104 1103 1102 1101 1099 1098 1096 1095 1094 1092 1090 1089 1086 1083 1079 1075 1070 1067 1059 1053 1050 1048 1046 1044 1042 1041 1040 1039 1038 1038 1035 1034 1032 1031 1031 1029 1028 1027 1027 1027 1027 1028 1028 1028 1028 1028 1029 1030 1030 1031 1032 1033 1034 1034 1035 1035 1035 1035 1035 1034 1033 1032 1031 1030 1029 1028 1027 1026 1025 1024 1023 1022 1021 1020 1019 1017 1016 1015 1014 1013 1012 1011 1009 1008 1007 1005 1005 1004 1003 1002 1001 1000 998 997 996 995 995 994 993 992 991 990 989 988 986 986 985 984 984 984 983 983 983 983 984 986 995 1007 0 0 0 0 0 1354 1374 1402 1411 1412 1413 1413 1413 1413 1413 1413 1413 1413 1412 1411 1410 1410 1408 1407 1405 1404 1403 1402 1400 1399 1398 1397 1395 1394 1393 1391 1389 1388 1386 1384 1382 1379 1378 1378 1375 1371 1367 1362 1359 1355 1352 1349 1346 1344 1343 1339 1334 1327 1321 1312 1304 1297 1297 0
400 400 397 397 386 380 375 375 375 382 385 387 389 390 395 397 401 406 410 410 410 410 410 410 411 416 426 426 427 431 437 445 466 487 488 488 490 490 490 501 520 531 542 547 550 553 553 562 578 599 617 630 0 0 0 0 0 0 0 0 0 0 0 0 1415 1440 1465 1484 1501 1521 1539 1545 1547 1548 1550 1568 1583 1592 1605 1614 1620 1623 1625 1630 1633 1636 1642 1644 1649 1657 1664 1670 1670 1671 1671 1667 1667 1667 0 0 0 0 0 0 0 0 0 0 0 0 0 0 0 0 0 0 0 0 0 0 0 0 0 2128 2141 2148 2162 2171 0 0 0 0 0 0 0 0 0 0 0 0 0 0 0 1639 1640 1647 1645 1640 1645 1646 1646 1658 1666 1676 1681 1685 1702 0 0 0 0 0 0 0 0 0 0 0 0 0 0 0 0 0 0 1694 1694 1696 1694 1694 1687 1664 1644 1609 1602 1588 1588 1586 1582 1567 1557 1557 1557 1561 1561 1561 1540 1521 1513 1509 1509 1509 0 0 0 0 0 0 0 0 0 0 0 0 0 0 0 0 0 0 0 0 0 0 0 0 0 0 0 0 0 0 0 0 0 0 0 0 0 0 0 0 0 0 0 0 0 0 1866 1866 1861 1854 1854 1854 0 0 0 0 0 0 0 0 0 0 0 0 0 0 0 0 0 0 0 0 0 0 0 0 0 0 0 0 0 0 0 0 0 0 0 0 0 0 0 0 0 0 0 0 0 1420 1402 1390 1377 1367 1362 1360 1360 1359 1357 1354 1351 1348 1342 1337 1333 1329 1327 1325 1323 1321 1319 1317 1315 1312 1311 1309 1307 1304 1303 1297 1290 1281 1269 1252 1243 1242 1239 1231 1230 1228 1228 1228 1228 1226 1219 1219 1219 1222 1230 1234 1235 1235 1235 1233 1233 1232 1232 1232 1220 1216 1210 1205 1201 1191 1187 1186 1185 1184 1182 1176 1170 1167 1163 1163 1163 1166 1169 1172 1174 1179 1181 1186 1191 1192 1195 1196 1196 1195 1195 1194 1194 1194 1193 1191 1190 1189 1187 1186 1184 1183 1182 1180 1179 1178 1177 1175 1172 1169 1167 1163 1160 1159 1154 1142 1135 1128 1124 1120 1118 1115 1112 1107 1104 1103 1101 1100 1098 1096 1095 1094 1094 1094 1094 1095 1095 1095 1096 1097 1101 1106 1109 1112 1113 1114 1115 1115 1115 1115 1114 1113 1112 1112 1110 1109 1108 1107 1106 1105 1103 1102 1101 1100 1099 1098 1096 1095 1094 1092 1090 1087 1086 1082 1078 1075 1071 1067 1059 1053 1050 1048 1046 1044 1044 1041 1040 1039 1038 1038 1035 1034 1032 1031 1031 1029 1028 1027 1027 1027 1027 1027 1027 1028 1028 1028 1028 1030 1030 1031 1032 1033 1034 1034 1035 1035 1035 1035 1035 1034 1033 1032 1031 1030 1030 1028 1027 1026 1025 1024 1023 1022 1021 1020 1019 1017 1017 1015 1014 1013 1012 1011 1010 1008 1007 1006 1005 1004 1003 1002 1001 1000 999 998 996 996 995 994 993 992 991 990 989 988 987 986 985 985 984 984 984 984 984 984 984 986 995 996 0 0 0 0 0 1354 1375 1402 1411 1412 1412 1412 1412 1412 1412 1412 1412 1412 1411 1410 1410 1409 1408 1406 1405 1404 1403 1402 1400 1399 1398 1396 1395 1393 1391 1390 1388 1386 1384 1382 1379 1377 1376 1375 1373 1369 1364 1360 1357 1353 1350 1347 1344 1344 1343 1339 1334 1327 1324 1312 1304 1297 1293 0
400 400 399 399 394 385 375 375 375 382 385 387 387 389 392 396 400 406 410 411 412 412 412 412 412 416 419 419 424 431 437 445 466 479 488 488 494 494 494 508 520 531 542 547 550 550 553 554 569 587 608 623 0 0 0 0 0 0 0 0 0 0 0 0 1405 1430 1443 1450 1461 1483 1496 1503 1511 1517 1520 1537 1552 1561 1571 1575 1579 1581 1582 1589 1602 1613 1615 1624 1635 1647 1664 1670 1670 1671 1671 1671 1671 1687 0 0 0 0 0 0 0 0 0 0 0 0 0 0 0 0 0 0 0 0 0 0 0 0 0 0 2141 2148 2162 2171 0 0 0 0 0 0 0 0 0 0 0 0 0 0 0 0 1640 1647 1645 1640 1645 1646 1646 1658 1666 1676 1681 1685 0 0 0 0 0 0 0 0 0 0 0 0 0 0 0 0 0 0 0 0 1672 1672 1672 1669 1661 1654 1643 1609 1602 1588 1588 1586 1582 1567 1557 1557 1557 1561 1561 1561 1540 1521 1520 1520 1520 1538 0 0 0 0 0 0 0 0 0 0 0 0 0 0 0 0 0 0 0 0 0 0 0 0 0 1909 1915 1915 1915 1913 1912 1912 0 0 0 0 0 0 0 0 0 0 0 0 0 0 0 1898 1898 1887 1887 0 0 0 0 0 0 0 0 0 0 0 0 0 0 0 0 0 0 0 0 0 0 0 0 0 0 0 0 0 0 0 0 0 0 0 0 0 0 0 0 0 0 0 0 0 0 1417 1402 1390 1375 1366 1362 1360 1360 1359 1356 1353 1350 1347 1342 1337 1331 1329 1327 1325 1323 1321 1319 1317 1315 1312 1311 1309 1307 1305 1303 1297 1288 1278 1260 1234 1219 1217 1217 1217 1214 1209 1208 1208 1208 1207 1207 1207 1207 1207 1215 1223 1223 1224 1225 1225 1228 1233 1233 1233 1225 1224 1223 1217 1207 1197 1197 1195 1194 1194 1190 1187 1185 1182 1177 1172 1172 1172 1174 1174 1175 1179 1181 1187 1191 1192 1193 1193 1194 1194 1194 1194 1193 1193 1191 1189 1188 1187 1185 1185 1183 1182 1181 1179 1178 1178 1177 1175 1172 1169 1167 1162 1159 1156 1151 1142 1136 1130 1124 1121 1118 1115 1112 1108 1105 1103 1102 1100 1099 1096 1095 1095 1095 1095 1095 1095 1095 1095 1096 1097 1101 1106 1110 1112 1113 1114 1115 1115 1115 1115 1114 1113 1112 1112 1110 1109 1108 1107 1106 1105 1103 1102 1101 1100 1099 1098 1096 1095 1093 1092 1090 1087 1086 1082 1078 1075 1071 1067 1059 1053 1050 1048 1046 1045 1044 1041 1040 1039 1038 1038 1035 1034 1032 1031 1030 1029 1028 1027 1027 1027 1027 1027 1027 1027 1028 1028 1028 1030 1030 1031 1032 1033 1034 1034 1035 1035 1035 1035 1035 1034 1033 1032 1031 1030 1029 1029 1027 1026 1025 1024 1023 1022 1021 1020 1018 1017 1017 1015 1014 1013 1012 1011 1010 1008 1007 1006 1005 1004 1003 1002 1001 1000 999 998 997 996 995 994 993 992 991 990 989 988 987 986 985 985 984 984 984 984 984 984 984 986 995 996 0 0 0 0 0 1354 1378 1403 1411 1411 1411 1411 1411 1411 1411 1411 1411 1411 1410 1410 1410 1408 1407 1406 1404 1404 1402 1402 1400 1399 1397 1396 1395 1393 1391 1389 1387 1385 1382 1380 1378 1375 1374 1371 1368 1366 1363 1359 1356 1352 1349 1347 1344 1343 1343 1339 1334 1328 1324 1315 1304 1297 1293 0
413 413 408 408 401 388 375 375 375 382 385 386 386 387 390 394 396 401 404 408 412 412 412 412 413 414 416 417 424 431 437 445 466 476 485 487 487 487 496 509 520 532 543 553 553 553 553 553 554 571 599 623 0 0 0 0 0 0 0 0 0 0 0 0 1396 1422 1425 1427 1428 1430 1442 1456 1471 1479 1485 1494 1506 1514 1522 1528 1534 1538 1544 1560 1595 1609 1615 1624 1635 1647 1664 1670 1670 1671 1672 1672 1687 1713 1747 0 0 0 0 0 2263 2263 2247 0 0 0 0 0 0 0 0 0 0 0 0 0 0 0 0 0 0 0 0 2171 0 0 0 0 0 0 0 0 0 0 0 0 0 0 0 0 0 1647 1645 1640 1645 1646 1646 1658 1666 0 0 0 0 0 0 0 0 0 0 0 0 0 0 0 0 0 0 0 0 0 0 0 0 0 0 0 0 0 0 0 0 0 0 0 0 0 0 0 1557 1561 1561 1561 1540 1521 1520 1520 1520 1538 0 0 0 0 0 0 0 0 0 0 0 0 0 0 0 0 0 0 0 0 0 0 0 0 1909 1909 1915 1915 1915 1913 1912 1912 1903 0 0 0 0 0 0 0 0 0 0 0 0 0 0 0 0 0 0 0 0 0 0 0 0 0 0 0 0 0 0 0 0 0 0 0 0 0 0 0 0 0 0 0 0 0 0 0 0 0 0 0 0 0 0 0 0 0 0 0 0 0 0 0 0 1413 1402 1384 1375 1366 1362 1360 1360 1357 1355 1351 1347 1343 1339 1336 1331 1329 1328 1325 1323 1321 1319 1317 1315 1312 1311 1309 1307 1305 1303 1297 1289 1276 1259 1230 1205 1202 1202 1202 1202 1200 1189 1186 1186 1186 1194 1194 1195 1195 1199 1208 1208 1210 1213 1213 1226 1233 1233 1233 1226 1225 1224 1223 1216 1214 1214 1210 1210 1210 1197 1195 1194 1191 1186 1178 1178 1178 1179 1180 1180 1181 1183 1190 1190 1191 1193 1193 1193 1193 1193 1193 1192 1191 1189 1188 1186 1184 1183 1182 1182 1181 1180 1179 1178 1177 1176 1175 1172 1169 1166 1161 1159 1155 1150 1142 1135 1130 1125 1121 1119 1116 1112 1110 1107 1106 1104 1102 1100 1098 1097 1096 1095 1095 1095 1095 1095 1095 1096 1099 1103 1107 1110 1112 1113 1115 1115 1115 1115 1114 1114 1113 1112 1111 1110 1109 1108 1107 1105 1104 1103 1102 1101 1100 1099 1097 1096 1095 1093 1092 1090 1087 1085 1081 1078 1075 1073 1067 1062 1056 1052 1049 1048 1045 1044 1041 1039 1039 1038 1037 1035 1033 1032 1030 1029 1028 1027 1027 1027 1027 1027 1027 1027 1027 1028 1028 1028 1030 1030 1032 1033 1033 1034 1034 1035 1035 1035 1035 1035 1034 1033 1032 1031 1031 1029 1029 1027 1026 1025 1024 1023 1022 1021 1020 1018 1017 1017 1015 1014 1013 1012 1011 1010 1009 1007 1006 1005 1004 1003 1002 1001 1000 999 998 997 996 995 994 993 992 991 990 989 988 987 986 985 985 984 984 984 984 984 984 984 986 994 995 0 0 0 0 0 1356 1387 1404 1408 1408 1408 1408 1409 1410 1411 1411 1411 1411 1410 1409 1409 1407 1407 1405 1404 1403 1401 1401 1399 1398 1396 1395 1393 1392 1391 1389 1387 1385 1382 1380 1377 1375 1372 1370 1367 1364 1362 1359 1356 1352 1349 1347 1344 1343 1343 1338 1333 1327 1324 1315 1304 1298 1293 1293
413 413 408 408 401 394 379 379 379 380 381 382 382 384 388 392 393 398 400 403 407 410 412 412 413 414 416 416 424 442 446 460 468 476 483 485 487 490 501 513 521 533 548 557 557 557 554 554 554 571 599 623 0 0 0 0 0 0 0 0 0 0 0 0 1395 1413 1413 1418 1418 1420 1437 1455 1471 1479 1485 1491 1498 1506 1516 1521 1534 1538 1544 1560 1595 1609 1615 1624 1635 1647 1668 1690 1712 1722 1725 1729 1732 1748 1770 0 0 0 0 2263 2263 2263 2247 2247 0 0 0 0 0 0 0 0 0 0 0 0 0 0 0 0 0 0 0 0 0 0 0 0 0 0 0 0 0 0 0 0 0 0 0 0 0 0 0 0 0 0 0 0 0 0 0 0 0 0 0 0 0 0 0 0 0 0 0 0 0 0 0 0 0 0 0 0 0 0 0 0 0 0 0 0 0 0 0 0 0 0 0 0 1497 1497 1497 1473 1473 1473 1478 1510 1520 1538 0 0 0 0 0 0 0 0 0 0 0 0 0 0 0 0 0 0 0 0 0 0 0 0 1909 1909 1915 1915 1915 1913 1912 1912 1910 0 0 0 0 0 0 0 0 0 0 0 0 0 0 0 0 0 0 0 0 0 0 0 0 0 0 0 0 0 0 0 0 0 0 0 0 0 0 0 0 0 0 0 0 0 0 0 0 0 0 0 0 0 0 0 0 0 0 0 0 0 0 0 1441 1413 1402 1384 1375 1366 1362 1360 1358 1355 1352 1348 1345 1341 1338 1334 1331 1329 1328 1325 1323 1321 1319 1317 1315 1312 1311 1309 1307 1305 1300 1296 1289 1275 1255 1230 1203 1194 1190 1189 1189 1188 1183 1178 1178 1178 1187 1187 1187 1188 1188 1189 1197 1205 1206 1210 1219 1230 1230 1230 1228 1228 1227 1227 1227 1220 1220 1220 1219 1214 1202 1201 1197 1196 1192 1187 1187 1186 1185 1186 1187 1187 1190 1190 1191 1191 1192 1192 1192 1191 1190 1190 1190 1189 1187 1186 1184 1182 1181 1180 1179 1179 1179 1177 1177 1176 1176 1173 1172 1169 1166 1161 1156 1153 1148 1141 1135 1130 1125 1123 1119 1117 1115 1112 1110 1109 1107 1105 1102 1101 1100 1098 1097 1095 1095 1095 1096 1097 1098 1102 1106 1107 1110 1112 1113 1115 1115 1115 1115 1114 1113 1113 1112 1110 1110 1108 1107 1106 1105 1104 1103 1101 1101 1100 1098 1097 1096 1095 1093 1092 1090 1087 1085 1081 1078 1075 1073 1067 1062 1057 1053 1049 1048 1045 1043 1038 1037 1037 1037 1036 1034 1033 1031 1030 1029 1028 1027 1027 1027 1026 1026 1026 1027 1027 1028 1028 1028 1030 1031 1032 1033 1033 1034 1034 1035 1035 1035 1035 1035 1034 1033 1032 1031 1030 1029 1028 1027 1026 1025 1024 1023 1021 1020 1019 1018 1017 1016 1015 1014 1013 1012 1011 1010 1009 1007 1006 1005 1004 1003 1002 1001 1000 999 998 997 996 995 994 993 992 991 990 989 988 987 986 985 985 984 984 984 984 984 985 987 987 992 994 0 0 0 0 0 1356 1387 1404 1407 1407 1408 1408 1409 1410 1411 1411 1411 1411 1410 1409 1408 1406 1406 1404 1403 1402 1401 1399 1399 1397 1395 1394 1393 1391 1389 1388 1387 1384 1382 1379 1377 1374 1370 1367 1364 1362 1360 1358 1356 1352 1349 1346 1343 1343 1343 1338 1333 1327 1324 1315 1304 1298 1295 1295
413 413 408 408 401 394 385 378 378 377 377 377 377 381 386 392 393 397 397 397 402 407 407 409 412 412 414 416 424 443 452 460 468 476 482 485 487 492 503 513 524 538 569 572 572 569 568 568 568 571 599 0 0 0 0 0 0 0 0 0 0 0 0 0 1394 1397 1397 1403 1403 1403 1424 1455 1471 1479 1485 1491 1498 1506 1516 1521 1534 1538 1544 1560 1595 1609 1619 1632 1647 1675 1705 1740 1766 1766 1766 1764 1764 1764 1772 0 0 0 0 2263 2263 2263 2247 2247 0 0 0 0 0 0 0 0 0 0 0 0 0 0 0 0 0 0 0 0 0 0 0 0 0 0 0 0 0 0 0 0 0 0 0 0 0 0 0 0 0 0 0 0 0 0 0 0 0 0 0 0 0 0 0 0 0 0 0 0 0 0 0 0 0 0 0 0 0 0 0 0 0 0 0 0 0 0 0 0 0 0 0 0 1497 1497 1497 1473 1473 1473 1478 1510 1520 0 0 0 0 0 0 0 0 0 0 0 0 0 0 0 0 0 0 0 0 0 0 0 0 0 1908 1908 1915 1917 1923 1923 1923 1913 1913 0 0 0 0 0 0 0 0 0 0 0 0 0 0 0 0 0 0 0 0 0 0 0 0 2576 2576 2576 0 0 0 0 0 0 0 0 0 0 0 0 0 0 0 0 0 0 0 0 0 0 0 0 0 0 0 0 0 0 0 0 0 0 0 0 1431 1413 1402 1384 1375 1368 1363 1360 1356 1353 1350 1347 1343 1340 1337 1333 1331 1329 1328 1325 1323 1321 1319 1317 1315 1313 1311 1308 1306 1302 1298 1295 1288 1275 1252 1226 1197 1191 1187 1185 1184 1184 1183 1178 1176 1176 1176 1178 1178 1178 1179 1179 1179 1184 1192 1204 1219 1230 1233 1233 1233 1233 1232 1231 1230 1228 1224 1222 1219 1218 1215 1215 1214 1210 1202 1195 1194 1193 1192 1190 1190 1190 1190 1190 1191 1190 1190 1190 1189 1189 1189 1187 1186 1186 1186 1185 1183 1180 1179 1179 1179 1177 1176 1175 1175 1173 1173 1171 1170 1168 1165 1160 1155 1153 1148 1138 1136 1130 1125 1123 1121 1119 1117 1115 1113 1111 1109 1107 1105 1103 1101 1099 1097 1097 1097 1097 1099 1099 1103 1106 1108 1108 1110 1112 1113 1115 1115 1115 1115 1114 1113 1113 1112 1110 1110 1108 1107 1105 1104 1103 1102 1101 1100 1100 1098 1097 1096 1094 1093 1092 1089 1087 1084 1081 1077 1074 1073 1067 1062 1057 1053 1050 1048 1045 1042 1038 1037 1036 1036 1035 1034 1032 1031 1030 1029 1028 1028 1027 1027 1026 1026 1026 1026 1027 1027 1028 1029 1030 1032 1033 1033 1034 1034 1034 1035 1035 1035 1035 1035 1034 1033 1032 1031 1030 1029 1028 1027 1026 1025 1024 1022 1021 1020 1019 1018 1017 1016 1015 1014 1013 1011 1011 1010 1009 1007 1006 1005 1004 1003 1002 1001 1000 999 998 997 996 995 994 993 992 991 990 989 988 987 986 985 985 985 985 985 985 985 985 987 988 992 994 0 0 0 0 0 1356 1387 1404 1407 1407 1408 1408 1409 1410 1411 1411 1411 1411 1410 1409 1407 1406 1405 1403 1403 1401 1400 1399 1398 1396 1395 1394 1392 1390 1389 1388 1386 1384 1382 1379 1377 1373 1368 1366 1364 1361 1358 1357 1355 1352 1349 1346 1343 1341 1339 1334 1329 1326 1316 1308 1304 1298 1295 1295
407 407 401 401 399 394 385 381 378 373 373 373 375 380 383 390 392 395 396 396 399 403 405 405 409 410 412 414 424 443 454 461 469 476 481 483 485 492 503 516 531 566 586 586 586 582 568 568 568 580 603 0 0 0 0 0 0 0 0 0 0 0 0 0 1383 1383 1383 1380 1380 1380 1424 1455 1475 1485 1485 1491 1498 1506 1516 1521 1538 1558 1561 1589 1613 1619 1627 1639 1660 1689 1728 1764 1770 1773 1773 1773 1773 1773 1782 0 0 0 0 2229 2229 2229 2229 2229 0 0 0 0 0 0 0 0 0 0 0 0 0 0 0 0 0 0 0 0 0 0 0 0 0 0 0 0 0 0 0 0 0 0 0 0 0 0 0 0 0 0 0 0 0 0 0 0 0 0 0 0 0 0 0 0 0 0 0 0 0 0 0 0 0 0 0 0 0 0 0 0 0 0 0 0 0 0 0 0 0 0 0 0 0 0 0 0 0 0 0 0 0 0 0 0 0 0 0 0 0 0 0 0 0 0 0 0 0 0 0 0 0 0 0 0 0 0 0 1908 1915 1917 1923 1923 1923 1923 0 0 0 0 0 0 0 0 0 0 0 0 0 0 0 0 2866 2884 2911 2944 2948 2949 2952 2967 2995 3001 3001 3001 2915 0 0 0 0 0 0 0 0 0 0 0 0 0 0 0 0 0 0 0 0 0 0 0 0 0 0 0 0 0 0 0 0 0 0 0 1428 1412 1401 1387 1375 1368 1363 1358 1353 1350 1348 1346 1342 1340 1337 1333 1330 1329 1327 1325 1323 1321 1319 1317 1315 1313 1310 1307 1302 1299 1297 1294 1285 1270 1248 1218 1195 1188 1185 1185 1184 1184 1183 1178 1173 1173 1173 1175 1175 1175 1176 1176 1179 1184 1192 1204 1218 1228 1233 1235 1235 1235 1234 1233 1232 1231 1229 1224 1223 1223 1220 1219 1215 1213 1208 1204 1203 1203 1201 1199 1195 1195 1195 1194 1190 1189 1188 1185 1183 1183 1183 1182 1181 1181 1180 1180 1179 1179 1177 1176 1176 1174 1174 1173 1172 1171 1169 1168 1167 1165 1162 1157 1153 1151 1147 1138 1136 1130 1127 1124 1121 1119 1117 1116 1113 1112 1109 1108 1107 1104 1102 1099 1098 1098 1098 1099 1100 1104 1105 1107 1108 1109 1110 1112 1114 1115 1115 1115 1114 1114 1113 1112 1112 1110 1110 1108 1106 1105 1104 1103 1102 1101 1100 1099 1098 1097 1095 1094 1093 1092 1089 1087 1084 1081 1077 1072 1069 1066 1062 1058 1053 1050 1048 1045 1042 1038 1037 1036 1036 1035 1034 1032 1031 1029 1029 1028 1028 1028 1027 1026 1026 1026 1026 1027 1027 1028 1029 1030 1032 1033 1033 1034 1034 1034 1035 1035 1035 1035 1034 1033 1033 1032 1031 1030 1029 1028 1027 1026 1025 1023 1022 1021 1020 1018 1018 1017 1015 1015 1013 1013 1011 1010 1009 1009 1007 1006 1005 1004 1003 1002 1001 1000 999 998 997 996 995 994 993 992 991 990 989 988 987 986 985 985 985 985 985 985 986 986 987 989 992 995 0 0 0 0 0 1346 1386 1404 1407 1407 1409 1409 1409 1411 1411 1411 1411 1411 1410 1409 1407 1405 1403 1403 1402 1401 1399 1398 1397 1396 1394 1393 1392 1390 1388 1387 1385 1384 1382 1379 1377 1373 1368 1365 1363 1361 1358 1357 1354 1351 1349 1346 1343 1338 1335 1327 1322 1319 1303 1298 1297 1295 1295 1295
394 394 391 391 390 388 385 381 378 369 369 369 375 377 381 385 388 390 395 396 399 402 403 403 407 412 414 416 423 443 457 463 469 476 480 483 485 492 503 521 545 573 593 593 593 582 574 574 574 580 603 0 0 0 0 0 0 0 0 0 0 0 0 0 1368 1368 1368 1368 1368 1368 1422 1476 0 0 0 0 0 0 0 0 0 0 0 1629 1635 1644 1649 1654 1669 1703 1743 1764 1777 1777 1777 1775 1775 1775 1782 0 0 0 0 2229 2229 2229 2221 2187 0 0 0 0 0 0 0 0 0 0 0 0 0 0 0 0 0 0 0 0 0 0 0 0 0 0 0 0 0 0 0 0 0 0 0 0 0 0 0 0 0 0 0 0 0 0 0 0 0 0 0 0 0 0 0 0 0 0 0 0 0 0 0 0 0 0 0 0 0 0 0 0 0 0 0 0 0 0 0 0 0 0 0 0 0 0 0 0 0 0 0 0 0 0 0 0 0 0 0 0 0 0 0 0 0 0 0 0 2616 2851 2892 2919 2919 2919 2917 2904 0 0 0 0 0 0 0 0 0 0 0 0 0 0 0 0 0 0 0 0 0 0 0 0 0 2573 2947 3119 3178 3178 3178 3178 3163 3156 3124 3056 3018 3001 2915 0 0 0 0 0 0 0 0 0 0 0 0 0 0 0 0 0 0 0 0 0 0 0 0 0 0 0 0 0 0 0 0 0 1437 1437 1423 1412 1401 1387 1375 1368 1363 1357 1351 1349 1347 1345 1341 1339 1336 1333 1330 1328 1327 1325 1323 1321 1319 1317 1314 1313 1310 1306 1301 1298 1297 1291 1281 1268 1242 1214 1190 1186 1185 1185 1184 1184 1183 1179 1173 1173 1173 1175 1175 1175 1176 1176 1179 1184 1192 1201 1216 1227 1233 1235 1236 1236 1236 1236 1234 1233 1231 1228 1225 1224 1224 1221 1218 1215 1213 1210 1208 1207 1206 1203 1203 1203 1201 1197 1190 1189 1185 1179 1174 1174 1174 1174 1175 1175 1176 1177 1176 1175 1175 1173 1171 1171 1170 1170 1169 1168 1166 1163 1163 1162 1158 1154 1153 1150 1146 1138 1136 1133 1131 1127 1122 1119 1118 1117 1115 1112 1110 1109 1107 1106 1102 1099 1099 1099 1099 1099 1101 1104 1106 1108 1109 1110 1112 1112 1114 1114 1114 1114 1114 1114 1113 1112 1111 1110 1108 1107 1106 1105 1104 1103 1102 1100 1100 1099 1097 1097 1095 1093 1092 1091 1089 1086 1084 1081 1077 1072 1069 1066 1061 1057 1053 1050 1047 1045 1042 1039 1037 1036 1035 1035 1033 1032 1031 1029 1029 1028 1028 1028 1027 1027 1026 1026 1026 1027 1027 1028 1029 1030 1032 1033 1033 1034 1034 1034 1035 1035 1035 1035 1034 1033 1033 1032 1031 1030 1029 1028 1027 1026 1024 1023 1021 1021 1019 1018 1017 1017 1015 1014 1013 1013 1011 1010 1009 1008 1007 1006 1005 1004 1003 1002 1001 1000 999 998 997 996 995 994 993 992 990 989 989 987 987 985 985 985 984 984 984 985 985 986 988 990 993 997 0 0 0 0 0 1346 1378 1404 1408 1408 1410 1410 1410 1411 1412 1412 1412 1411 1410 1408 1407 1404 1403 1401 1400 1399 1399 1398 1396 1395 1394 1393 1392 1390 1388 1387 1385 1383 1381 1379 1376 1372 1368 1365 1362 1361 1358 1356 1353 1349 1346 1343 1339 1336 1331 1324 1319 1314 1303 1297 1296 1296 1295 1296
382 388 384 384 383 383 381 379 378 367 367 367 373 376 378 382 388 390 395 396 399 401 402 403 407 414 414 416 416 433 462 464 474 476 482 485 491 493 503 523 0 580 599 599 599 582 574 574 574 580 603 0 0 0 0 0 0 0 0 0 0 0 0 0 1341 1341 1341 1341 1341 0 0 0 0 0 0 0 0 0 0 0 0 0 1677 1680 1686 1692 1698 1703 1706 1724 1748 1767 1777 1777 1777 1774 1772 1772 1772 0 0 0 0 0 2229 2229 2221 0 0 0 0 0 0 0 0 0 0 0 0 0 0 0 0 0 0 0 0 0 0 0 0 0 0 0 0 0 0 0 0 0 0 0 0 0 0 0 0 0 0 0 0 0 0 0 0 0 0 0 0 0 0 0 0 0 0 0 0 0 0 0 0 0 0 0 0 0 0 0 0 0 0 0 0 0 0 0 0 0 0 2876 2876 2840 2840 2840 0 0 0 0 0 0 0 0 0 0 0 0 0 0 0 0 0 0 0 0 0 2505 3039 3104 3110 3112 3112 3112 3048 2904 2693 0 0 0 0 0 2054 2060 2068 2068 2068 2060 2049 0 0 0 0 0 0 0 0 0 0 0 0 2573 2947 3119 3178 3178 3178 3178 3163 3156 3124 3056 3018 3001 2915 0 0 0 0 0 0 0 0 0 0 0 0 0 0 0 0 0 0 0 0 0 0 0 1244 1227 1203 1203 0 0 0 0 0 1437 1437 1437 1416 1406 1401 1387 1375 1367 1362 1355 1349 1347 1345 1343 1341 1338 1336 1333 1330 1328 1327 1325 1323 1321 1319 1317 1314 1312 1309 1305 1301 1298 1296 1290 1277 1261 1235 1211 1190 1186 1185 1185 1184 1184 1182 1179 1173 1173 1173 1175 1175 1175 1176 1176 1180 1188 1192 1201 1216 1227 1233 1235 1238 1238 1238 1237 1236 1234 1233 1230 1229 1228 1225 1224 1223 1221 1218 1215 1212 1210 1208 1207 1206 1206 1205 1198 1192 1189 1184 1174 1169 1169 1169 1169 1169 1169 1169 1169 1169 1169 1167 1167 1167 1166 1166 1165 1164 1164 1163 1163 1161 1158 1155 1154 1153 1150 1146 1144 1140 1137 1135 1133 1131 1128 1123 1119 1117 1115 1112 1110 1108 1106 1105 1104 1102 1102 1102 1102 1102 1105 1106 1108 1109 1111 1113 1113 1114 1114 1114 1114 1114 1113 1112 1111 1110 1109 1108 1106 1105 1105 1103 1102 1101 1100 1099 1098 1097 1096 1095 1093 1092 1090 1089 1086 1084 1081 1077 1072 1069 1064 1061 1057 1054 1051 1047 1045 1042 1039 1037 1036 1035 1035 1033 1032 1030 1029 1029 1028 1028 1028 1027 1027 1026 1026 1026 1026 1026 1027 1028 1030 1031 1032 1034 1034 1034 1034 1035 1035 1035 1035 1034 1033 1033 1032 1031 1030 1029 1028 1027 1026 1024 1023 1021 1020 1019 1018 1017 1016 1015 1014 1013 1012 1011 1010 1009 1008 1007 1006 1005 1003 1002 1002 1001 1000 999 998 997 996 995 994 993 992 990 989 989 987 987 985 985 985 984 984 984 985 985 986 988 990 993 997 0 0 0 0 0 1346 1378 1401 1410 1410 1410 1411 1411 1412 1412 1412 1412 1411 1410 1408 1407 1404 1402 1401 1400 1399 1398 1398 1396 1395 1394 1392 1390 1389 1388 1386 1385 1383 1381 1378 1375 1372 1368 1365 1362 1361 1359 1356 1352 1348 1343 1339 1337 1333 1330 1324 1319 1314 1303 1297 1296 1296 1295 1296
377 382 382 382 381 381 378 378 377 367 367 367 369 374 376 382 388 390 395 399 401 402 403 403 407 414 414 417 417 0 0 0 482 482 485 485 491 493 508 527 0 580 599 599 599 574 572 572 574 576 602 0 0 0 0 0 0 0 0 0 0 0 0 0 1284 1287 1301 0 0 0 0 0 0 0 0 0 1599 1625 1640 1660 1675 1688 1700 1707 1711 1717 1721 1727 1734 1741 1749 1764 1775 1775 1775 1773 1772 1772 1772 1781 0 0 0 0 0 0 0 0 0 0 0 0 0 0 0 0 0 0 0 0 0 0 0 0 0 0 0 0 0 0 0 0 0 0 0 0 0 0 0 0 0 0 0 0 0 0 0 0 0 0 0 795 816 835 0 0 0 0 0 0 0 0 0 0 0 0 0 0 0 0 0 0 0 0 0 0 0 0 0 0 0 0 0 0 0 0 0 0 2876 2876 2876 2860 2854 2854 2854 0 0 0 0 0 0 0 0 0 0 0 0 0 0 0 0 0 0 0 2569 3050 3118 3123 3132 3132 3132 3125 3048 2904 2693 0 0 2055 2055 2069 2074 2078 2084 2087 2087 2087 2077 2057 0 0 0 0 0 0 0 0 0 0 0 2538 2947 3119 3178 3178 3178 3178 3163 3156 3124 3056 2995 2930 2863 0 0 0 0 0 0 0 0 0 0 0 0 0 0 0 0 0 0 0 0 0 0 1245 1242 1227 1203 1203 1203 0 0 0 0 1437 1437 1437 1414 1406 1396 1380 1369 1360 1358 1351 1349 1346 1344 1342 1340 1337 1334 1331 1329 1327 1326 1324 1323 1321 1319 1317 1314 1311 1308 1305 1301 1297 1295 1289 1277 1259 1232 1208 1190 1186 1186 1185 1184 1184 1182 1179 1173 1173 1173 1174 1176 1177 1177 1178 1182 1190 1196 1204 1216 1227 1234 1237 1239 1239 1239 1237 1236 1235 1234 1233 1231 1229 1226 1226 1225 1223 1220 1216 1213 1211 1210 1209 1209 1208 1205 1200 1195 1188 1183 1174 1165 1165 1162 1162 1159 1158 1158 1158 1158 1156 1158 1158 1158 1159 1159 1159 1159 1159 1159 1159 1158 1156 1155 1154 1152 1148 1146 1144 1140 1137 1136 1134 1134 1131 1125 1123 1121 1119 1117 1114 1113 1112 1111 1109 1108 1107 1105 1105 1105 1105 1107 1108 1112 1112 1113 1114 1114 1114 1114 1113 1113 1111 1111 1110 1109 1108 1107 1106 1105 1103 1103 1102 1100 1100 1098 1098 1096 1096 1094 1093 1091 1090 1088 1086 1084 1081 1078 1074 1069 1064 1061 1057 1054 1051 1047 1043 1040 1039 1037 1036 1035 1034 1033 1032 1030 1029 1029 1028 1028 1028 1027 1027 1026 1026 1026 1026 1026 1027 1028 1030 1031 1032 1034 1034 1034 1034 1034 1034 1034 1034 1034 1033 1033 1032 1031 1030 1029 1028 1027 1025 1024 1022 1021 1020 1018 1018 1016 1016 1015 1014 1013 1012 1011 1009 1009 1008 1007 1006 1005 1003 1002 1002 1001 1000 999 998 997 996 995 994 992 991 990 989 988 987 986 985 984 984 984 984 984 985 985 986 988 988 993 997 0 0 0 0 0 1351 1378 1400 1410 1410 1410 1411 1411 1412 1412 1412 1412 1411 1410 1408 1406 1404 1402 1400 1400 1399 1398 1397 1396 1394 1393 1392 1390 1388 1387 1386 1385 1382 1380 1377 1375 1371 1368 1365 1362 1361 1359 1356 1352 1348 1343 1338 1336 1333 1330 1324 1319 1314 1308 1299 1297 1296 1296 1296
377 382 382 382 380 380 376 376 375 373 369 369 369 374 376 382 393 398 401 409 409 409 409 409 421 421 0 0 0 0 0 0 0 0 495 495 495 508 512 527 0 0 583 583 583 562 562 562 564 576 602 0 0 0 0 0 0 0 0 0 0 0 0 0 0 1275 0 0 0 0 0 0 0 0 0 1585 1610 1629 1654 1667 1681 1697 1706 1710 1714 1720 1724 1728 1735 1741 1749 1764 1775 1775 1775 1773 1772 1772 1772 1779 0 0 0 0 0 0 0 0 0 0 0 0 0 0 0 0 0 0 0 0 0 0 0 0 0 0 0 0 0 0 0 0 0 0 0 0 0 0 0 0 0 0 0 0 0 0 0 0 0 0 795 795 804 832 857 0 0 0 0 0 0 0 0 0 0 0 0 0 0 0 0 0 0 0 0 0 0 0 0 0 0 0 0 0 0 0 0 0 2876 2876 2876 2860 2854 2854 2854 0 0 0 0 0 0 0 0 0 0 0 0 0 0 0 0 0 2503 2892 3063 3088 3118 3123 3132 3132 3132 3125 3048 2866 2552 0 2059 2059 2069 2083 2086 2090 2095 2097 2097 2097 2083 2074 0 0 0 0 0 0 0 0 0 0 0 0 2531 2883 3029 3081 3081 3081 3018 2955 2869 2766 2673 2587 0 0 0 0 0 0 0 0 0 0 0 0 0 0 0 0 0 0 0 0 0 0 0 1243 1238 1220 1203 1203 1203 1225 0 0 0 1435 1435 1435 1413 1403 1394 1380 1369 1360 1357 1351 1348 1345 1342 1341 1338 1336 1332 1330 1329 1327 1326 1324 1323 1320 1318 1317 1314 1311 1307 1304 1301 1297 1293 1288 1276 1258 1231 1201 1190 1187 1186 1186 1184 1182 1180 1177 1173 1173 1173 1175 1177 1178 1178 1178 1184 1190 1196 1209 1224 1233 1237 1239 1239 1239 1239 1238 1236 1236 1235 1234 1233 1230 1228 1228 1226 1223 1221 1218 1214 1212 1210 1209 1209 1208 1205 1202 1196 1188 1182 1174 1165 1162 1161 1161 1158 1155 1153 1149 1149 1148 1149 1150 1150 1155 1155 1155 1155 1155 1155 1155 1152 1152 1151 1151 1150 1148 1147 1144 1141 1140 1138 1137 1135 1133 1128 1125 1125 1125 1123 1117 1115 1112 1112 1111 1110 1108 1107 1107 1107 1108 1109 1109 1113 1114 1114 1114 1114 1114 1113 1113 1112 1111 1109 1109 1108 1107 1107 1105 1104 1103 1102 1100 1100 1099 1098 1097 1096 1094 1094 1092 1091 1090 1088 1086 1084 1082 1079 1075 1069 1063 1060 1057 1054 1051 1047 1041 1037 1035 1035 1034 1034 1034 1032 1031 1030 1029 1028 1028 1028 1028 1027 1027 1026 1026 1025 1025 1025 1027 1028 1029 1031 1032 1033 1034 1034 1034 1034 1034 1034 1034 1034 1033 1033 1032 1031 1030 1029 1028 1027 1025 1024 1022 1021 1020 1018 1017 1016 1015 1015 1014 1013 1011 1010 1009 1009 1008 1007 1006 1005 1003 1002 1002 1000 1000 999 998 996 996 995 994 992 991 990 989 988 987 986 985 984 984 984 984 984 985 985 985 985 986 991 997 0 0 0 0 0 1355 1381 1400 1410 1411 1411 1411 1411 1412 1412 1412 1412 1411 1410 1408 1406 1404 1402 1400 1399 1399 1397 1396 1395 1394 1393 1391 1390 1388 1387 1386 1384 1382 1379 1377 1375 1371 1367 1365 1362 1361 1359 1356 1352 1347 1342 1338 1335 1333 1330 1327 1320 1315 1309 1305 1304 1303 1301 1301
377 379 379 379 379 379 376 374 373 372 369 369 369 374 376 389 398 403 405 416 416 424 424 0 0 0 0 0 0 0 0 0 0 0 0 512 512 512 512 527 537 0 0 558 562 560 560 562 564 576 0 0 0 0 0 0 0 0 0 0 0 0 0 0 0 0 0 0 0 0 0 0 0 0 0 1588 1612 1629 1655 1667 1681 1697 1706 1714 1714 1720 1724 1728 1735 1741 1749 1761 1770 1770 1770 1768 1768 1768 1768 1781 0 0 0 0 0 0 0 0 0 0 0 0 0 0 0 0 0 0 0 0 0 0 0 0 0 0 0 0 0 0 0 0 0 0 0 0 0 0 0 0 0 0 0 0 0 0 0 0 0 0 795 795 804 832 857 0 0 0 0 0 0 0 0 0 0 0 0 0 0 0 0 0 0 0 0 0 0 0 0 0 0 0 0 0 0 0 0 0 2858 2860 2860 2860 2849 2826 2795 0 0 0 0 0 0 0 0 0 0 0 0 0 0 0 0 2879 2908 2908 3063 3088 3118 3123 3132 3132 3132 3125 3038 2819 0 0 2071 2071 2083 2093 2097 2100 2104 2104 2104 2097 2083 2074 0 0 0 0 0 0 0 0 0 0 0 0 0 0 2635 2711 2711 2711 2641 2563 0 0 0 0 0 0 0 0 0 0 0 0 0 0 0 0 0 0 0 0 0 0 0 0 0 0 0 1218 1218 1218 1218 1218 1218 1253 0 0 0 1435 1435 1435 1409 1402 1394 1380 1369 1360 1357 1351 1348 1344 1341 1338 1337 1335 1329 1329 1328 1327 1325 1324 1322 1320 1318 1316 1314 1311 1306 1304 1301 1297 1292 1284 1275 1258 1227 1200 1189 1187 1186 1186 1183 1180 1178 1174 1173 1173 1173 1175 1177 1178 1178 1182 1184 1190 1194 1209 1224 1236 1241 1241 1241 1240 1239 1238 1238 1237 1236 1235 1234 1232 1230 1229 1227 1225 1223 1220 1218 1215 1212 1211 1210 1208 1205 1202 1196 1188 1181 1171 1162 1162 1160 1159 1156 1151 1143 1143 1143 1144 1144 1144 1144 1144 1144 1146 1148 1148 1149 1148 1149 1150 1150 1150 1150 1150 1149 1148 1147 1145 1141 1140 1138 1135 1131 1130 1130 1129 1126 1119 1115 1114 1113 1111 1111 1111 1111 1111 1111 1111 1112 1112 1114 1114 1114 1114 1114 1114 1112 1112 1110 1109 1108 1108 1106 1106 1105 1104 1102 1102 1101 1099 1099 1097 1097 1096 1095 1094 1093 1092 1091 1089 1088 1086 1084 1082 1079 1075 1070 1062 1056 1052 1047 1047 1044 1041 1037 1034 1033 1033 1032 1032 1032 1031 1030 1029 1028 1028 1028 1028 1027 1027 1026 1026 1026 1026 1026 1027 1028 1029 1031 1032 1033 1034 1034 1034 1034 1034 1034 1034 1033 1033 1032 1031 1030 1030 1028 1027 1026 1025 1023 1022 1021 1020 1018 1017 1016 1015 1014 1013 1013 1011 1010 1009 1009 1008 1007 1006 1004 1003 1002 1001 1000 1000 998 997 996 996 995 994 992 991 990 989 988 987 986 985 984 984 984 984 984 984 984 985 985 985 991 997 0 0 0 0 0 1357 1383 1400 1411 1411 1411 1411 1411 1412 1412 1412 1412 1412 1410 1408 1406 1404 1402 1400 1399 1398 1397 1396 1395 1394 1392 1391 1390 1388 1387 1386 1383 1381 1379 1376 1375 1371 1367 1364 1361 1359 1358 1355 1351 1347 1342 1338 1335 1334 1332 1328 1324 1319 1310 1305 1304 1303 1301 1301
373 377 377 377 375 375 372 372 371 372 373 373 373 376 383 395 404 408 411 427 445 451 455 0 0 0 0 0 0 0 0 0 0 0 0 0 512 512 512 517 523 524 526 527 533 544 560 562 578 599 0 0 0 0 0 0 0 0 0 0 0 0 0 0 0 0 0 0 0 0 0 0 0 0 0 1588 1612 1634 1655 1667 1681 1697 1706 1714 1714 1720 1724 1728 1735 1738 1742 1753 1763 1763 1763 1762 1762 1762 1763 1781 0 0 0 0 0 0 0 0 0 0 0 0 0 0 0 0 0 0 0 0 0 0 0 0 0 0 0 0 0 0 0 0 0 0 0 0 0 0 0 0 0 0 0 0 0 0 0 0 0 0 798 798 804 832 863 0 0 0 0 0 0 0 0 0 0 0 0 0 0 0 0 0 0 0 0 0 0 0 0 0 0 0 0 0 0 0 0 0 0 2575 2624 2624 2624 2543 0 0 0 0 0 0 0 0 0 0 0 0 0 0 0 0 0 2879 2908 2908 3063 3088 3095 3095 3095 3095 3066 3045 2947 2748 0 0 2081 2081 2087 2093 2097 2100 2104 2104 2104 2097 2083 2074 0 0 0 0 0 0 0 0 0 0 0 0 0 0 0 0 0 0 0 0 0 0 0 0 0 0 0 0 0 0 0 0 0 0 0 0 0 0 0 0 0 0 0 0 0 0 0 1209 1221 1225 1227 1227 1256 0 0 0 0 1437 1437 1437 1409 1401 1392 1380 1369 1362 1356 1350 1346 1343 1341 1338 1335 1333 1329 1328 1328 1327 1325 1323 1322 1320 1318 1316 1314 1311 1306 1304 1301 1298 1292 1284 1273 1252 1222 1196 1189 1187 1186 1186 1183 1179 1178 1174 1173 1173 1173 1175 1177 1178 1179 1183 1184 1189 1196 1211 1225 1237 1241 1241 1241 1241 1240 1239 1238 1238 1237 1236 1234 1233 1231 1229 1227 1226 1224 1222 1220 1217 1214 1213 1211 1208 1205 1202 1196 1185 1176 1167 1162 1161 1158 1154 1149 1143 1139 1139 1139 1142 1142 1142 1140 1136 1136 1136 1138 1138 1142 1142 1142 1146 1146 1147 1148 1150 1150 1150 1150 1148 1146 1145 1143 1140 1135 1134 1133 1131 1131 1126 1120 1119 1118 1116 1115 1115 1115 1115 1115 1115 1115 1115 1115 1115 1115 1115 1115 1113 1111 1110 1109 1108 1107 1106 1105 1104 1103 1102 1101 1100 1098 1098 1096 1096 1096 1095 1093 1092 1091 1091 1090 1089 1088 1086 1084 1082 1080 1077 1070 1061 1055 1051 1047 1046 1044 1041 1037 1034 1032 1032 1032 1032 1032 1031 1030 1029 1028 1028 1028 1028 1027 1027 1026 1026 1026 1026 1026 1027 1028 1029 1030 1032 1033 1034 1034 1034 1034 1034 1034 1034 1033 1032 1032 1031 1030 1029 1028 1027 1026 1024 1023 1022 1021 1019 1018 1017 1016 1015 1014 1013 1012 1011 1010 1009 1009 1008 1007 1006 1004 1003 1002 1001 1000 999 998 997 996 996 994 993 992 991 990 989 987 986 986 985 984 984 983 983 983 984 984 984 984 984 991 997 0 0 0 0 0 1359 1384 1405 1411 1411 1411 1411 1411 1411 1411 1412 1412 1412 1411 1409 1407 1405 1402 1400 1399 1398 1397 1396 1395 1394 1392 1391 1390 1388 1387 1386 1383 1381 1378 1376 1373 1371 1367 1363 1361 1359 1357 1354 1350 1346 1342 1338 1335 1334 1332 1328 1324 1319 1313 1305 1304 1303 1301 1301
370 372 372 372 370 370 369 369 370 371 373 373 373 378 383 395 404 408 411 427 445 451 0 0 0 0 0 0 0 0 0 0 0 0 0 0 509 501 501 501 508 512 512 516 526 543 557 570 578 605 0 0 0 0 0 0 0 0 0 0 0 0 0 0 0 0 0 0 0 0 0 0 0 0 0 0 1623 1640 1655 1664 1673 1691 1706 1711 1713 1714 1714 1716 1718 1723 1725 1728 1736 1742 1742 1743 1743 1746 1760 1779 0 0 0 0 0 0 0 0 0 0 0 0 0 0 0 0 0 0 0 0 0 0 0 0 0 0 0 0 0 0 0 0 0 0 0 0 0 0 0 0 0 0 0 0 0 0 0 0 0 0 0 820 820 839 0 0 0 0 0 0 0 0 0 0 0 0 0 0 0 0 0 0 0 0 0 0 0 0 0 0 0 0 0 0 0 0 0 0 0 0 0 0 0 0 0 0 0 0 0 0 0 0 0 0 0 0 0 0 0 0 0 2879 2901 2901 2901 2894 2894 2891 2887 2874 2850 2809 2669 0 0 0 2059 2081 2087 2093 2097 2100 2104 2104 2104 2093 2080 0 0 0 0 0 0 0 0 0 0 0 0 0 0 0 0 0 0 0 0 0 0 0 0 0 0 0 0 0 0 0 0 0 0 0 0 0 0 0 0 0 0 0 0 0 0 0 0 0 1225 1228 1234 1235 0 0 0 0 0 1449 1449 1435 1409 1399 1390 1380 1369 1362 1356 1349 1345 1343 1340 1337 1334 1332 1329 1328 1328 1325 1324 1322 1321 1319 1318 1316 1313 1311 1306 1304 1301 1298 1292 1280 1272 1251 1211 1184 1183 1183 1182 1182 1182 1179 1178 1174 1174 1174 1175 1176 1178 1180 1181 1183 1184 1188 1196 1211 1227 1237 1241 1241 1241 1241 1241 1240 1239 1239 1238 1236 1235 1234 1232 1230 1229 1226 1225 1223 1221 1218 1216 1213 1211 1208 1205 1200 1195 1183 1175 1167 1161 1157 1154 1151 1146 1140 1136 1136 1136 1135 1134 1133 1130 1127 1127 1127 1129 1131 1131 1132 1133 1138 1143 1146 1148 1150 1151 1151 1151 1149 1149 1148 1147 1145 1143 1138 1137 1137 1135 1135 1133 1130 1125 1123 1122 1121 1119 1118 1117 1117 1116 1116 1116 1116 1115 1115 1114 1113 1111 1110 1107 1107 1105 1104 1103 1103 1101 1101 1100 1098 1098 1097 1096 1095 1094 1093 1093 1092 1091 1090 1089 1088 1087 1085 1083 1082 1080 1077 1070 1060 1054 1051 1047 1045 1043 1041 1037 1035 1032 1032 1032 1032 1032 1031 1030 1029 1029 1028 1028 1028 1027 1027 1026 1026 1026 1026 1026 1027 1028 1029 1030 1031 1033 1034 1034 1034 1034 1034 1034 1033 1033 1032 1032 1031 1030 1029 1028 1027 1026 1024 1023 1022 1021 1019 1018 1017 1016 1014 1014 1013 1012 1011 1010 1009 1008 1008 1006 1006 1004 1003 1002 1001 1000 999 998 997 996 995 994 993 992 990 990 988 987 986 985 985 984 984 983 983 983 983 983 983 984 984 993 1001 0 0 0 0 0 1359 1385 1405 1411 1411 1411 1411 1411 1411 1411 1411 1411 1411 1411 1410 1407 1405 1403 1400 1399 1397 1397 1396 1395 1394 1392 1391 1390 1388 1387 1386 1383 1381 1378 1375 1371 1368 1366 1363 1361 1359 1357 1354 1349 1345 1342 1338 1335 1334 1332 1328 1324 1319 1313 1305 1304 1297 1295 1295
364 366 366 367 367 367 367 367 367 367 371 373 373 378 383 395 404 408 411 427 445 0 0 0 0 0 0 0 0 0 0 0 0 0 0 0 505 495 495 495 499 505 506 507 519 542 557 570 578 0 0 0 0 0 0 0 0 0 0 0 0 0 0 0 0 0 0 0 0 0 0 0 0 0 0 0 1623 1640 1652 1656 1659 1667 1681 1687 1689 1690 1693 1693 1693 1695 1697 1700 1701 1706 1714 1721 1725 1726 1728 1741 0 0 0 0 0 0 0 0 0 0 0 0 0 0 0 0 0 0 0 0 0 0 0 0 0 0 0 0 0 0 0 0 0 0 0 0 0 0 0 0 0 0 0 0 0 0 0 0 0 0 0 0 0 0 0 0 0 0 0 0 0 0 0 0 0 0 0 0 0 0 0 0 0 0 0 0 0 0 0 0 0 0 0 0 0 0 0 0 0 0 0 0 0 0 0 0 0 0 0 0 0 0 0 0 0 0 0 0 0 0 0 0 2507 2512 2518 2550 2558 2558 2558 2558 2533 2501 0 0 0 0 0 2081 2087 2087 2092 2097 2097 2097 2082 2066 0 0 0 0 0 0 0 0 0 0 0 0 0 0 0 0 0 0 0 0 0 0 0 0 0 0 0 0 0 0 0 0 0 0 0 0 0 0 0 0 0 0 0 0 0 0 0 0 0 0 0 0 0 0 0 0 0 0 0 0 1449 1435 1409 1398 1389 1380 1369 1362 1353 1346 1343 1343 1340 1337 1333 1331 1328 1327 1326 1324 1323 1322 1321 1319 1318 1315 1313 1311 1307 1304 1301 1299 1293 1280 1270 1250 1211 1182 1176 1176 1176 1177 1178 1178 1178 1176 1176 1176 1176 1178 1180 1182 1183 1183 1183 1188 1197 1211 1228 1238 1241 1241 1241 1241 1241 1240 1240 1239 1238 1236 1235 1234 1232 1230 1229 1227 1225 1223 1221 1219 1217 1214 1212 1209 1205 1201 1192 1179 1173 1165 1157 1152 1150 1148 1144 1139 1135 1134 1133 1132 1131 1128 1125 1125 1125 1126 1129 1131 1131 1131 1133 1136 1142 1145 1148 1150 1151 1151 1151 1151 1150 1149 1149 1147 1146 1143 1141 1139 1138 1137 1136 1135 1133 1130 1128 1127 1126 1125 1123 1120 1119 1118 1117 1117 1117 1115 1114 1111 1109 1107 1105 1105 1104 1103 1101 1101 1100 1099 1097 1096 1096 1094 1093 1093 1092 1091 1091 1090 1090 1089 1087 1086 1084 1083 1081 1080 1080 1077 1070 1059 1054 1051 1047 1045 1043 1041 1039 1037 1035 1033 1032 1032 1032 1032 1030 1030 1029 1029 1029 1029 1028 1027 1026 1026 1026 1026 1026 1027 1028 1029 1030 1031 1033 1033 1034 1034 1034 1034 1034 1033 1033 1032 1031 1031 1030 1028 1027 1027 1025 1024 1023 1022 1020 1019 1018 1016 1015 1014 1013 1013 1012 1011 1009 1008 1008 1007 1006 1005 1004 1003 1002 1001 1000 999 997 997 996 995 993 993 991 990 989 988 987 986 985 984 984 983 983 983 983 983 983 983 983 984 994 1006 0 0 0 0 0 1357 1385 1405 1411 1411 1411 1411 1411 1411 1411 1411 1411 1411 1411 1410 1407 1405 1403 1400 1399 1397 1396 1396 1395 1393 1392 1391 1390 1388 1387 1386 1383 1381 1378 1375 1370 1366 1365 1363 1360 1359 1356 1353 1348 1343 1339 1335 1334 1334 1331 1326 1321 1317 1313 1305 1302 1294 1292 1292
356 358 358 358 361 363 363 364 364 366 367 369 372 378 381 388 398 403 406 408 0 0 0 0 0 0 0 0 0 0 0 0 0 0 0 0 474 474 474 480 480 481 488 490 503 524 544 570 0 0 0 0 0 0 0 0 0 0 0 0 0 0 0 0 0 0 0 0 0 0 0 0 0 0 0 0 0 1632 1632 1632 1632 1632 1648 1670 1679 1684 1686 1689 1689 1689 1690 1690 1701 1706 1714 1714 1714 1713 1713 1713 0 0 0 0 0 0 0 0 0 0 0 0 0 0 0 0 0 0 0 0 0 0 0 0 0 0 0 0 0 0 0 0 0 0 0 0 0 0 0 0 0 0 0 0 0 0 0 0 0 0 0 0 0 0 0 0 0 0 0 0 0 0 0 0 0 0 0 0 0 0 0 0 0 0 0 0 0 0 0 0 0 0 0 0 0 0 0 0 0 0 0 0 0 0 0 0 0 0 0 0 0 0 0 0 0 0 0 0 0 0 0 0 0 0 0 0 0 0 0 0 0 0 0 0 0 0 0 0 0 0 2067 2067 2067 2060 0 0 0 0 0 0 0 0 0 0 0 0 0 0 0 0 0 0 0 0 0 0 0 0 0 0 0 0 0 0 0 0 0 0 0 1763 1755 1755 0 0 0 0 0 0 0 0 0 0 0 0 0 0 0 0 0 0 0 0 0 0 0 0 1458 1437 1409 1398 1389 1380 1372 1358 1349 1346 1342 1342 1340 1336 1333 1331 1328 1327 1326 1324 1323 1322 1319 1319 1317 1315 1313 1311 1307 1304 1301 1299 1293 1280 1270 1248 1209 1181 1176 1174 1174 1174 1177 1177 1177 1177 1177 1177 1177 1179 1180 1182 1183 1183 1183 1188 1208 1223 1232 1238 1241 1241 1241 1241 1241 1241 1240 1239 1238 1237 1235 1234 1232 1231 1229 1227 1225 1224 1221 1219 1217 1214 1212 1209 1205 1200 1191 1179 1172 1164 1154 1150 1147 1146 1143 1138 1134 1133 1132 1131 1127 1126 1125 1125 1125 1125 1128 1130 1130 1131 1133 1135 1142 1145 1148 1150 1153 1153 1153 1152 1152 1152 1151 1150 1148 1145 1142 1141 1140 1139 1137 1135 1134 1132 1129 1128 1127 1127 1126 1123 1122 1120 1119 1118 1117 1116 1114 1109 1107 1105 1103 1102 1100 1099 1099 1099 1097 1095 1095 1092 1092 1092 1091 1091 1091 1090 1090 1089 1089 1088 1086 1084 1083 1082 1080 1079 1077 1075 1070 1059 1054 1051 1047 1046 1043 1042 1040 1038 1035 1034 1033 1032 1032 1032 1031 1031 1030 1030 1030 1029 1028 1027 1026 1026 1026 1026 1026 1027 1029 1029 1030 1031 1033 1033 1034 1034 1034 1033 1033 1033 1033 1032 1031 1031 1029 1028 1027 1026 1025 1024 1022 1022 1020 1019 1018 1016 1015 1014 1013 1012 1011 1011 1009 1008 1008 1007 1006 1005 1004 1003 1002 1001 999 999 997 997 995 994 993 993 991 990 989 988 987 986 985 984 983 983 983 983 982 982 982 982 984 987 997 1006 0 0 0 0 0 1359 1388 1405 1410 1411 1411 1411 1410 1410 1410 1411 1411 1411 1411 1410 1408 1405 1403 1400 1398 1396 1396 1395 1394 1393 1392 1391 1389 1388 1387 1386 1383 1381 1378 1374 1370 1366 1365 1362 1361 1359 1356 1352 1346 1339 1334 1331 1330 1329 1326 1319 1315 1312 1309 1305 1302 1294 1292 1292
356 358 358 358 361 362 363 363 363 363 365 368 371 374 376 380 383 385 385 383 383 0 0 0 0 0 0 0 0 0 0 0 0 0 0 0 455 455 455 468 469 473 474 478 489 498 0 0 0 0 0 0 0 0 0 0 0 0 0 0 0 0 0 0 0 0 0 0 0 0 0 0 0 0 0 0 0 1598 1598 1607 1607 1611 1645 1669 1679 1684 1686 1689 1689 1689 1690 1690 1701 1706 1714 1714 1714 1702 1702 0 0 0 0 0 0 0 0 0 0 0 0 0 0 0 0 0 0 0 0 0 0 0 0 0 0 0 0 0 0 0 0 0 0 0 0 0 0 0 0 0 1234 1234 1227 0 0 0 0 0 0 0 0 0 0 0 0 0 0 0 0 0 0 0 0 0 0 0 0 0 0 0 0 0 0 0 0 0 0 0 0 0 0 0 0 0 0 0 0 0 0 0 0 0 0 0 0 0 0 0 0 0 0 0 0 0 0 0 0 0 0 0 0 0 0 0 0 0 0 0 0 0 0 0 0 0 0 0 0 0 0 0 0 0 0 0 0 0 0 0 1833 1815 1799 1787 1770 1770 1770 1776 0 0 0 0 0 0 0 0 0 0 0 0 0 0 0 0 0 0 0 0 1808 1770 1770 1770 1787 1787 1787 0 0 0 0 0 0 0 0 0 0 0 0 0 0 0 0 0 0 0 0 0 0 0 0 1437 1409 1398 1389 1380 1372 1358 1349 1345 1342 1340 1338 1335 1333 1331 1328 1327 1325 1324 1322 1321 1319 1318 1316 1314 1313 1310 1307 1303 1300 1298 1293 1280 1264 1241 1207 1181 1176 1174 1174 1174 1177 1177 1177 1177 1177 1177 1178 1179 1180 1182 1183 1183 1184 1189 1209 1225 1232 1237 1241 1241 1241 1241 1241 1241 1241 1240 1239 1237 1236 1234 1233 1231 1229 1227 1225 1224 1221 1219 1217 1214 1212 1209 1205 1200 1191 1178 1169 1159 1151 1147 1144 1143 1141 1136 1134 1133 1131 1128 1126 1125 1125 1125 1125 1125 1128 1130 1130 1131 1133 1135 1141 1144 1148 1152 1153 1154 1154 1154 1153 1153 1153 1151 1148 1146 1144 1143 1141 1139 1138 1136 1136 1133 1132 1129 1128 1128 1127 1125 1124 1121 1120 1118 1118 1116 1112 1107 1106 1103 1101 1100 1099 1099 1098 1095 1094 1091 1091 1089 1089 1089 1089 1089 1089 1088 1088 1087 1087 1086 1085 1084 1082 1082 1080 1078 1076 1074 1068 1059 1055 1051 1048 1046 1044 1042 1040 1038 1037 1035 1034 1033 1033 1033 1033 1032 1031 1031 1030 1029 1028 1028 1027 1027 1027 1027 1027 1028 1029 1030 1031 1031 1033 1033 1033 1033 1033 1033 1033 1033 1032 1031 1030 1030 1029 1028 1027 1026 1025 1023 1022 1022 1020 1019 1018 1016 1015 1014 1013 1012 1011 1011 1009 1008 1008 1007 1006 1005 1004 1003 1002 1001 999 998 997 996 995 994 993 992 991 990 989 988 987 986 985 984 983 983 983 983 982 982 982 982 984 987 997 1006 0 0 0 0 0 1358 1391 1404 1410 1411 1411 1411 1411 1411 1411 1411 1411 1411 1410 1410 1408 1405 1403 1400 1398 1396 1396 1395 1394 1393 1392 1390 1389 1388 1387 1386 1383 1380 1378 1374 1369 1366 1364 1362 1361 1359 1356 1352 1346 1339 1332 1329 1328 1325 1321 1319 1314 1310 1309 1305 1302 1294 1291 1291
356 358 358 358 361 361 361 361 361 361 364 367 369 372 372 372 375 378 378 378 378 372 372 372 0 0 0 0 0 0 0 0 0 0 0 436 435 435 435 450 456 461 465 472 474 480 0 0 0 0 0 0 0 0 0 0 0 0 0 0 0 0 0 624 0 0 0 0 0 0 0 0 0 0 0 0 0 1555 1569 1572 1583 1602 1644 1667 1678 1683 1686 1688 1688 1688 1690 1690 1690 1706 1710 1710 1710 1690 0 0 0 0 0 0 0 0 0 0 0 0 0 0 0 0 0 0 0 0 0 0 0 0 0 0 0 0 0 0 0 0 0 0 0 0 0 0 0 0 0 1241 1245 1245 1245 1238 0 0 0 0 0 0 0 0 0 0 0 0 0 0 0 0 0 0 0 0 0 0 0 0 0 0 0 0 0 0 0 0 0 0 0 0 0 0 0 0 0 0 0 0 0 0 0 0 0 0 0 0 0 0 0 0 0 0 0 0 0 0 0 0 0 0 0 0 0 0 0 0 0 0 0 1755 1770 1787 0 0 0 0 0 0 0 0 0 0 0 0 0 0 1876 1859 1830 1809 1798 1784 1770 1770 1770 1776 1778 1783 1783 1783 1760 0 0 0 0 0 0 0 0 0 0 0 1851 1851 1838 1832 1821 1775 1775 1775 1787 1787 1787 0 0 0 0 0 0 0 0 0 0 0 0 0 0 0 0 0 0 0 0 0 0 0 0 1435 1409 1398 1388 1380 1372 1358 1349 1345 1342 1339 1338 1335 1333 1331 1328 1326 1325 1323 1322 1320 1319 1317 1315 1314 1312 1310 1307 1303 1300 1297 1292 1282 1264 1240 1200 1181 1175 1173 1173 1173 1176 1177 1177 1177 1177 1177 1178 1179 1180 1182 1184 1185 1187 1190 1210 1225 1233 1237 1240 1241 1241 1241 1241 1241 1241 1240 1239 1237 1236 1234 1233 1231 1229 1227 1226 1224 1222 1219 1217 1215 1212 1208 1204 1199 1190 1177 1165 1154 1147 1142 1138 1136 1136 1135 1134 1133 1131 1128 1126 1125 1125 1125 1125 1125 1128 1130 1131 1131 1135 1135 1141 1144 1149 1153 1154 1154 1154 1154 1154 1154 1153 1151 1149 1147 1146 1144 1141 1141 1139 1138 1136 1135 1134 1132 1131 1129 1127 1126 1124 1122 1120 1118 1118 1115 1112 1105 1099 1098 1098 1098 1097 1097 1094 1092 1091 1089 1087 1087 1086 1086 1086 1086 1086 1085 1085 1085 1085 1084 1082 1082 1082 1082 1079 1077 1075 1073 1068 1061 1057 1053 1049 1048 1046 1044 1041 1039 1038 1037 1037 1037 1036 1036 1035 1033 1032 1032 1030 1029 1029 1029 1029 1028 1029 1029 1029 1029 1029 1030 1031 1032 1032 1033 1033 1033 1033 1033 1033 1032 1031 1031 1030 1029 1028 1027 1026 1025 1025 1023 1022 1020 1019 1019 1017 1016 1015 1014 1013 1012 1011 1011 1009 1008 1007 1007 1005 1005 1004 1002 1001 1000 999 998 997 996 995 994 993 992 991 990 989 987 987 986 985 984 983 983 982 982 982 982 982 982 984 987 997 1004 0 0 0 0 0 1358 1391 1403 1410 1410 1411 1411 1411 1411 1411 1411 1410 1410 1410 1409 1408 1405 1402 1399 1398 1396 1395 1395 1394 1393 1392 1390 1389 1387 1386 1383 1381 1379 1376 1372 1369 1367 1364 1362 1361 1359 1356 1352 1346 1339 1332 1329 1328 1325 1321 1319 1314 1310 1309 1305 1304 1299 1295 1295
358 360 360 361 360 361 361 360 360 361 364 366 368 368 368 368 368 372 376 376 376 370 364 364 364 372 383 394 403 413 416 417 422 422 422 419 418 418 418 429 438 450 459 467 470 470 472 475 481 483 0 0 0 528 528 528 539 539 539 563 574 576 582 596 0 0 0 0 0 0 0 0 0 0 0 0 0 1552 1565 1566 1577 1598 1637 1667 1678 1682 1686 1688 1688 1688 1690 1690 1690 1706 1707 1707 1707 1672 0 0 0 0 0 0 0 0 0 0 0 0 0 0 0 0 0 0 0 0 0 0 0 0 0 0 0 0 0 0 0 0 0 0 0 0 0 0 0 0 0 1241 1252 1260 1260 1260 0 0 0 0 0 0 0 0 0 0 0 0 0 0 0 0 0 0 0 0 0 0 0 0 0 0 0 0 0 0 0 0 0 0 0 0 0 0 0 0 0 0 0 0 0 0 0 0 0 0 0 0 0 0 0 0 0 0 0 0 0 0 0 0 0 0 0 0 0 0 0 0 0 0 1703 1715 1744 1755 1755 1755 1739 1739 1739 1766 0 0 0 0 0 0 0 1853 1845 1837 1824 1809 1798 1784 1770 1770 1770 1776 1778 1783 1783 1783 1760 1731 0 0 0 0 0 0 0 0 1826 1851 1851 1851 1838 1832 1823 1808 1808 1806 1806 1802 1787 1772 1772 0 0 0 0 0 0 1725 1725 1725 0 0 0 0 0 0 0 0 0 0 0 0 0 1432 1409 1398 1389 1379 1372 1359 1349 1345 1341 1338 1336 1334 1330 1328 1326 1325 1324 1323 1322 1320 1318 1317 1315 1313 1312 1309 1307 1303 1300 1296 1292 1282 1264 1240 1192 1179 1176 1174 1174 1174 1175 1177 1177 1177 1177 1177 1177 1178 1178 1179 1183 1187 1194 1202 1217 1227 1234 1237 1240 1241 1241 1241 1241 1241 1241 1240 1238 1237 1236 1234 1233 1231 1229 1227 1226 1224 1222 1219 1217 1215 1211 1206 1203 1199 1190 1176 1157 1145 1140 1137 1134 1134 1134 1133 1133 1133 1130 1127 1126 1125 1125 1125 1125 1126 1129 1131 1131 1132 1137 1137 1141 1144 1150 1154 1155 1156 1156 1155 1155 1154 1153 1151 1149 1148 1146 1145 1143 1141 1140 1139 1137 1136 1135 1134 1133 1131 1129 1127 1126 1124 1120 1118 1118 1115 1111 1104 1097 1092 1092 1091 1091 1090 1090 1090 1089 1087 1085 1085 1084 1082 1082 1082 1082 1082 1081 1081 1081 1081 1080 1080 1080 1079 1078 1075 1073 1071 1067 1062 1057 1053 1052 1051 1049 1048 1045 1043 1042 1042 1039 1038 1038 1038 1037 1036 1034 1033 1032 1031 1031 1030 1030 1030 1030 1030 1030 1030 1030 1030 1030 1032 1032 1033 1033 1033 1033 1033 1033 1032 1031 1030 1030 1029 1028 1027 1026 1025 1024 1023 1022 1020 1019 1018 1017 1016 1015 1013 1013 1012 1011 1010 1009 1008 1007 1007 1005 1004 1003 1002 1001 1000 999 998 997 995 995 994 993 992 991 990 988 987 987 985 985 984 983 982 982 982 982 982 982 982 982 987 997 1003 0 0 0 0 0 1359 1391 1403 1407 1407 1410 1411 1411 1411 1411 1410 1410 1410 1410 1409 1407 1404 1402 1399 1397 1396 1395 1394 1393 1393 1391 1389 1389 1387 1383 1382 1379 1377 1374 1371 1369 1367 1364 1362 1360 1358 1355 1352 1346 1340 1332 1329 1328 1325 1321 1319 1314 1310 1308 1307 1305 1305 1301 1301
375 375 367 367 361 357 353 353 353 359 363 366 366 366 365 365 365 365 371 371 371 367 362 362 362 364 373 380 386 392 399 403 410 412 412 412 406 406 406 413 423 440 455 461 461 461 461 461 468 474 479 491 500 509 518 518 520 522 524 558 566 576 582 596 0 0 0 0 0 0 0 0 0 0 0 0 0 1552 1562 1566 1577 1592 1636 1667 1678 1681 1686 1688 1688 1688 1690 1690 1690 1702 1702 1702 1699 0 0 0 0 0 0 0 0 0 0 0 0 0 0 0 0 0 0 0 0 0 0 0 0 0 0 0 0 0 0 0 0 0 0 0 0 0 0 0 0 0 0 0 1252 1260 1260 0 0 0 0 0 0 0 0 0 0 0 0 0 0 0 0 0 0 0 0 0 0 0 0 0 0 0 0 0 0 0 0 0 0 0 0 0 0 0 0 0 0 0 0 0 0 0 0 0 0 0 0 0 0 0 0 0 0 0 0 0 0 0 0 0 0 0 0 0 0 0 0 0 0 0 1692 1709 1724 1742 1742 1742 1739 1739 1739 1759 1775 1797 1808 1808 1808 1803 1802 1802 1802 1809 1809 1809 1798 1788 1788 1787 1788 1791 1791 1791 1791 1783 1773 1773 0 0 0 0 1801 1801 1801 1819 1826 1845 1845 1845 1832 1828 1823 1815 1815 1813 1809 1801 1793 1792 1790 1783 1769 1752 1746 1740 1731 1730 1725 1725 1725 0 0 0 0 0 0 0 0 0 0 0 0 1421 1405 1397 1390 1380 1372 1359 1349 1345 1341 1338 1336 1333 1330 1326 1325 1325 1323 1322 1321 1320 1318 1316 1315 1313 1310 1309 1306 1302 1300 1296 1292 1284 1269 1240 1192 1179 1176 1174 1174 1174 1176 1177 1177 1177 1177 1177 1177 1178 1178 1179 1184 1188 1197 1207 1221 1229 1232 1237 1240 1241 1241 1241 1241 1241 1241 1240 1238 1237 1236 1234 1233 1231 1229 1227 1225 1224 1221 1219 1218 1215 1211 1205 1201 1198 1190 1169 1151 1139 1134 1131 1131 1131 1132 1132 1132 1132 1130 1127 1126 1125 1125 1125 1125 1126 1129 1131 1134 1134 1138 1140 1142 1147 1152 1155 1156 1156 1156 1156 1155 1155 1154 1153 1151 1149 1148 1146 1144 1143 1141 1140 1138 1137 1135 1134 1133 1132 1130 1129 1126 1124 1120 1117 1116 1115 1108 1103 1095 1092 1089 1085 1085 1085 1085 1083 1080 1080 1078 1078 1078 1078 1078 1077 1077 1077 1077 1078 1078 1078 1078 1077 1077 1076 1074 1072 1072 1070 1068 1063 1059 1056 1055 1053 1052 1050 1048 1047 1045 1044 1042 1042 1041 1041 1041 1039 1037 1035 1033 1033 1032 1032 1031 1031 1031 1031 1031 1031 1031 1031 1031 1032 1033 1033 1033 1033 1032 1032 1032 1031 1031 1030 1029 1029 1028 1026 1026 1025 1023 1022 1021 1020 1019 1018 1016 1015 1014 1013 1013 1012 1011 1010 1009 1008 1007 1006 1005 1004 1002 1001 1001 1000 999 998 997 995 995 994 993 991 990 990 988 987 986 985 984 983 982 982 982 982 982 982 982 982 982 987 991 995 0 0 0 0 0 1362 1388 1400 1405 1405 1408 1410 1410 1410 1410 1410 1410 1410 1409 1408 1407 1404 1401 1398 1397 1396 1394 1393 1391 1391 1390 1388 1387 1384 1383 1381 1379 1377 1374 1371 1369 1367 1364 1362 1359 1356 1354 1351 1346 1341 1334 1331 1330 1327 1324 1321 1314 1309 1308 1307 1305 1305 1301 1301
376 376 367 367 361 353 348 348 348 353 358 360 360 360 360 359 359 361 361 363 363 363 361 360 360 360 363 368 374 378 385 392 404 412 412 412 405 405 405 411 419 435 446 448 449 449 450 455 465 470 476 484 492 497 506 510 513 518 524 554 562 576 582 596 0 0 0 0 0 0 0 0 0 0 0 0 0 1545 1562 1563 1573 1589 1631 1658 1669 1673 1679 1681 1681 1681 1677 1677 1677 1691 1691 1691 1688 0 0 0 0 0 0 0 0 0 0 0 0 0 0 0 0 1345 1344 1311 1293 1279 0 0 0 0 0 0 0 0 0 0 0 0 0 0 0 0 0 0 0 0 0 0 0 0 0 0 0 0 0 0 0 0 0 0 0 0 0 0 0 0 0 0 0 0 0 0 0 0 0 0 0 0 0 0 0 0 0 0 0 0 0 0 0 0 0 0 0 0 0 0 0 0 0 0 0 0 0 0 0 0 0 0 0 0 0 0 0 0 0 0 0 0 0 0 0 0 0 0 0 0 1689 1705 1709 1735 1739 1739 1739 1739 1739 1757 1775 1788 1788 1788 1777 1757 1757 1757 1765 1782 1790 1790 1790 1788 1788 1788 1791 1806 1812 1821 1821 1821 1812 1800 1800 1800 1799 1799 1801 1801 1801 1819 1826 1833 1833 1833 1825 1823 1821 1815 1815 1813 1809 1801 1793 1792 1790 1785 1776 1764 1756 1740 1731 1730 1725 1717 1717 0 0 0 0 0 0 0 0 0 0 0 0 1421 1404 1397 1391 1381 1372 1361 1350 1344 1340 1338 1335 1332 1328 1326 1325 1325 1323 1322 1321 1319 1317 1315 1313 1312 1310 1309 1307 1303 1300 1296 1292 1286 1270 1240 1192 1179 1176 1175 1175 1175 1176 1177 1177 1177 1177 1177 1177 1178 1178 1179 1184 1189 1198 1208 1221 1229 1234 1238 1239 1241 1241 1241 1241 1241 1240 1240 1238 1237 1236 1234 1233 1231 1229 1227 1225 1223 1221 1220 1218 1215 1210 1205 1201 1197 1188 1169 1150 1138 1134 1131 1130 1130 1130 1132 1132 1132 1130 1127 1126 1125 1125 1125 1125 1127 1130 1132 1135 1138 1138 1140 1143 1149 1153 1155 1156 1156 1156 1156 1156 1155 1154 1153 1151 1149 1148 1146 1145 1143 1141 1140 1139 1138 1136 1135 1134 1132 1131 1129 1126 1124 1121 1117 1115 1114 1107 1099 1094 1090 1086 1082 1080 1080 1079 1079 1077 1077 1074 1072 1072 1072 1071 1071 1071 1071 1075 1075 1075 1075 1075 1075 1073 1073 1073 1072 1071 1070 1068 1063 1062 1060 1058 1057 1054 1051 1050 1048 1048 1047 1045 1044 1044 1043 1043 1041 1039 1037 1036 1035 1035 1035 1034 1032 1032 1032 1032 1032 1032 1032 1032 1033 1033 1033 1033 1033 1032 1032 1032 1031 1031 1030 1029 1029 1027 1026 1025 1024 1022 1022 1021 1020 1018 1018 1016 1015 1014 1013 1012 1012 1011 1010 1009 1008 1007 1006 1004 1004 1002 1001 1000 1000 999 998 997 995 995 994 992 991 990 989 988 987 986 985 984 983 982 982 982 982 982 982 982 982 982 987 991 995 0 0 0 0 0 1362 1386 1398 1403 1405 1407 1408 1409 1409 1409 1409 1409 1409 1409 1408 1407 1404 1401 1398 1397 1396 1393 1392 1390 1388 1388 1387 1385 1383 1382 1381 1378 1376 1373 1371 1369 1367 1364 1360 1356 1353 1351 1351 1346 1341 1336 1333 1330 1327 1324 1321 1314 1308 1308 1307 1305 1305 1301 1301
376 376 367 367 355 347 342 342 342 346 350 350 350 353 353 353 356 356 356 358 358 359 359 359 360 360 363 363 368 375 382 392 403 411 411 411 408 408 408 411 419 428 434 434 435 435 442 450 460 469 472 479 483 488 494 498 504 513 524 540 561 584 592 596 0 0 0 0 0 0 0 0 0 0 0 0 0 1545 1551 1558 1563 1576 1618 1651 1659 1664 1668 1671 1671 1671 1673 1673 1675 1689 1689 1689 1678 0 0 0 0 0 0 0 0 0 0 0 0 0 0 0 1347 1323 1312 1311 1293 1279 1274 0 0 0 0 0 0 0 0 0 0 0 0 0 0 0 0 0 0 0 0 0 0 0 0 0 0 0 0 0 0 0 0 0 0 0 0 0 0 0 0 0 0 0 0 0 0 0 0 0 0 0 0 0 0 0 0 0 0 0 0 0 0 0 0 0 0 0 0 0 0 0 0 0 0 0 0 0 0 0 0 0 0 0 0 0 0 0 0 0 0 0 0 0 0 0 0 0 0 0 0 1690 1706 1733 1733 1734 1737 1737 1740 1751 1771 1771 1771 1763 1740 1736 1736 1736 1748 1761 1773 1781 1784 1786 1787 1788 1791 1806 1812 1821 1821 1821 1812 1800 1800 1800 1799 1799 1794 1784 1784 1784 1791 1798 1810 1810 1812 1812 1812 1812 1812 1809 1802 1793 1793 1792 1790 1785 1776 1768 1756 1740 1719 1694 1680 1680 1680 1683 0 0 0 0 0 0 0 0 0 0 0 1421 1404 1396 1391 1381 1373 1361 1350 1344 1340 1338 1334 1329 1327 1326 1325 1324 1323 1321 1320 1319 1317 1315 1313 1311 1310 1308 1307 1303 1300 1296 1292 1286 1270 1240 1199 1186 1182 1180 1180 1177 1177 1177 1177 1177 1177 1177 1179 1180 1182 1182 1187 1191 1199 1208 1221 1229 1235 1238 1239 1240 1240 1240 1240 1240 1240 1239 1238 1237 1235 1234 1232 1230 1229 1227 1225 1223 1221 1220 1218 1214 1210 1205 1201 1197 1187 1168 1149 1138 1134 1131 1130 1130 1130 1131 1131 1131 1129 1127 1126 1125 1125 1125 1126 1129 1130 1133 1135 1138 1138 1140 1143 1149 1153 1155 1156 1156 1156 1156 1156 1155 1154 1153 1151 1149 1148 1147 1145 1143 1142 1141 1139 1138 1136 1136 1134 1133 1131 1129 1126 1124 1121 1116 1111 1111 1103 1098 1093 1088 1084 1081 1080 1079 1078 1077 1076 1076 1074 1068 1068 1067 1066 1067 1067 1067 1069 1070 1071 1071 1071 1073 1072 1071 1071 1071 1071 1070 1069 1067 1066 1065 1063 1061 1058 1055 1055 1053 1049 1049 1049 1048 1048 1048 1047 1044 1041 1039 1037 1037 1037 1036 1036 1034 1033 1032 1032 1032 1032 1033 1033 1033 1033 1033 1033 1033 1032 1032 1031 1031 1030 1029 1029 1027 1027 1026 1025 1023 1022 1021 1020 1019 1018 1017 1016 1014 1014 1013 1012 1012 1011 1010 1009 1008 1007 1006 1004 1003 1002 1001 1000 999 999 997 996 995 994 994 992 991 990 989 988 987 986 985 984 983 982 982 982 982 982 983 983 983 983 988 991 995 0 0 0 0 0 1362 1385 1398 1403 1403 1404 1406 1406 1406 1407 1408 1408 1408 1408 1406 1405 1402 1400 1398 1396 1395 1391 1390 1388 1386 1386 1385 1384 1383 1382 1380 1378 1375 1372 1370 1368 1365 1362 1358 1355 1350 1348 1346 1344 1341 1336 1333 1330 1327 1324 1321 1313 1308 1307 1306 1305 1304 1301 1301
376 376 356 356 348 341 341 340 340 340 345 349 349 350 351 351 351 351 351 351 352 354 358 359 360 360 363 363 368 373 381 389 402 410 410 410 408 408 408 411 418 418 418 422 423 426 435 443 451 458 461 468 474 478 479 486 495 505 515 537 560 584 603 628 0 0 0 0 0 0 0 0 0 0 0 0 0 1522 1537 1541 1543 1558 1605 1639 1650 1656 1661 1667 1668 1669 1670 1671 1673 1683 1683 1683 1667 0 0 0 0 0 0 0 0 0 0 0 0 0 0 1342 1326 1319 1312 1311 1311 1311 1317 1335 1349 1362 1362 1362 0 0 0 0 0 0 0 0 0 0 0 0 0 0 0 0 0 0 0 0 0 0 0 0 0 0 0 0 0 0 0 0 0 0 0 0 0 0 0 0 0 0 0 0 0 0 0 0 0 0 0 0 0 0 0 0 0 0 0 0 0 0 0 0 0 0 0 0 0 0 0 0 0 0 0 0 0 0 0 0 0 0 0 0 0 0 0 0 0 0 0 0 0 0 0 0 0 1721 1725 1728 1734 1737 1740 1750 1752 1752 1752 1736 1709 1709 1709 1719 1732 1738 1747 1756 1764 1769 1772 1778 1786 1806 1812 1821 1821 1821 1812 1800 1798 1797 1795 1780 1769 1765 1765 1765 1771 1774 1780 1787 1791 1791 1799 1799 1799 1795 1783 1778 1778 1778 1778 1778 1776 1768 1756 1733 1704 1672 1642 1642 1642 1656 0 0 0 0 0 0 0 0 0 0 0 1423 1404 1396 1391 1382 1375 1363 1351 1345 1340 1336 1332 1328 1326 1326 1325 1323 1322 1320 1319 1318 1317 1314 1313 1311 1309 1308 1306 1303 1300 1296 1292 1284 1270 1237 1203 1191 1185 1185 1184 1183 1179 1179 1178 1178 1178 1178 1180 1181 1182 1182 1187 1192 1200 1208 1219 1229 1234 1238 1240 1240 1240 1240 1240 1240 1240 1239 1238 1237 1235 1234 1232 1230 1228 1226 1225 1223 1221 1219 1217 1214 1210 1205 1200 1195 1186 1167 1148 1138 1134 1133 1132 1131 1130 1130 1130 1130 1128 1126 1126 1126 1126 1126 1126 1129 1131 1133 1135 1138 1138 1139 1143 1149 1153 1155 1156 1156 1156 1156 1156 1155 1154 1153 1151 1149 1148 1147 1146 1144 1142 1141 1139 1139 1137 1136 1134 1133 1131 1129 1126 1123 1120 1116 1111 1103 1101 1097 1092 1087 1083 1079 1078 1077 1077 1075 1074 1071 1069 1066 1062 1062 1062 1065 1065 1066 1066 1066 1067 1068 1070 1070 1070 1070 1070 1070 1070 1070 1070 1070 1068 1066 1065 1064 1062 1060 1059 1058 1057 1054 1053 1052 1052 1052 1050 1048 1044 1043 1041 1040 1040 1039 1038 1037 1036 1036 1036 1035 1034 1033 1033 1033 1033 1033 1033 1033 1032 1031 1030 1030 1029 1029 1028 1027 1027 1025 1024 1022 1021 1020 1019 1018 1017 1016 1016 1014 1013 1013 1012 1011 1010 1010 1008 1007 1006 1005 1004 1003 1002 1001 1000 999 999 997 996 995 994 994 992 991 990 989 988 987 986 985 984 983 982 982 982 983 983 983 983 983 983 988 993 1000 0 0 0 0 0 1359 1385 1397 1402 1402 1403 1403 1404 1404 1405 1406 1406 1406 1406 1405 1402 1402 1399 1397 1396 1394 1389 1388 1387 1385 1385 1384 1382 1380 1379 1377 1375 1373 1370 1367 1365 1363 1360 1357 1354 1350 1346 1343 1341 1339 1336 1333 1329 1325 1323 1317 1311 1306 1303 1301 1301 1300 1297 1297
