1822 1822 1843 1871 1894 1920 1945 1952 1962 1967 1979 1983 1995 2005 2015 2027 2039 2050 2050 2057 2057 2058 2073 2094 2110 2122 2143 2156 2162 2167 2174 2177 2178 2180 2186 2196 2205 2212 2215 2220 2226 2237 2255 2269 2273 2274 2275 2276 2287 2305 2315 2323 2332 2339 2345 2354 2358 2366 2374 2378 2381 2385 2389 2391 2395 2405 2417 2428 2434 2439 2446 2451 2459 2469 2479 2481 2485 2488 2489 2493 2493 2495 2495 2495 2496 2505 2505 2505 2505 2505 0 0 0 0 0 0 0 0 0 0 0 0 0 0 0 0 1816 1816 1816 1816 1816 1816 1816 1820 1821 1821 1821 1821 1821 1824 1827 1831 1832 1833 1843 0 0 0 0 0 0 0 0 0 0 2830 3005 3035 3050 3206 3280 3311 3359 3380 3387 3400 3404 3409 3409 3409 3407 3407 3407 3413 3424 3427 3427 3427 3427 3427 3429 3438 3450 3465 3466 3467 3470 3471 3471 3471 3464 3461 3456 3456 3456 3456 3465 3468 3469 3469 3472 3473 3474 3474 3474 3475 3475 3478 3482 3482 3482 3482 3483 3483 3483 3482 3481 3480 3479 3473 3468 3463 3459 3458 3458 3458 3459 3460 3462 3464 3466 3469 3473 3475 3476 3479 3482 3485 3488 3488 3488 3488 3479 3468 3459 3459 3459 3459 3459 3451 3435 3422 3422 3422 3420 3420 3420 3395 3378 3354 3326 3305 3287 3269 3240 3195 3154 3054 2768 0 0 0 0 0 1295 1294 1294 1294 1294 1293 1290 1286 1284 1282 1279 1277 1275 1273 1271 1269 1267 1265 1262 1260 1258 1256 1254 1251 1249 1247 1245 1242 1239 1236 1234 1230 1228 1226 1222 1213 1200 1197 1194 1189 1186 1179 1175 1171 1168 1166 1165 1165 1164 1164 1163 1163 1163 1163 1163 1164 1166 1168 1169 1169 1169 1169 1168 1168 1167 1165 1164 1162 1160 1159 1157 1155 1153 1151 1149 1148 1146 1143 1142 1139 1137 1134 1131 1128 1124 1119 1115 1109 1109 1107 1105 1101 1099 1098 1096 1095 1094 1093 1093 1091 1090 1089 1088 1087 1085 1083 1082 1081 1081 1081 1081 1079 1079 1079 1079 1078 1077 1076 1075 1074 1072 1071 1069 1068 1067 1065 1063 1062 1060 1057 1055 1054 1053 1051 1049 1047 1045 1044 1042 1041 1039 1038 1035 1034 1032 1031 1030 1030 1029 1027 1026 1025 1023 1022 1022 1021 1020 1019 1018 1016 1014 1013 1012 1010 1009 1008 1007 1005 1005 1003 1002 1000 998 997 996 994 992 991 989 988 987 986 985 984 982 981 980 979 978 977 975 974 974 973 972 971 969 968 967 966 965 965 963 962 959 957 956 955 954 952 952 951 950 948 948 946 946 945 944 942 942 941 940 939 939 938 938 938 938 938 939 940 941 941 943 944 954 967 987 0 0 0 0 0 1642 1652 1669 1675 1683 1687 1691 1694 1696 1697 1697 1698 1698 1698 1698 1698 1698 1697 1696 1696 1695 1694 1692 1692 1691 1691 1690 1688 1686 1686 1684 1683 1683 1683 1683 1683 1683 1684 1685 1689 1695 1706 1716 1725 1730 1733 1736 1739 1742 1744 1745 1746 1747 1748 1748 1749 1749 1749 1749 1749 1749 1749 1749 1750 1751 1753 1754 1756 1759 1761 1763 1769 1777 1787 1810 1829 1842 1844 1844 1844 1843 1840 1835 1834 1832 1828 1824 1822 1819 1817 1813 1809 1805 1801 1797 1795 1791 1789 1785 1783 1780 1777 1775 1770 1764 1760 1757 1752 1748 1744 1738 1735 1735 1734 1732 1730 1728 1725 1723 1721 1718 1717 1714 1712 1710 1708 1702 1700 1699 1697 1695 1695 1693 1692 1690 1686 1686 1686 1689 1689 1689 0
1832 1832 1856 1880 1908 1920 1946 1958 1965 1974 1981 1983 1995 2007 2018 2036 2050 2061 2061 2061 2061 2061 2078 2103 2110 2133 2149 2159 2168 2175 2181 2185 2185 2185 2190 2199 2210 2217 2219 2223 2227 2239 2250 2262 2266 2268 2274 2276 2287 2302 2316 2323 2333 2342 2350 2354 2362 2368 2374 2378 2385 2390 2391 2393 2397 2406 2418 2430 2440 2445 2448 2452 2456 2465 2478 2481 2485 2488 2489 2497 2502 2507 2510 2515 2521 2529 2529 2529 2529 2528 2528 2528 2528 2512 0 0 0 0 0 0 0 0 0 0 0 0 0 0 0 0 1816 1816 1816 1820 1821 1821 1820 1820 1818 1815 1815 1816 1816 1816 1828 1845 1852 1859 1876 0 0 0 0 0 0 0 0 0 0 0 2960 3099 3235 3315 3373 3400 3404 3409 3409 3409 3407 3407 3407 3412 3422 3422 3422 3421 3421 3421 3425 3439 3454 3465 3466 3467 3469 3471 3471 3471 3464 3461 3456 3454 3454 3454 3460 3465 3465 3468 3471 3472 3474 3474 3474 3475 3475 3478 3480 3480 3481 3481 3483 3483 3483 3481 3476 3475 3472 3469 3464 3460 3456 3455 3455 3455 3456 3458 3460 3463 3466 3468 3472 3474 3476 3479 3481 3485 3487 3487 3487 3479 3466 3458 3454 3454 3454 3453 3453 3447 3434 3422 3422 3422 3420 3420 3420 3395 3378 3355 3332 3309 3295 3277 3247 3194 3141 3053 2758 0 0 0 0 0 1294 1294 1294 1294 1294 1293 1290 1286 1284 1282 1280 1278 1275 1273 1271 1269 1267 1265 1262 1260 1258 1256 1254 1251 1249 1247 1245 1242 1240 1237 1234 1231 1228 1226 1222 1212 1200 1197 1193 1189 1186 1179 1175 1171 1169 1167 1165 1165 1165 1165 1164 1164 1163 1163 1163 1164 1166 1169 1169 1169 1169 1169 1169 1168 1167 1166 1164 1162 1161 1159 1157 1156 1154 1151 1150 1148 1146 1144 1142 1139 1137 1134 1131 1128 1124 1119 1113 1109 1107 1106 1104 1101 1099 1097 1096 1094 1093 1092 1091 1089 1088 1087 1087 1085 1084 1082 1080 1080 1080 1080 1080 1079 1079 1079 1079 1078 1077 1076 1075 1074 1073 1071 1069 1068 1067 1065 1064 1062 1060 1059 1056 1055 1053 1052 1049 1047 1045 1044 1042 1040 1039 1037 1035 1033 1032 1030 1030 1029 1029 1027 1025 1024 1023 1022 1022 1020 1020 1018 1017 1015 1014 1013 1012 1009 1008 1007 1007 1005 1004 1003 1002 1000 998 997 994 994 992 991 989 988 987 986 984 984 982 981 980 979 978 977 976 975 974 973 972 971 969 968 967 966 965 963 962 960 959 957 956 955 954 952 952 951 950 948 947 946 945 944 944 942 942 941 940 939 938 938 938 938 938 938 940 940 941 941 942 944 955 967 986 0 0 0 0 0 1620 1642 1661 1675 1685 1690 1692 1694 1695 1697 1697 1698 1698 1698 1698 1698 1698 1697 1697 1697 1695 1695 1693 1693 1692 1692 1690 1689 1688 1687 1685 1684 1684 1683 1683 1683 1683 1683 1684 1686 1693 1704 1712 1722 1728 1731 1736 1739 1742 1744 1745 1746 1747 1748 1749 1749 1749 1750 1750 1750 1751 1751 1751 1751 1752 1753 1755 1757 1760 1763 1764 1770 1777 1787 1804 1828 1839 1842 1843 1843 1842 1839 1835 1834 1832 1828 1824 1822 1820 1817 1814 1809 1805 1801 1797 1795 1791 1789 1785 1782 1779 1774 1771 1766 1762 1758 1754 1751 1746 1741 1737 1735 1734 1734 1732 1730 1727 1725 1723 1721 1720 1717 1715 1712 1710 1708 1702 1700 1698 1697 1695 1695 1694 1692 1690 1686 1686 1686 1689 1689 1689 0
1842 1842 1866 1882 1908 1924 1946 1958 1965 1976 1981 1988 1996 2008 2026 2043 2058 2063 2063 2064 2065 2066 2086 2112 2117 2136 2151 2163 2170 2176 2182 2189 2195 2195 2195 2203 2213 2222 2226 2229 2230 2240 2250 2256 2262 2267 2274 2276 2287 2302 2316 2324 2334 2342 2351 2355 2362 2368 2373 2378 2385 2390 2391 2397 2405 2410 2419 2433 2441 2446 2450 2452 2456 2465 2474 2477 2483 2485 2488 2497 2502 2510 2516 2522 2529 2536 2537 2538 2540 2541 2542 2543 2544 2545 2545 2544 2536 2516 0 0 0 0 0 0 0 0 0 0 0 0 0 0 0 1828 1828 1825 1823 1810 1808 1794 1794 1794 1800 1813 1821 1832 1839 1841 1841 1841 1841 1836 1836 0 0 0 0 0 0 0 0 0 2730 3026 3214 3317 3359 3377 3406 3406 3406 3406 3406 3412 3418 3418 3418 3412 3412 3412 3422 3439 3454 3464 3464 3466 3467 3467 3469 3469 3469 3466 3459 3452 3452 3452 3455 3462 3463 3466 3468 3471 3474 3474 3474 3474 3474 3474 3474 3475 3476 3478 3483 3483 3483 3481 3476 3472 3469 3466 3461 3457 3455 3453 3453 3453 3453 3456 3459 3461 3463 3466 3470 3472 3475 3478 3480 3485 3486 3486 3486 3474 3466 3458 3454 3454 3454 3449 3449 3443 3433 3421 3416 3416 3413 3409 3409 3392 3378 3355 3333 3315 3298 3277 3248 3194 3136 3053 2742 0 0 0 0 1308 1294 1294 1294 1294 1294 1293 1290 1286 1284 1282 1280 1278 1276 1273 1271 1269 1267 1265 1262 1260 1258 1255 1254 1251 1249 1247 1245 1242 1240 1237 1234 1231 1228 1225 1221 1211 1200 1197 1193 1189 1186 1182 1178 1174 1170 1168 1165 1165 1165 1165 1165 1164 1163 1163 1163 1164 1166 1169 1170 1170 1170 1170 1170 1168 1167 1166 1165 1163 1161 1159 1157 1156 1154 1151 1150 1148 1146 1144 1142 1139 1138 1134 1131 1128 1124 1117 1110 1105 1105 1104 1103 1101 1099 1097 1095 1094 1093 1091 1090 1088 1086 1086 1085 1083 1081 1078 1078 1078 1080 1080 1080 1079 1079 1079 1078 1078 1077 1076 1075 1074 1073 1071 1070 1069 1068 1066 1065 1062 1061 1059 1057 1055 1054 1052 1049 1048 1046 1043 1042 1040 1038 1036 1035 1032 1030 1027 1027 1026 1026 1024 1024 1021 1020 1020 1020 1020 1019 1018 1016 1014 1013 1012 1011 1009 1007 1007 1006 1005 1004 1003 1002 999 998 997 994 994 992 991 989 988 985 985 984 984 983 981 980 979 978 977 976 975 974 973 972 971 969 967 966 966 964 962 961 960 959 957 956 955 955 953 952 951 950 948 947 946 945 944 943 942 942 941 940 939 938 938 938 938 938 938 940 940 941 941 943 947 955 966 980 0 0 0 0 0 1609 1641 1660 1673 1685 1690 1692 1693 1695 1695 1697 1697 1698 1698 1698 1698 1698 1697 1697 1697 1696 1695 1694 1694 1693 1692 1691 1690 1688 1687 1686 1685 1684 1684 1683 1682 1682 1682 1684 1685 1688 1697 1705 1714 1723 1728 1733 1739 1742 1744 1745 1746 1747 1748 1749 1750 1751 1751 1752 1752 1752 1752 1753 1753 1753 1753 1755 1757 1762 1763 1767 1773 1777 1787 1803 1826 1838 1840 1840 1840 1839 1839 1835 1834 1832 1828 1826 1823 1821 1818 1815 1812 1808 1804 1798 1794 1790 1787 1783 1778 1773 1770 1768 1764 1760 1756 1752 1748 1744 1741 1737 1735 1733 1733 1732 1730 1728 1725 1723 1721 1720 1718 1715 1712 1710 1708 1702 1698 1695 1694 1694 1693 1693 1692 1689 1685 1682 1682 1682 1682 1688 0
1843 1843 1867 1888 1908 1924 1946 1958 1965 1976 1981 1989 1995 2008 2026 2043 2058 2063 2064 2065 2066 2071 2091 2113 2119 2137 2154 2163 2170 2176 2182 2189 2198 2203 2205 2209 2218 2227 2231 2237 2238 2244 2250 2254 2262 2267 2273 2280 2289 2302 2316 2326 2335 2342 2351 2355 2363 2369 2373 2378 2385 2390 2397 2404 2410 2415 2423 2433 2442 2447 2451 2453 2456 2465 2474 2477 2483 2485 2488 2496 2502 2510 2516 2522 2529 2536 2540 2542 2545 2547 2547 2549 2550 2550 2559 2566 2566 2566 2560 2559 2544 2540 2525 0 0 0 0 0 0 0 0 0 0 0 0 0 1828 1810 1808 1794 1789 1789 1789 1803 1819 1827 1833 1833 1833 1833 1832 1825 1822 1817 1804 1804 1804 0 0 0 0 0 0 0 0 2837 3097 3189 3282 3352 3397 3399 3403 3401 3402 3402 3401 3401 3402 3402 3418 3439 3454 3456 3456 3458 3458 3458 3464 3469 3469 3469 3459 3452 3449 3449 3449 3455 3461 3466 3468 3471 3473 3474 3474 3474 3471 3468 3468 3468 3472 3477 3481 3481 3481 3479 3475 3468 3463 3458 3456 3452 3451 3450 3450 3450 3450 3452 3455 3457 3457 3458 3461 3464 3467 3470 3475 3480 3484 3484 3484 3472 3466 3458 3454 3447 3447 3447 3447 3442 3432 3421 3413 3410 3408 3401 3399 3384 3372 3354 3334 3318 3308 3283 3254 3194 3136 3053 2709 0 0 0 0 1301 1294 1294 1293 1293 1293 1291 1289 1285 1284 1282 1280 1278 1276 1273 1271 1269 1267 1265 1262 1260 1257 1255 1253 1251 1249 1247 1245 1242 1240 1237 1234 1231 1227 1224 1218 1211 1199 1196 1193 1190 1187 1183 1179 1175 1171 1169 1166 1166 1165 1165 1165 1165 1163 1163 1163 1164 1166 1171 1171 1171 1171 1170 1170 1169 1167 1166 1165 1163 1161 1160 1158 1156 1154 1152 1150 1148 1146 1144 1142 1140 1138 1134 1131 1128 1122 1116 1110 1105 1105 1104 1102 1100 1097 1095 1095 1093 1091 1089 1088 1086 1085 1084 1083 1082 1079 1078 1078 1078 1078 1079 1079 1079 1079 1079 1078 1077 1077 1076 1075 1074 1073 1072 1071 1069 1068 1066 1065 1063 1061 1059 1058 1056 1054 1052 1050 1048 1046 1044 1042 1040 1038 1036 1034 1032 1030 1027 1025 1025 1024 1022 1020 1020 1020 1020 1020 1018 1016 1014 1013 1013 1011 1009 1008 1008 1006 1006 1006 1005 1003 1003 1001 999 998 997 994 994 993 991 990 988 985 985 984 984 983 981 980 979 978 977 976 975 974 973 972 970 968 967 966 965 964 962 961 959 959 957 956 955 955 953 952 950 950 948 947 946 945 944 943 942 942 940 940 939 938 938 938 938 938 938 940 940 941 941 944 947 955 966 979 0 0 0 0 0 1607 1638 1658 1673 1685 1690 1692 1692 1694 1694 1695 1697 1698 1698 1698 1698 1698 1698 1698 1697 1697 1696 1696 1695 1694 1694 1692 1691 1689 1689 1687 1686 1685 1684 1683 1682 1682 1682 1684 1685 1685 1689 1699 1707 1715 1725 1731 1737 1742 1743 1744 1746 1747 1749 1749 1751 1752 1753 1753 1754 1754 1754 1754 1754 1755 1755 1757 1759 1762 1765 1770 1777 1784 1789 1802 1824 1837 1839 1839 1839 1839 1839 1836 1834 1833 1831 1827 1825 1823 1820 1817 1813 1811 1805 1800 1794 1789 1785 1781 1775 1770 1766 1763 1760 1757 1754 1751 1748 1744 1741 1737 1735 1734 1732 1730 1729 1727 1725 1723 1721 1720 1718 1715 1712 1710 1706 1702 1697 1695 1694 1694 1692 1692 1692 1688 1683 1681 1681 1681 1681 1685 0
1856 1856 1875 1893 1909 1924 1938 1954 1965 1974 1981 1989 1998 2008 2026 2043 2058 2063 2065 2067 2072 2082 2097 2117 2122 2142 2154 2163 2170 2176 2182 2191 2198 2207 2210 2216 2222 2228 2233 2240 2245 2250 2252 2254 2260 2267 2273 2282 2297 2310 2325 2331 2337 2342 2351 2355 2363 2370 2373 2380 2390 2399 2406 2411 2415 2422 2431 2436 2443 2447 2452 2455 2458 2466 2474 2477 2483 2485 2488 2496 2502 2510 2517 2524 2533 2541 2542 2542 2548 2557 2557 2557 2558 2558 2567 2579 2579 2580 2582 2582 2582 2582 2582 2582 2578 2564 2530 0 0 0 0 0 0 0 0 0 0 1810 1808 1794 1789 1789 1789 1801 1816 1826 1831 1832 1832 1832 1826 1818 1815 1813 1803 1803 1803 1808 1815 0 0 0 0 0 0 0 0 2192 2839 3048 3176 3314 3360 3378 3380 3380 3385 3385 3385 3396 3414 3432 3449 3449 3449 3449 3449 3449 3463 3469 3469 3469 3460 3452 3449 3449 3449 3455 3461 3466 3468 3471 3473 3473 3473 3473 3471 3465 3465 3465 3468 3471 3476 3476 3476 3474 3469 3465 3458 3455 3449 3448 3448 3448 3448 3449 3449 3449 3452 3453 3455 3455 3459 3460 3463 3467 3470 3475 3477 3477 3477 3471 3464 3460 3459 3454 3446 3444 3444 3440 3432 3421 3414 3408 3401 3388 3378 3375 3364 3353 3338 3329 3324 3293 3255 3194 3136 3042 2662 0 0 0 0 1301 1294 1294 1293 1293 1293 1290 1287 1285 1284 1282 1280 1278 1276 1273 1271 1269 1267 1264 1262 1260 1257 1255 1253 1251 1249 1247 1245 1242 1240 1237 1234 1231 1227 1222 1216 1210 1200 1196 1194 1190 1187 1184 1180 1175 1171 1169 1167 1166 1165 1165 1165 1165 1165 1165 1165 1166 1169 1172 1172 1172 1172 1171 1170 1169 1167 1167 1165 1163 1161 1160 1158 1156 1154 1153 1150 1148 1146 1144 1142 1140 1139 1135 1132 1128 1122 1116 1110 1105 1105 1104 1102 1099 1097 1095 1094 1092 1089 1087 1085 1084 1083 1083 1082 1080 1079 1077 1077 1077 1078 1079 1079 1079 1079 1078 1078 1078 1077 1077 1075 1074 1074 1072 1071 1069 1068 1066 1065 1063 1062 1059 1058 1056 1054 1052 1050 1048 1046 1044 1042 1040 1038 1035 1034 1031 1029 1027 1025 1023 1022 1021 1020 1019 1018 1017 1017 1014 1013 1012 1011 1008 1008 1005 1004 1004 1004 1004 1004 1004 1002 1000 1000 999 998 997 995 994 993 992 990 988 985 985 984 984 983 981 980 979 978 977 975 975 974 973 972 970 968 967 966 964 963 962 961 959 959 957 956 955 955 953 951 950 950 948 947 946 945 944 943 942 941 940 940 939 938 938 938 938 938 938 938 939 939 941 946 948 955 966 979 0 0 0 0 0 1607 1638 1654 1667 1678 1685 1687 1690 1693 1694 1695 1696 1697 1697 1697 1698 1698 1698 1698 1698 1698 1697 1697 1696 1695 1694 1694 1692 1691 1689 1688 1687 1685 1684 1683 1683 1683 1683 1684 1684 1685 1688 1697 1703 1709 1719 1729 1735 1740 1742 1744 1746 1747 1749 1750 1751 1752 1754 1754 1755 1755 1755 1756 1756 1756 1757 1757 1759 1762 1765 1771 1778 1786 1794 1802 1819 1832 1838 1839 1839 1839 1838 1837 1835 1833 1831 1829 1827 1823 1821 1818 1816 1813 1806 1800 1793 1788 1784 1779 1772 1767 1764 1761 1757 1754 1752 1750 1748 1744 1741 1739 1736 1734 1731 1730 1728 1727 1725 1723 1721 1719 1718 1715 1712 1708 1705 1701 1697 1695 1693 1690 1687 1687 1686 1685 1681 1679 1679 1679 1678 1680 0
1873 1873 1879 1894 1908 1924 1938 1953 1965 1977 1981 1991 1999 2010 2024 2034 2046 2056 2062 2069 2078 2096 2111 2117 2132 2144 2154 2164 2170 2176 2182 2191 2201 2208 2211 2216 2222 2228 2233 2241 2249 2254 2255 2256 2258 2263 2273 2282 2299 2317 2329 2333 2337 2342 2347 2354 2363 2372 2379 2386 2397 2406 2412 2415 2420 2430 2436 2440 2444 2450 2454 2459 2465 2472 2476 2483 2489 2492 2493 2496 2502 2510 2517 2524 2533 2541 2543 2543 2551 2560 2560 2561 2562 2562 2573 2586 2594 2595 2595 2595 2595 2595 2595 2595 2595 2595 2591 2583 0 0 0 0 0 0 0 0 0 1916 1890 1851 1800 1800 1800 1801 1819 1827 1828 1828 1828 1825 1823 1817 1812 1808 1802 1802 1802 1808 1809 1820 0 0 0 0 0 0 0 2054 2077 2148 2301 2715 3028 3112 3239 3299 3327 3360 3373 3392 3412 3428 3442 3449 3449 3449 3449 3449 3463 3469 3469 3469 3459 3450 3449 3449 3449 3455 3461 3468 3470 3472 3473 3473 3473 3473 3470 3463 3462 3462 3462 3466 3469 3469 3469 3467 3463 3459 3457 3450 3447 3446 3446 3446 3448 3448 3449 3449 3450 3452 3454 3455 3456 3459 3462 3464 3467 3469 3473 3473 3473 3469 3464 3460 3459 3454 3444 3441 3441 3439 3432 3425 3417 3409 3401 3388 3378 3375 3364 3353 3340 3330 3324 3293 3255 3199 3136 3025 2580 0 0 0 0 1301 1296 1296 1294 1293 1293 1290 1287 1285 1284 1282 1280 1278 1276 1273 1271 1269 1267 1264 1262 1260 1257 1255 1253 1251 1249 1247 1245 1242 1240 1238 1235 1231 1227 1221 1214 1204 1200 1197 1194 1191 1187 1184 1181 1177 1172 1169 1167 1166 1165 1165 1166 1166 1166 1166 1166 1167 1170 1172 1172 1172 1172 1172 1171 1170 1168 1167 1165 1163 1161 1160 1158 1156 1155 1153 1150 1148 1146 1144 1142 1140 1139 1136 1133 1128 1123 1116 1114 1109 1107 1104 1102 1099 1096 1095 1093 1091 1088 1086 1082 1081 1081 1081 1080 1079 1078 1077 1077 1077 1078 1079 1079 1079 1079 1079 1078 1078 1077 1077 1076 1075 1074 1073 1071 1070 1068 1066 1065 1063 1062 1060 1058 1056 1054 1052 1050 1048 1046 1044 1042 1040 1038 1035 1034 1031 1029 1027 1023 1022 1021 1021 1020 1018 1017 1016 1015 1014 1012 1012 1011 1008 1007 1005 1004 1004 1004 1004 1004 1003 1001 999 999 999 998 997 995 995 993 992 990 988 986 985 984 984 983 981 980 979 978 977 975 975 974 973 972 970 968 967 966 964 963 962 961 959 959 957 956 955 954 953 951 950 949 948 947 946 945 944 943 942 941 940 940 939 938 938 938 938 938 938 938 938 939 941 946 951 959 966 979 0 0 0 0 0 1591 1625 1645 1657 1669 1677 1682 1685 1688 1692 1693 1694 1695 1696 1697 1697 1698 1698 1698 1698 1698 1698 1697 1697 1697 1695 1694 1694 1693 1691 1689 1688 1686 1685 1684 1683 1683 1683 1684 1684 1685 1687 1694 1700 1706 1715 1725 1732 1737 1741 1744 1746 1748 1749 1750 1752 1753 1754 1755 1756 1756 1756 1756 1756 1757 1758 1759 1760 1763 1766 1771 1778 1786 1794 1802 1818 1831 1837 1839 1839 1839 1839 1839 1837 1836 1833 1830 1827 1825 1822 1820 1818 1813 1806 1800 1793 1788 1782 1776 1771 1766 1763 1759 1756 1754 1751 1749 1747 1744 1741 1739 1736 1734 1731 1729 1728 1726 1724 1722 1720 1718 1717 1714 1710 1708 1705 1701 1697 1695 1692 1689 1686 1684 1679 1676 1672 1672 1670 1670 1667 1667 0
1873 1873 1879 1894 1908 1923 1938 1953 1965 1977 1981 1991 1999 2010 2024 2034 2046 2056 2062 2069 2085 2107 2125 2131 2142 2147 2155 2165 2170 2176 2182 2194 2205 2208 2211 2216 2222 2228 2234 2242 2250 2257 2257 2258 2259 2263 2273 2285 2299 2317 2329 2333 2337 2342 2347 2354 2365 2374 2383 2392 2398 2406 2415 2422 2428 2438 2442 2443 2446 2452 2459 2464 2471 2478 2482 2488 2493 2494 2496 2498 2503 2510 2517 2524 2533 2541 2546 2550 2554 2561 2564 2564 2565 2567 2577 2590 2598 2603 2603 2603 2598 2598 2598 2599 2603 2603 2606 2606 2612 2618 2620 2620 2620 2598 2490 0 0 0 0 0 0 0 0 0 0 0 0 0 0 1833 1825 1817 1812 1807 1799 1797 1797 1797 1796 1796 1798 1808 1831 1838 1838 1843 0 0 0 0 0 0 0 0 0 0 0 3201 3274 3369 3407 3422 3435 3447 3447 3447 3449 3449 3463 3469 3469 3469 3458 3449 3449 3449 3450 3455 3461 3468 3473 3474 3474 3474 3473 3470 3466 3460 3456 3456 3456 3461 3461 3461 3459 3456 3456 3455 3450 3447 3444 3444 3444 3444 3444 3447 3448 3448 3450 3450 3450 3451 3452 3455 3459 3461 3463 3464 3467 3467 3467 3466 3460 3459 3457 3454 3444 3439 3439 3438 3437 3429 3422 3412 3401 3388 3378 3375 3364 3353 3344 3330 3324 3293 3255 3199 3136 2989 0 0 0 0 0 1301 1298 1296 1294 1294 1293 1290 1287 1285 1284 1282 1280 1278 1276 1274 1271 1269 1267 1264 1262 1260 1257 1255 1253 1251 1249 1247 1245 1243 1240 1238 1235 1231 1227 1221 1214 1204 1200 1197 1195 1191 1187 1185 1181 1177 1174 1169 1167 1166 1165 1165 1166 1166 1166 1166 1166 1169 1171 1173 1173 1173 1173 1173 1171 1170 1169 1167 1165 1164 1161 1160 1158 1156 1155 1153 1150 1148 1146 1144 1143 1140 1139 1136 1133 1129 1123 1117 1116 1113 1110 1107 1102 1099 1096 1095 1093 1091 1088 1085 1082 1081 1081 1081 1080 1079 1078 1077 1077 1077 1078 1078 1079 1079 1079 1079 1078 1078 1077 1077 1076 1075 1074 1073 1071 1070 1068 1067 1065 1063 1062 1060 1058 1056 1054 1052 1051 1049 1046 1044 1043 1040 1038 1035 1033 1030 1028 1026 1023 1022 1021 1020 1019 1018 1016 1015 1013 1012 1011 1011 1010 1008 1006 1005 1003 1003 1003 1002 1002 1001 1000 999 999 999 998 997 995 995 993 992 990 988 987 985 985 984 982 981 980 979 978 977 975 975 973 973 972 970 968 967 966 964 963 962 960 959 959 957 956 955 953 953 951 950 949 948 947 946 945 944 943 942 941 940 940 939 938 938 938 938 938 938 938 938 938 940 946 953 960 966 979 0 0 0 0 1577 1585 1611 1636 1649 1664 1671 1677 1683 1685 1688 1691 1693 1694 1696 1696 1697 1697 1698 1698 1699 1699 1699 1699 1698 1697 1697 1696 1694 1693 1692 1690 1689 1687 1686 1685 1684 1684 1684 1684 1684 1685 1686 1692 1697 1704 1710 1720 1729 1736 1741 1744 1746 1748 1750 1751 1753 1754 1756 1757 1757 1757 1757 1758 1758 1759 1759 1760 1761 1763 1766 1771 1778 1786 1794 1801 1815 1828 1837 1837 1838 1840 1840 1840 1840 1837 1836 1833 1829 1826 1824 1822 1818 1813 1806 1799 1791 1786 1781 1776 1770 1766 1761 1759 1755 1753 1750 1749 1747 1744 1741 1739 1736 1733 1730 1729 1726 1725 1723 1722 1719 1717 1714 1711 1708 1705 1703 1701 1697 1694 1691 1687 1684 1681 1677 1676 1672 1669 1667 1667 1667 1667 0
1873 1873 1879 1894 1908 1923 1938 1953 1970 1978 1988 2003 2012 2017 2024 2034 2046 2056 2062 2071 2089 2109 2128 2133 2148 2156 2160 2167 2174 2182 2190 2200 2206 2208 2211 2215 2222 2228 2234 2242 2250 2257 2258 2259 2260 2263 2273 2285 2300 2317 2329 2333 2338 2342 2347 2354 2365 2374 2383 2392 2398 2406 2415 2423 2431 2440 2444 2448 2450 2456 2465 2470 2476 2480 2485 2490 2493 2496 2498 2501 2507 2513 2520 2525 2533 2541 2546 2552 2558 2563 2565 2568 2569 2572 2581 2590 2599 2605 2605 2605 2604 2604 2604 2605 2610 2613 2614 2620 2620 2623 2632 2638 2638 2638 2619 2576 2535 0 0 0 0 0 0 0 0 0 0 0 0 0 1825 1817 1812 1806 1790 1788 1787 1787 1782 1782 1782 1786 1816 1831 1831 1837 1837 1829 1829 0 0 0 0 0 0 0 0 0 2815 3119 3293 3340 3390 3414 3440 3444 3446 3449 3463 3468 3468 3468 3456 3447 3447 3447 3450 3455 3461 3468 3473 3473 3473 3473 3470 3470 3464 3460 3452 3452 3452 3454 3454 3454 3452 3450 3449 3448 3446 3443 3442 3442 3441 3441 3442 3442 3444 3446 3446 3446 3443 3443 3443 3447 3453 3457 3460 3462 3462 3462 3457 3453 3452 3452 3451 3443 3438 3438 3437 3436 3436 3429 3422 3412 3400 3390 3383 3377 3368 3357 3345 3330 3315 3281 3245 3199 3125 2919 0 0 0 0 0 1301 1298 1296 1295 1294 1293 1290 1287 1285 1284 1282 1281 1278 1277 1274 1271 1269 1267 1264 1262 1260 1257 1255 1253 1251 1249 1247 1245 1243 1240 1237 1235 1231 1227 1221 1213 1204 1200 1198 1195 1191 1189 1186 1182 1178 1174 1171 1168 1166 1166 1166 1166 1166 1167 1167 1169 1172 1173 1173 1174 1174 1174 1174 1172 1171 1169 1167 1165 1164 1162 1160 1158 1157 1155 1153 1151 1149 1147 1144 1143 1140 1139 1136 1134 1130 1124 1122 1119 1116 1112 1109 1105 1100 1097 1095 1094 1091 1087 1085 1082 1081 1081 1081 1080 1079 1078 1077 1077 1077 1078 1078 1079 1079 1079 1079 1078 1078 1077 1077 1076 1075 1074 1073 1071 1070 1068 1068 1066 1064 1062 1060 1058 1056 1055 1052 1051 1049 1047 1045 1043 1041 1038 1035 1032 1029 1027 1025 1022 1021 1021 1020 1018 1017 1016 1014 1013 1011 1011 1010 1009 1007 1006 1004 1003 1002 1001 1001 1001 1000 1000 999 999 998 998 997 996 995 993 992 990 989 988 986 985 984 982 982 981 979 978 977 976 975 973 973 972 970 968 967 966 964 963 962 960 959 958 957 956 955 953 952 951 950 949 948 947 946 945 944 942 941 941 941 940 939 939 938 938 938 938 938 938 938 938 938 946 955 961 969 985 0 0 0 0 1576 1584 1607 1628 1648 1659 1668 1675 1682 1685 1688 1688 1691 1693 1694 1695 1696 1697 1698 1699 1699 1699 1699 1699 1699 1698 1698 1697 1696 1695 1693 1692 1690 1688 1687 1686 1685 1684 1684 1684 1684 1684 1685 1688 1695 1701 1705 1713 1724 1734 1740 1744 1746 1748 1750 1752 1753 1755 1756 1758 1758 1758 1759 1759 1759 1760 1761 1761 1763 1763 1766 1771 1777 1782 1791 1800 1811 1827 1835 1836 1838 1840 1841 1841 1841 1839 1837 1834 1831 1827 1826 1822 1818 1810 1803 1796 1790 1779 1773 1769 1767 1764 1760 1757 1754 1752 1750 1748 1746 1743 1741 1738 1735 1733 1729 1727 1726 1723 1722 1721 1719 1715 1713 1709 1706 1702 1701 1697 1694 1691 1687 1684 1683 1680 1677 1676 1672 1669 1667 1667 1666 1666 0
1872 1872 1874 1894 1908 1923 1938 1954 1973 1978 1996 2011 2021 2029 2036 2045 2049 2056 2061 2073 2089 2109 2128 2133 2148 2156 2163 2174 2186 2193 2198 2203 2206 2208 2211 2215 2222 2228 2234 2242 2250 2257 2259 2260 2261 2266 2274 2287 2299 2316 2326 2330 2337 2343 2348 2357 2367 2376 2383 2392 2398 2405 2415 2423 2431 2442 2449 2451 2454 2460 2465 2471 2477 2481 2486 2490 2494 2499 2502 2506 2508 2514 2520 2525 2533 2541 2547 2553 2561 2567 2568 2569 2573 2579 2589 2597 2602 2606 2608 2608 2609 2610 2611 2614 2616 2620 2621 2623 2627 2632 2635 2640 2643 2643 2643 2634 2619 2596 2571 2538 0 0 0 0 0 0 0 0 0 0 0 0 1812 1806 1790 1788 1787 1787 1768 1768 1768 1774 1800 1825 1827 1827 1827 1822 1822 1822 1853 0 0 0 0 0 0 0 0 0 0 2773 2996 3188 3274 3355 3422 3449 3462 3462 3462 3459 3453 3445 3445 3445 3450 3455 3459 3464 3473 3473 3473 3468 3464 3464 3462 3456 3451 3450 3450 3448 3448 3448 3446 3443 3441 3440 3440 3439 3439 3439 3439 3438 3438 3438 3440 3441 3441 3441 3436 3436 3436 3441 3447 3452 3456 3459 3459 3459 3456 3446 3445 3440 3439 3430 3428 3428 3428 3429 3429 3429 3422 3412 3400 3390 3383 3377 3368 3357 3345 3325 3302 3264 3224 3172 3116 2820 0 0 0 0 0 1300 1298 1296 1295 1294 1293 1290 1288 1285 1284 1282 1281 1279 1276 1274 1272 1269 1266 1264 1261 1259 1257 1254 1253 1251 1249 1247 1245 1243 1240 1237 1235 1231 1227 1221 1213 1204 1201 1200 1196 1192 1191 1187 1183 1178 1174 1171 1168 1167 1167 1167 1167 1167 1167 1167 1170 1175 1175 1175 1175 1175 1174 1174 1172 1171 1170 1167 1166 1164 1162 1160 1158 1157 1155 1153 1151 1149 1147 1145 1143 1140 1137 1136 1134 1130 1124 1122 1119 1116 1113 1109 1105 1101 1097 1096 1094 1091 1087 1085 1082 1081 1081 1081 1080 1079 1079 1078 1078 1078 1078 1078 1079 1079 1079 1079 1078 1078 1077 1077 1076 1075 1074 1073 1071 1070 1068 1068 1066 1064 1062 1060 1059 1056 1055 1053 1051 1050 1047 1045 1043 1041 1038 1035 1032 1029 1026 1024 1022 1021 1021 1020 1018 1016 1014 1013 1012 1010 1010 1008 1007 1005 1004 1002 1001 1000 1000 1000 1000 999 999 999 999 998 998 997 996 995 993 992 990 989 988 986 985 984 982 982 981 979 978 977 976 975 973 973 971 969 968 967 966 964 963 962 960 959 958 957 956 955 953 952 951 950 949 948 947 946 945 944 942 941 941 941 940 940 939 938 937 937 937 937 937 938 938 938 947 959 963 974 989 0 0 0 0 1571 1584 1605 1620 1630 1649 1664 1669 1676 1684 1686 1688 1690 1692 1693 1695 1696 1697 1698 1699 1699 1700 1700 1700 1699 1699 1699 1698 1697 1696 1695 1693 1691 1689 1688 1687 1686 1684 1684 1684 1684 1684 1684 1685 1688 1695 1703 1708 1720 1730 1737 1743 1746 1748 1750 1753 1754 1756 1757 1758 1759 1759 1759 1759 1759 1760 1761 1762 1764 1764 1767 1771 1777 1782 1787 1799 1809 1822 1832 1836 1839 1842 1842 1842 1841 1839 1837 1834 1831 1830 1826 1822 1817 1809 1802 1794 1783 1776 1770 1766 1765 1763 1759 1756 1753 1751 1750 1748 1745 1742 1740 1736 1734 1732 1728 1727 1724 1722 1720 1718 1717 1714 1712 1707 1704 1700 1697 1694 1690 1687 1683 1681 1681 1680 1677 1676 1672 1669 1666 1666 1666 1666 0
1872 1872 1874 1881 1901 1923 1938 1955 1974 1981 1997 2013 2021 2029 2040 2049 2053 2056 2063 2073 2090 2109 2128 2133 2148 2156 2165 2179 2193 2201 2202 2203 2206 2208 2211 2215 2222 2228 2234 2242 2249 2254 2258 2261 2263 2270 2279 2287 2299 2312 2321 2329 2337 2343 2352 2363 2369 2376 2381 2388 2396 2404 2413 2423 2431 2442 2450 2454 2458 2461 2467 2473 2481 2483 2487 2490 2494 2501 2505 2510 2514 2515 2520 2528 2536 2541 2547 2555 2566 2570 2571 2572 2574 2585 2592 2598 2603 2606 2609 2610 2610 2615 2618 2619 2619 2621 2627 2629 2633 2634 2635 2643 2644 2644 2644 2644 2644 2640 2633 2622 2601 2596 2593 2589 2558 0 0 0 0 0 0 0 0 0 0 0 0 1787 1768 1768 1768 1774 1790 1811 1822 1822 1822 1819 1819 1819 1821 1826 1826 0 0 0 0 0 0 0 0 0 0 0 2788 3075 3230 3293 3373 3394 3413 3442 3442 3445 3444 3444 3445 3446 3449 3454 3460 3460 3460 3453 3450 3450 3449 3449 3449 3445 3444 3443 3443 3441 3435 3435 3435 3435 3435 3436 3435 3435 3435 3435 3435 3435 3435 3438 3438 3438 3435 3435 3435 3437 3442 3447 3453 3457 3457 3457 3453 3443 3435 3430 3422 3416 3415 3415 3415 3415 3415 3413 3412 3403 3399 3390 3383 3377 3368 3357 3344 3322 3290 3254 3199 3131 3071 2781 0 0 0 0 1309 1300 1298 1296 1296 1295 1293 1290 1288 1286 1284 1282 1280 1278 1276 1274 1272 1269 1266 1263 1260 1259 1256 1254 1253 1250 1248 1246 1245 1243 1240 1237 1235 1231 1227 1221 1213 1204 1202 1200 1198 1196 1193 1189 1185 1179 1176 1171 1169 1169 1169 1169 1169 1168 1168 1168 1172 1175 1175 1175 1175 1175 1174 1174 1172 1171 1170 1167 1166 1164 1162 1160 1159 1157 1155 1153 1151 1149 1147 1146 1143 1140 1137 1135 1134 1130 1124 1122 1119 1118 1114 1111 1107 1102 1099 1098 1094 1091 1087 1085 1085 1084 1083 1082 1080 1080 1080 1080 1078 1078 1078 1079 1079 1079 1079 1079 1079 1078 1077 1077 1076 1075 1074 1073 1071 1070 1068 1067 1066 1064 1062 1060 1059 1056 1055 1053 1052 1050 1047 1045 1043 1041 1039 1035 1031 1029 1026 1024 1022 1021 1020 1019 1017 1015 1014 1012 1011 1010 1008 1008 1005 1004 1003 1001 1000 999 999 999 999 999 999 999 999 998 998 997 996 995 993 992 990 989 988 986 985 984 983 982 981 980 978 977 976 975 973 972 971 969 968 967 965 964 963 962 960 960 958 957 956 955 954 952 951 950 949 948 947 946 945 944 943 941 941 941 941 940 939 938 937 937 937 936 936 938 938 939 948 961 968 974 0 0 0 0 0 1561 1584 1605 1616 1624 1638 1653 1662 1668 1677 1686 1688 1688 1691 1693 1695 1696 1697 1698 1699 1699 1700 1700 1701 1701 1701 1701 1699 1699 1697 1696 1694 1693 1690 1689 1689 1687 1685 1684 1684 1684 1684 1684 1685 1687 1691 1700 1706 1714 1728 1737 1742 1746 1748 1750 1753 1754 1756 1757 1758 1759 1760 1760 1760 1760 1761 1762 1764 1765 1768 1768 1771 1777 1782 1787 1797 1809 1820 1828 1835 1839 1842 1842 1842 1841 1840 1837 1834 1831 1830 1826 1822 1814 1807 1799 1786 1778 1773 1768 1766 1764 1762 1759 1755 1753 1750 1748 1747 1744 1741 1737 1735 1732 1732 1728 1725 1722 1720 1718 1717 1715 1713 1711 1706 1702 1699 1695 1690 1686 1683 1681 1680 1680 1677 1677 1676 1672 1669 1666 1666 1666 1666 0
1872 1872 1874 1881 1893 1914 1938 1955 1975 1981 1997 2013 2021 2029 2040 2050 2054 2056 2063 2074 2091 2109 2117 2127 2137 2152 2165 2180 2193 2201 2202 2203 2206 2207 2213 2220 2225 2228 2234 2240 2247 2252 2258 2262 2266 2272 2280 2289 2296 2305 2314 2329 2338 2346 2359 2368 2374 2376 2381 2386 2394 2403 2413 2423 2431 2442 2450 2458 2462 2466 2471 2478 2483 2487 2490 2491 2495 2501 2506 2512 2515 2517 2521 2528 2536 2541 2547 2561 2572 2577 2577 2579 2579 2586 2593 2599 2603 2606 2609 2610 2612 2615 2621 2622 2623 2625 2632 2637 2638 2639 2640 2643 2647 2651 2651 2653 2658 2658 2658 2650 2650 2650 2646 2646 2646 2631 2602 2591 2519 0 0 0 0 0 0 0 0 0 0 0 0 1774 1790 1803 1810 1811 1810 1810 1812 1812 1807 1806 1789 1789 1789 1790 1815 1817 0 0 0 0 0 0 0 0 0 0 2895 3106 3257 3357 3390 3410 3428 3438 3441 3441 3444 3445 3447 3447 3447 3437 3437 3437 3442 3442 3442 3440 3437 3437 3434 3429 3429 3429 3433 3433 3433 3432 3431 3431 3431 3429 3429 3429 3430 3433 3434 3434 3434 3434 3434 3434 3438 3442 3445 3449 3452 3452 3452 3442 3431 3421 3410 3410 3410 3407 3407 3407 3407 3407 3404 3403 3399 3390 3382 3366 3353 3347 3338 3318 3285 3245 3190 3123 3049 2723 0 0 0 0 1308 1300 1298 1296 1296 1295 1293 1291 1289 1287 1284 1282 1280 1278 1276 1274 1271 1269 1266 1262 1260 1258 1256 1253 1252 1250 1248 1246 1244 1242 1240 1237 1234 1230 1226 1221 1214 1205 1202 1201 1199 1199 1196 1192 1186 1180 1176 1172 1171 1171 1170 1170 1170 1170 1170 1170 1172 1175 1175 1175 1175 1175 1174 1174 1172 1171 1170 1168 1166 1164 1162 1160 1159 1157 1155 1153 1151 1149 1147 1146 1143 1140 1137 1135 1132 1130 1124 1122 1119 1118 1116 1112 1108 1103 1101 1099 1097 1093 1090 1088 1088 1087 1085 1083 1082 1082 1081 1080 1080 1079 1079 1079 1079 1079 1079 1079 1079 1078 1077 1077 1076 1075 1074 1073 1071 1070 1068 1067 1066 1064 1062 1060 1059 1057 1055 1053 1052 1050 1047 1045 1043 1041 1039 1035 1031 1029 1026 1024 1022 1021 1019 1018 1016 1014 1013 1012 1011 1010 1008 1007 1005 1004 1002 1000 1000 999 999 999 999 999 998 998 998 998 998 997 996 995 993 992 991 989 988 986 985 984 983 982 981 979 978 977 975 974 973 972 971 969 968 967 965 964 963 962 961 960 958 957 956 955 953 952 951 950 949 948 947 946 945 944 943 942 942 942 941 940 939 938 936 936 936 938 938 938 938 939 950 963 968 976 0 0 0 0 0 1561 1591 1605 1614 1622 1631 1640 1652 1661 1670 1678 1685 1688 1690 1691 1694 1696 1697 1698 1699 1699 1700 1701 1701 1701 1701 1701 1701 1700 1698 1697 1695 1693 1691 1690 1689 1688 1687 1685 1684 1684 1684 1684 1685 1687 1688 1696 1703 1710 1721 1732 1740 1744 1748 1750 1753 1755 1757 1758 1759 1759 1761 1761 1761 1762 1763 1763 1765 1767 1769 1770 1773 1779 1781 1786 1796 1809 1819 1828 1834 1839 1842 1842 1842 1842 1839 1837 1834 1831 1830 1826 1817 1811 1806 1797 1783 1775 1772 1766 1764 1763 1761 1759 1755 1752 1750 1746 1744 1741 1738 1735 1733 1731 1729 1726 1724 1721 1720 1716 1716 1714 1711 1706 1703 1702 1697 1691 1685 1680 1679 1679 1678 1678 1677 1677 1676 1672 1669 1666 1666 1660 1660 0
1877 1877 1880 1881 1893 1914 1939 1958 1978 1981 1997 2013 2020 2029 2040 2050 2056 2059 2063 2075 2091 2109 2117 2127 2137 2150 2165 2180 2193 2201 2201 2202 2202 2207 2218 2227 2229 2232 2235 2240 2245 2252 2258 2263 2270 2277 2281 2289 2296 2303 2314 2329 2342 2349 2361 2371 2378 2378 2381 2385 2394 2403 2413 2422 2431 2440 2450 2458 2469 2476 2481 2486 2489 2491 2495 2495 2497 2501 2507 2514 2517 2520 2524 2528 2536 2544 2556 2567 2576 2582 2584 2587 2590 2592 2596 2599 2603 2605 2610 2612 2613 2619 2622 2625 2625 2630 2638 2642 2643 2643 2643 2647 2649 2653 2653 2654 2661 2664 2664 2664 2664 2664 2665 2670 2670 2670 2662 2656 2650 2629 2602 2563 2502 0 0 0 0 0 0 0 0 0 0 0 1810 1811 1813 1813 1813 1806 1789 1782 1775 1773 1773 1773 1784 1791 1816 1816 1818 1819 0 0 0 0 0 0 0 0 0 2829 3130 3239 3305 3369 3430 3433 3437 3439 3439 3439 3434 3432 3432 3432 3439 3440 3440 3440 3435 3430 3424 3424 3424 3426 3430 3430 3430 3427 3426 3424 3424 3424 3425 3425 3427 3430 3430 3431 3431 3432 3432 3434 3435 3437 3437 3438 3439 3442 3442 3442 3431 3416 3406 3406 3406 3406 3406 3406 3404 3404 3403 3403 3399 3390 3382 3366 3351 3334 3323 3308 3279 3238 3190 3123 3029 2661 0 0 0 0 1308 1300 1300 1299 1296 1296 1293 1292 1290 1287 1284 1282 1280 1279 1275 1273 1271 1269 1266 1262 1260 1258 1255 1253 1250 1248 1246 1245 1243 1240 1239 1237 1233 1230 1226 1220 1214 1205 1202 1201 1200 1200 1196 1193 1188 1182 1177 1173 1173 1172 1172 1172 1171 1171 1171 1172 1172 1175 1175 1175 1175 1175 1174 1173 1172 1171 1170 1168 1166 1164 1162 1160 1159 1157 1155 1153 1152 1149 1147 1146 1143 1140 1137 1135 1129 1127 1124 1121 1119 1118 1117 1114 1109 1105 1103 1102 1099 1097 1094 1092 1091 1090 1086 1085 1083 1082 1082 1081 1080 1080 1080 1080 1080 1080 1080 1079 1079 1079 1077 1076 1076 1075 1074 1072 1071 1069 1069 1067 1066 1064 1062 1061 1059 1057 1055 1054 1052 1050 1047 1045 1043 1041 1039 1036 1031 1030 1027 1024 1022 1021 1019 1018 1016 1014 1013 1012 1011 1010 1008 1006 1005 1004 1002 1000 999 999 999 999 999 999 998 998 997 997 997 996 996 995 993 992 991 989 988 987 985 984 983 982 981 979 978 977 975 974 973 972 970 969 968 966 965 964 963 962 961 960 958 957 956 955 954 952 951 950 949 948 947 946 945 944 944 943 943 942 941 940 938 938 936 936 936 937 938 939 939 941 952 963 970 981 0 0 0 0 0 1576 1594 1608 1614 1618 1625 1633 1639 1651 1662 1673 1680 1685 1687 1690 1693 1695 1696 1698 1699 1699 1700 1701 1702 1702 1702 1702 1702 1701 1700 1698 1696 1694 1692 1691 1690 1689 1687 1686 1685 1685 1685 1686 1686 1687 1688 1694 1699 1704 1713 1728 1738 1744 1748 1750 1754 1756 1757 1759 1760 1761 1761 1761 1762 1762 1763 1765 1767 1768 1770 1772 1775 1779 1781 1785 1795 1809 1818 1828 1834 1839 1842 1842 1842 1842 1839 1837 1834 1829 1826 1820 1815 1809 1801 1789 1782 1775 1772 1766 1762 1759 1759 1757 1755 1751 1749 1746 1741 1738 1737 1734 1731 1728 1726 1722 1721 1720 1717 1716 1711 1706 1703 1701 1699 1697 1690 1682 1674 1666 1666 1666 1666 1667 1667 1667 1661 1661 1655 1655 1655 1653 1660 0
1881 1881 1888 1889 1893 1914 1939 1959 1981 1983 1998 2008 2013 2022 2036 2050 2059 2063 2068 2077 2095 2110 2117 2127 2137 2150 2165 2180 2193 2194 2194 2195 2197 2206 2218 2227 2229 2233 2236 2240 2245 2252 2260 2268 2276 2280 2286 2289 2296 2303 2314 2333 2344 2349 2362 2373 2379 2380 2381 2385 2393 2402 2412 2420 2427 2435 2448 2458 2469 2481 2490 2493 2497 2498 2500 2500 2502 2504 2510 2516 2522 2527 2531 2537 2545 2553 2565 2574 2577 2582 2585 2591 2595 2595 2596 2599 2602 2605 2610 2613 2618 2621 2622 2625 2626 2631 2639 2646 2647 2648 2649 2649 2653 2658 2662 2665 2671 2671 2671 2668 2668 2668 2677 2681 2681 2681 2678 2678 2678 2678 2678 2670 2641 2605 2605 2538 0 0 0 0 0 0 0 0 0 0 0 1813 1813 1806 1789 1771 1767 1767 1767 1771 1778 1791 1808 1808 1808 1809 1806 1806 1809 0 0 0 0 0 0 0 0 0 2642 2915 3132 3318 3382 3419 3423 3423 3423 3423 3423 3429 3435 3438 3438 3438 3435 3423 3417 3417 3417 3422 3426 3427 3427 3427 3422 3420 3420 3420 3421 3423 3424 3424 3425 3428 3430 3431 3431 3433 3434 3434 3434 3432 3432 3432 3432 3432 3428 3415 3405 3405 3405 3406 3406 3406 3404 3403 3402 3400 3400 3390 3382 3366 3351 3329 3306 3297 3267 3238 3188 3111 2972 2562 0 0 0 0 1306 1301 1300 1299 1297 1296 1294 1292 1290 1287 1284 1282 1280 1278 1275 1272 1270 1269 1266 1262 1259 1257 1254 1252 1249 1247 1245 1243 1241 1239 1237 1236 1232 1230 1227 1220 1214 1206 1202 1201 1200 1200 1197 1193 1189 1185 1178 1176 1174 1174 1173 1173 1174 1173 1174 1174 1175 1175 1175 1175 1175 1175 1174 1173 1172 1171 1170 1168 1166 1164 1162 1161 1159 1157 1155 1153 1152 1150 1147 1146 1143 1140 1138 1135 1129 1127 1124 1121 1119 1118 1117 1115 1111 1106 1104 1104 1101 1099 1096 1095 1092 1090 1087 1085 1084 1082 1082 1081 1080 1080 1080 1080 1080 1080 1080 1080 1079 1079 1078 1076 1076 1075 1073 1072 1071 1069 1068 1067 1065 1064 1062 1061 1059 1057 1056 1054 1052 1050 1048 1045 1043 1041 1039 1036 1032 1031 1028 1025 1022 1021 1019 1018 1016 1014 1013 1012 1011 1010 1008 1006 1005 1004 1002 1000 999 999 999 999 999 999 998 998 997 997 997 996 995 994 993 992 991 989 988 987 985 984 983 982 981 979 978 977 975 974 973 972 970 969 968 966 965 964 963 962 961 960 958 957 956 955 954 952 951 950 949 948 947 946 945 945 945 944 943 942 941 940 938 936 935 935 935 935 936 936 941 941 952 963 971 986 0 0 0 0 1561 1581 1595 1609 1613 1615 1616 1627 1633 1640 1652 1665 1674 1681 1684 1687 1690 1693 1696 1697 1698 1698 1700 1701 1702 1702 1702 1702 1702 1702 1700 1699 1697 1696 1693 1692 1690 1689 1688 1686 1686 1686 1686 1686 1687 1688 1688 1691 1695 1701 1708 1719 1734 1743 1748 1752 1754 1756 1757 1759 1760 1761 1761 1762 1763 1764 1764 1766 1768 1769 1770 1773 1775 1779 1780 1783 1795 1809 1817 1828 1834 1839 1842 1842 1842 1842 1839 1833 1831 1826 1821 1816 1812 1803 1794 1787 1782 1775 1771 1766 1761 1758 1758 1757 1754 1751 1748 1745 1741 1737 1734 1731 1728 1724 1724 1721 1719 1712 1707 1703 1702 1700 1697 1697 1692 1685 1678 1671 1663 1655 1650 1647 1647 1643 1640 1639 1639 1637 1637 1633 1633 1632 1632 0
1882 1882 1890 1899 1910 1924 1939 1961 1981 1986 1998 2003 2007 2010 2025 2047 2060 2069 2075 2088 2104 2118 2124 2132 2140 2150 2165 2180 2186 2186 2187 2187 2192 2203 2218 2227 2229 2233 2237 2240 2245 2252 2263 2268 2276 2280 2289 2293 2297 2303 2318 2335 2346 2353 2365 2374 2379 2380 2382 2385 2393 2402 2412 2420 2427 2435 2448 2457 2469 2481 2490 2493 2497 2501 2503 2506 2508 2510 2514 2520 2526 2533 2539 2546 2551 2555 2565 2574 2577 2582 2585 2591 2595 2595 2596 2598 2601 2605 2611 2615 2620 2623 2624 2625 2626 2631 2640 2648 2652 2652 2652 2652 2653 2660 2668 2671 2673 2673 2673 2673 2673 2673 2679 2682 2682 2682 2682 2682 2683 2691 2691 2691 2671 2669 2652 2622 2589 2556 2527 2504 2504 0 0 0 0 0 0 0 0 0 0 0 1767 1767 1767 1771 1778 1791 1806 1806 1806 1794 1784 1784 1784 1799 1799 0 0 0 0 0 0 0 0 0 0 0 3094 3257 3357 3374 3397 3411 3421 3428 3434 3435 3435 3435 3430 3422 3416 3416 3416 3417 3420 3423 3423 3423 3422 3417 3417 3417 3418 3420 3420 3421 3421 3421 3424 3426 3428 3430 3432 3432 3432 3429 3426 3426 3426 3426 3421 3413 3405 3405 3405 3405 3405 3405 3402 3401 3400 3400 3400 3390 3384 3371 3351 3329 3306 3297 3266 3237 3183 3111 2882 2520 0 0 0 0 1306 1301 1300 1299 1297 1296 1294 1292 1290 1287 1285 1282 1280 1278 1274 1272 1270 1267 1264 1262 1258 1256 1254 1250 1248 1246 1245 1242 1240 1237 1236 1234 1231 1230 1227 1220 1215 1206 1204 1203 1202 1200 1197 1193 1190 1186 1181 1178 1176 1176 1176 1176 1176 1176 1176 1176 1176 1176 1176 1176 1175 1175 1174 1173 1172 1171 1169 1168 1166 1164 1162 1160 1159 1157 1155 1154 1152 1150 1147 1145 1143 1140 1138 1135 1129 1127 1125 1121 1119 1118 1117 1115 1113 1108 1105 1104 1102 1100 1098 1095 1093 1090 1087 1085 1084 1083 1083 1082 1080 1080 1080 1080 1080 1080 1080 1080 1079 1079 1078 1077 1076 1075 1073 1072 1071 1070 1068 1067 1065 1064 1062 1061 1059 1058 1056 1054 1053 1050 1048 1045 1043 1041 1040 1036 1034 1031 1028 1026 1023 1021 1019 1019 1017 1016 1014 1013 1011 1010 1007 1006 1005 1003 1002 1000 999 999 999 999 999 999 998 998 997 997 997 996 995 994 993 992 991 990 988 987 985 984 983 982 981 979 978 977 975 974 973 971 970 969 968 966 965 965 963 962 961 960 959 957 956 955 954 953 951 950 949 949 947 947 946 945 945 944 943 941 941 940 938 936 934 934 934 934 935 936 942 942 952 963 975 993 0 0 0 0 1565 1587 1595 1609 1611 1611 1611 1616 1627 1636 1644 1656 1666 1677 1682 1684 1688 1691 1694 1696 1697 1698 1699 1700 1702 1702 1702 1702 1702 1702 1701 1700 1698 1696 1695 1693 1692 1690 1689 1688 1686 1686 1686 1686 1687 1689 1689 1690 1693 1700 1706 1716 1728 1741 1748 1752 1754 1756 1757 1759 1760 1762 1762 1762 1764 1764 1765 1766 1768 1770 1771 1773 1775 1778 1780 1783 1795 1808 1816 1828 1833 1839 1842 1842 1842 1841 1835 1831 1828 1824 1817 1812 1807 1798 1792 1785 1781 1775 1771 1765 1760 1758 1758 1757 1753 1751 1748 1745 1740 1736 1734 1729 1724 1719 1717 1712 1706 1702 1698 1696 1696 1694 1691 1687 1684 1676 1670 1664 1656 1647 1641 1638 1636 1636 1634 1632 1631 1629 1622 1616 1616 1610 1616 0
1884 1884 1899 1919 1931 1941 1951 1965 1983 1986 1998 2003 2006 2007 2019 2039 2060 2076 2084 2094 2105 2118 2124 2133 2143 2150 2162 2173 2179 2179 2179 2181 2188 2201 2215 2224 2228 2233 2237 2241 2248 2254 2263 2268 2276 2280 2290 2299 2307 2314 2326 2340 2348 2358 2366 2374 2379 2380 2382 2386 2393 2402 2412 2420 2427 2435 2448 2457 2467 2481 2490 2493 2497 2501 2504 2508 2512 2514 2518 2522 2529 2536 2543 2546 2551 2555 2565 2574 2577 2581 2585 2591 2595 2595 2596 2597 2600 2605 2612 2617 2622 2628 2630 2631 2631 2637 2644 2651 2653 2653 2654 2654 2656 2663 2669 2674 2677 2678 2678 2678 2678 2679 2683 2686 2686 2686 2685 2685 2685 2697 2697 2697 2683 2683 2673 2653 2640 2632 2625 2622 2589 2563 2545 2544 0 0 0 0 0 0 0 0 0 0 1769 1771 1778 1792 1801 1801 1801 1781 1771 1771 1771 1771 1771 1771 1743 0 0 0 0 0 0 0 0 0 0 0 2868 3028 3098 3281 3336 3379 3410 3422 3426 3426 3426 3420 3416 3414 3414 3414 3417 3423 3423 3423 3421 3415 3415 3415 3415 3418 3418 3418 3418 3418 3419 3422 3423 3427 3429 3429 3429 3428 3424 3423 3419 3415 3408 3407 3405 3405 3404 3404 3401 3396 3393 3393 3393 3393 3393 3390 3384 3371 3351 3324 3306 3293 3265 3233 3183 3111 2847 0 0 0 0 0 1302 1301 1299 1299 1298 1296 1294 1292 1290 1287 1285 1282 1280 1277 1272 1272 1269 1267 1263 1260 1257 1256 1253 1249 1247 1246 1244 1241 1239 1237 1236 1234 1231 1230 1228 1224 1215 1207 1205 1204 1203 1201 1197 1193 1191 1188 1185 1180 1179 1178 1178 1178 1177 1177 1177 1177 1177 1177 1177 1177 1176 1174 1174 1173 1172 1170 1169 1168 1166 1164 1162 1160 1159 1157 1155 1154 1152 1149 1147 1144 1143 1140 1138 1134 1129 1127 1125 1121 1119 1118 1117 1116 1114 1110 1107 1104 1102 1100 1098 1096 1093 1090 1087 1086 1084 1083 1083 1082 1081 1081 1081 1081 1081 1081 1081 1080 1079 1079 1078 1077 1076 1075 1073 1072 1071 1070 1068 1067 1065 1064 1062 1061 1059 1058 1056 1054 1053 1051 1048 1045 1044 1042 1040 1036 1034 1032 1029 1027 1025 1023 1022 1020 1020 1018 1016 1013 1011 1009 1007 1006 1005 1003 1002 1000 999 999 999 999 999 999 998 998 998 997 997 996 995 994 994 992 991 990 988 987 986 984 983 982 981 979 978 976 975 974 973 971 970 969 968 967 966 965 963 962 961 960 959 958 956 955 954 953 951 950 949 949 947 947 946 946 945 944 943 941 941 939 938 935 0 0 0 935 935 940 942 944 952 963 978 0 0 0 0 0 1566 1590 1598 1608 1610 1611 1611 1616 1623 1631 1639 1647 1657 1669 1677 1682 1686 1689 1692 1695 1696 1697 1698 1700 1702 1702 1702 1703 1703 1703 1702 1701 1699 1697 1695 1694 1693 1692 1690 1689 1687 1687 1687 1687 1688 1689 1689 1690 1692 1700 1706 1713 1724 1736 1744 1752 1754 1756 1757 1759 1760 1762 1762 1763 1764 1765 1766 1766 1768 1770 1771 1773 1775 1778 1780 1783 1795 1806 1813 1823 1833 1839 1842 1842 1842 1838 1835 1830 1824 1821 1814 1808 1801 1795 1788 1784 1781 1775 1770 1763 1759 1757 1756 1754 1750 1748 1745 1742 1739 1736 1729 1720 1712 1711 1708 1705 1699 1695 1693 1690 1688 1685 1680 1676 1667 1660 1659 1658 1650 1643 1639 1635 1633 1633 1632 1631 1628 1622 1611 1602 1602 1599 1602 0
1890 1890 1913 1931 1944 1950 1959 1974 1983 1991 2002 2003 2005 2006 2014 2036 2059 2076 2084 2094 2105 2118 2124 2133 2143 2150 2160 2168 2172 2174 2175 2175 2182 2197 2210 2220 2224 2230 2237 2241 2248 2254 2263 2266 2271 2282 2290 2303 2313 2325 2338 2350 2355 2364 2371 2374 2379 2380 2382 2390 2398 2406 2415 2425 2431 2440 2448 2457 2465 2477 2485 2493 2497 2501 2504 2508 2512 2515 2519 2522 2529 2536 2543 2546 2551 2555 2564 2568 2570 2573 2579 2583 2587 2590 2593 2597 2599 2604 2612 2617 2623 2628 2631 2635 2638 2642 2649 2652 2654 2655 2655 2655 2659 2665 2672 2675 2679 2685 2685 2685 2687 2687 2690 2695 2695 2695 2695 2695 2700 2700 2700 2697 2689 2689 2679 2661 2654 2654 2654 2654 2654 2653 2643 2618 2564 2523 0 0 0 0 0 0 0 0 0 0 0 1794 1801 1801 1801 1781 1771 1771 1771 1770 1770 1742 1720 1720 1720 0 0 0 0 0 0 0 0 0 0 0 0 0 2956 3102 3303 3359 3380 3409 3414 3414 3414 3413 3413 3413 3416 3423 3423 3423 3418 3411 3411 3411 3412 3415 3415 3415 3415 3415 3415 3417 3419 3422 3425 3426 3426 3426 3422 3416 3411 3403 3397 3397 3397 3398 3398 3398 3390 3383 3377 3377 3377 3385 3385 3385 3384 3371 3351 3322 3306 3290 3263 3228 3175 3101 2805 0 0 0 0 0 1301 1300 1299 1298 1298 1296 1294 1292 1290 1287 1285 1282 1277 1273 1270 1269 1267 1265 1261 1259 1257 1256 1252 1248 1246 1245 1244 1239 1237 1236 1235 1233 1231 1230 1228 1224 1215 1207 1205 1204 1204 1202 1198 1194 1192 1190 1187 1183 1181 1181 1180 1180 1178 1178 1178 1178 1178 1177 1177 1177 1176 1174 1174 1173 1171 1170 1168 1167 1166 1163 1162 1160 1159 1157 1155 1153 1151 1149 1147 1144 1142 1139 1138 1134 1130 1128 1126 1121 1119 1118 1117 1116 1114 1111 1108 1106 1105 1102 1100 1097 1094 1090 1087 1086 1085 1084 1083 1083 1082 1082 1082 1082 1082 1082 1081 1081 1080 1079 1078 1077 1076 1075 1073 1072 1071 1070 1068 1067 1065 1064 1062 1061 1060 1058 1056 1054 1053 1051 1049 1046 1044 1042 1040 1037 1035 1033 1030 1028 1026 1025 1024 1022 1020 1018 1016 1014 1011 1009 1007 1006 1005 1004 1002 1000 999 999 999 999 999 999 998 998 997 997 997 996 995 994 994 993 991 990 989 987 985 984 983 982 981 979 978 976 975 974 973 971 970 969 968 967 966 964 963 962 961 960 959 958 956 955 954 953 952 951 949 949 948 947 946 946 945 944 943 941 940 939 938 935 0 0 0 935 936 940 942 945 954 963 982 0 0 0 0 0 1566 1593 1606 1609 1610 1611 1611 1616 1620 1624 1635 1644 1651 1660 1669 1678 1681 1686 1691 1693 1694 1696 1697 1699 1700 1701 1702 1703 1703 1703 1702 1701 1699 1698 1697 1695 1694 1693 1691 1689 1688 1687 1687 1687 1687 1689 1689 1690 1691 1693 1703 1710 1720 1731 1741 1749 1754 1756 1757 1759 1761 1762 1764 1764 1765 1765 1766 1767 1768 1770 1771 1773 1775 1778 1782 1787 1795 1805 1811 1823 1834 1840 1840 1840 1837 1837 1834 1829 1823 1820 1811 1803 1797 1791 1786 1782 1778 1774 1768 1761 1756 1756 1754 1748 1745 1741 1740 1737 1733 1724 1717 1709 1706 1704 1702 1698 1694 1690 1686 1684 1683 1679 1672 1669 1659 1651 1648 1648 1645 1641 1636 1633 1633 1632 1631 1630 1626 1621 1610 1598 1598 1590 1590 0
1890 1890 1913 1931 1944 1950 1959 1974 1978 1991 2002 2003 2005 2006 2014 2035 2054 2076 2088 2096 2105 2110 2123 2133 2143 2150 2160 2166 2170 2171 2174 2175 2182 2195 2208 2216 2224 2230 2236 2241 2248 2254 2261 2266 2271 2282 2292 2305 2317 2332 2346 2357 2361 2364 2371 2374 2377 2377 2381 2390 2402 2411 2419 2430 2441 2447 2452 2457 2464 2472 2481 2485 2493 2499 2504 2508 2512 2516 2519 2523 2529 2536 2543 2545 2549 2553 2559 2564 2565 2567 2570 2575 2579 2584 2590 2596 2599 2603 2612 2619 2623 2628 2631 2635 2638 2642 2649 2654 2656 2656 2656 2660 2665 2670 2674 2676 2680 2685 2687 2687 2689 2689 2695 2699 2703 2705 2705 2705 2704 2704 2703 2703 2702 2702 2698 2679 2673 2673 2673 2673 2673 2675 2673 2673 2665 2648 2631 2612 2571 0 0 0 0 0 0 0 0 0 0 0 0 1781 1771 1771 1770 1769 1755 1722 1700 1700 1700 1706 0 1706 1709 0 0 0 0 0 0 0 0 0 0 0 2794 3086 3135 3245 3315 3393 3405 3407 3412 3412 3412 3418 3418 3418 3414 3408 3408 3408 3409 3412 3412 3412 3411 3411 3411 3413 3416 3420 3422 3424 3424 3424 3415 3405 3401 3397 3392 3392 3392 3389 3389 3389 3383 3375 3369 3369 3369 3367 3367 3367 3358 3343 3329 3318 3306 3289 3256 3218 3172 3100 2765 0 0 0 0 0 1301 1300 1299 1298 1297 1296 1294 1292 1290 1287 1285 1281 1276 1270 1263 1258 1255 1251 1250 1250 1250 1249 1246 1242 1242 1241 1240 1235 1235 1235 1233 1233 1230 1230 1228 1224 1218 1214 1208 1207 1205 1204 1202 1199 1193 1191 1190 1188 1184 1182 1182 1181 1179 1179 1178 1178 1178 1178 1178 1177 1175 1174 1174 1173 1171 1169 1168 1166 1165 1162 1161 1160 1159 1157 1155 1153 1151 1149 1147 1144 1142 1139 1137 1134 1130 1128 1127 1121 1119 1118 1117 1117 1114 1111 1109 1107 1105 1102 1101 1098 1095 1091 1088 1087 1086 1085 1084 1084 1083 1083 1083 1083 1083 1082 1081 1081 1080 1079 1078 1077 1076 1075 1073 1073 1071 1070 1068 1067 1066 1064 1063 1061 1060 1058 1057 1055 1054 1051 1049 1048 1045 1042 1041 1038 1035 1033 1031 1029 1028 1026 1025 1023 1021 1019 1018 1016 1013 1009 1007 1006 1005 1004 1002 1001 999 999 999 999 999 999 998 998 998 997 997 996 995 994 994 993 991 990 989 987 986 984 983 982 981 979 978 976 975 974 973 971 970 969 968 967 966 964 963 962 961 960 959 958 956 955 954 953 952 951 950 949 948 947 946 946 945 944 943 942 940 939 936 935 934 934 934 935 937 942 948 955 958 963 982 0 0 0 0 1559 1572 1597 1606 1610 1611 1611 1612 1616 1620 1622 1629 1638 1647 1652 1659 1669 1677 1684 1690 1693 1694 1695 1697 1698 1700 1701 1702 1703 1703 1703 1702 1701 1701 1699 1698 1697 1695 1693 1692 1690 1689 1688 1688 1688 1688 1689 1689 1690 1691 1693 1696 1706 1712 1725 1735 1742 1749 1753 1756 1759 1761 1762 1764 1765 1765 1766 1767 1767 1769 1771 1772 1775 1776 1779 1784 1789 1795 1804 1811 1823 1834 1840 1840 1840 1837 1836 1833 1826 1820 1816 1806 1799 1794 1788 1782 1778 1775 1771 1765 1759 1755 1752 1749 1747 1743 1731 1729 1726 1725 1718 1708 1701 1699 1698 1698 1694 1691 1685 1681 1679 1678 1675 1667 1664 1654 1646 1643 1642 1639 1635 1632 1632 1631 1631 1630 1629 1624 1613 1608 1598 1590 1586 1577 0
1890 1890 1913 1931 1944 1950 1959 1974 1976 1991 2002 2003 2006 2006 2014 2035 2052 2074 2088 2096 2105 2110 2123 2133 2141 2149 2158 2162 2165 2169 2174 2175 2182 2195 2208 2216 2224 2230 2236 2241 2247 2254 2261 2266 2271 2282 2294 2307 2320 2333 2346 2357 2361 2366 2371 2373 2373 2374 2379 2390 2403 2416 2425 2435 2445 2453 2455 2457 2463 2468 2477 2480 2489 2496 2503 2509 2513 2516 2520 2523 2528 2535 2540 2544 2548 2552 2558 2564 2565 2567 2567 2570 2575 2582 2588 2593 2597 2602 2610 2619 2623 2627 2631 2635 2639 2642 2649 2654 2657 2658 2660 2665 2669 2673 2675 2677 2681 2685 2687 2687 2689 2691 2695 2699 2703 2705 2705 2705 2703 2703 2703 2706 2707 2707 2707 2706 2697 2692 2691 2691 2691 2692 2692 2692 2685 2684 2671 2657 2643 2621 2596 2581 2514 0 0 0 0 0 0 0 0 0 0 0 1774 1771 1755 1722 1700 1700 1700 1704 1704 1704 1704 1704 1722 1741 1742 1742 0 0 0 0 0 0 0 0 0 2592 3066 3261 3375 3402 3402 3403 3403 3408 3409 3409 3409 3404 3400 3400 3400 3404 3406 3406 3406 3406 3406 3410 3415 3417 3420 3422 3422 3422 3413 3404 3400 3396 3391 3391 3391 3387 3387 3384 3376 3369 3363 3361 3359 3359 3357 3350 3335 3321 3307 3293 3287 3272 3247 3215 3160 3045 2711 0 0 0 0 1306 1301 1300 1300 1298 1298 1296 1294 1293 1290 1287 1285 1281 1276 1268 1259 1249 1245 1242 1241 1241 1241 1239 1238 1238 1237 1236 1236 1234 1234 1233 1233 1233 1230 1229 1225 1222 1221 1218 1213 1210 1208 1207 1204 1202 1200 1196 1194 1190 1185 1183 1182 1181 1180 1179 1179 1179 1179 1178 1178 1177 1175 1174 1174 1172 1171 1169 1167 1166 1164 1162 1161 1160 1159 1157 1155 1153 1151 1149 1146 1144 1142 1139 1137 1134 1130 1128 1127 1123 1121 1119 1118 1117 1114 1113 1109 1107 1106 1104 1101 1099 1096 1093 1090 1088 1086 1085 1085 1084 1084 1084 1083 1083 1083 1083 1082 1081 1080 1080 1078 1077 1076 1075 1074 1073 1071 1070 1068 1067 1066 1064 1063 1062 1060 1059 1057 1055 1054 1052 1049 1048 1046 1044 1041 1039 1037 1034 1031 1029 1028 1026 1026 1024 1022 1020 1019 1017 1015 1011 1010 1008 1007 1005 1004 1003 1000 999 999 999 999 999 998 998 998 998 997 996 996 995 994 993 991 990 989 987 986 984 983 982 981 979 978 976 975 974 973 971 970 969 968 967 966 964 963 962 961 960 959 958 956 955 954 953 952 951 950 949 948 947 946 946 945 944 943 942 940 939 936 935 935 935 935 938 938 942 948 956 959 967 982 0 0 0 0 1560 1576 1597 1606 1610 1611 1611 1613 1617 1618 1621 1623 1633 1641 1646 1651 1660 1670 1678 1685 1691 1694 1694 1696 1698 1699 1700 1702 1702 1702 1702 1702 1701 1701 1700 1698 1697 1696 1694 1692 1692 1690 1689 1688 1688 1688 1688 1688 1689 1690 1692 1694 1702 1710 1719 1731 1737 1743 1750 1755 1759 1761 1762 1764 1765 1766 1767 1768 1769 1769 1771 1773 1775 1777 1781 1785 1789 1794 1803 1811 1822 1834 1838 1838 1838 1836 1833 1825 1820 1811 1807 1801 1795 1791 1785 1781 1778 1774 1768 1762 1757 1752 1748 1743 1738 1730 1727 1720 1714 1710 1703 1697 1695 1694 1694 1692 1688 1683 1676 1672 1668 1661 1654 1651 1647 1643 1642 1641 1640 1636 1630 1628 1628 1628 1628 1628 1628 1619 1613 1606 1598 1590 1586 1577 0
1882 1882 1902 1926 1938 1944 1949 1960 1962 1972 1986 1996 2006 2007 2017 2035 2052 2074 2084 2096 2105 2110 2123 2133 2137 2141 2146 2153 2160 2166 2174 2181 2185 2195 2208 2216 2224 2231 2236 2241 2247 2254 2261 2271 2282 2290 2299 2310 2321 2333 2346 2357 2361 2366 2369 2370 2371 2371 2376 2390 2403 2416 2425 2437 2447 2455 2459 2461 2463 2468 2474 2480 2489 2496 2503 2509 2514 2519 2521 2523 2528 2534 2537 2540 2545 2551 2558 2563 2565 2567 2567 2570 2575 2582 2588 2592 2596 2602 2610 2618 2623 2626 2631 2635 2639 2645 2650 2654 2659 2660 2664 2668 2673 2674 2676 2678 2681 2684 2684 2687 2689 2691 2696 2699 2703 2705 2705 2705 2705 2705 2705 2706 2707 2707 2707 2707 2702 2699 2699 2699 2705 2705 2705 2702 2695 2687 2680 2667 2657 2657 2652 2652 2652 2615 2572 2523 0 0 0 0 0 0 0 0 0 0 0 0 0 0 1700 0 1704 1704 1704 1704 1722 1741 1742 1742 1747 1755 1760 1767 0 0 0 0 0 0 2653 3035 3255 3385 3399 3400 3400 3401 3405 3405 3405 3398 3392 3392 3392 3394 3399 3401 3402 3402 3404 3409 3412 3416 3418 3421 3421 3421 3413 3404 3398 3395 3389 3388 3387 3386 3384 3379 3372 3364 3362 3359 3355 3354 3347 3336 3317 3297 3280 3267 3262 3254 3237 3214 3155 3028 2668 0 0 0 0 1306 1302 1302 1300 1298 1298 1296 1294 1293 1290 1287 1285 1281 1276 1268 1255 1248 1245 1242 1238 1235 1231 1230 1230 1230 1230 1230 1230 1225 1220 1220 1220 1223 1223 1223 1223 1222 1221 1219 1215 1214 1211 1208 1206 1206 1204 1201 1198 1194 1191 1190 1187 1182 1181 1181 1180 1180 1179 1179 1179 1177 1175 1174 1173 1171 1171 1168 1167 1165 1163 1162 1160 1160 1158 1156 1154 1152 1150 1148 1146 1143 1142 1139 1137 1134 1130 1129 1127 1124 1122 1120 1118 1117 1114 1113 1110 1108 1106 1105 1102 1101 1098 1094 1092 1089 1087 1087 1085 1085 1084 1084 1084 1084 1083 1083 1082 1081 1080 1080 1079 1078 1076 1075 1074 1073 1071 1070 1069 1067 1066 1065 1063 1062 1061 1059 1057 1055 1054 1052 1050 1048 1046 1044 1041 1040 1037 1035 1033 1031 1029 1027 1027 1025 1023 1021 1021 1018 1016 1014 1013 1010 1009 1007 1006 1004 1002 1001 1000 1000 1000 999 999 999 998 998 998 996 996 995 993 993 991 990 989 987 986 984 983 982 981 979 978 977 975 974 973 971 970 969 968 967 966 964 963 962 961 960 959 958 956 955 954 953 952 951 950 949 948 947 946 946 945 944 943 942 940 939 936 936 936 937 938 938 940 942 949 958 960 968 985 0 0 0 0 1565 1583 1601 1607 1612 1614 1615 1616 1617 1618 1620 1622 1626 1634 1641 1646 1650 1664 1673 1679 1685 1691 1694 1695 1697 1699 1700 1701 1702 1702 1702 1701 1701 1701 1700 1698 1697 1697 1695 1693 1692 1691 1690 1688 1688 1688 1688 1688 1688 1689 1692 1693 1699 1705 1716 1727 1732 1739 1747 1753 1758 1761 1763 1764 1766 1766 1768 1768 1769 1770 1772 1773 1775 1778 1782 1786 1790 1794 1802 1811 1822 1834 1834 1834 1834 1831 1824 1819 1813 1807 1804 1797 1792 1787 1783 1780 1775 1768 1762 1757 1753 1750 1746 1735 1725 1722 1720 1717 1711 1692 1688 1682 1682 1681 1680 1677 1671 1669 1667 1663 1658 1651 1643 1641 1639 1639 1639 1637 1636 1631 1626 1624 1624 1624 1625 1625 1625 1616 1611 1606 1599 1596 1586 1577 0
1875 1875 1891 1913 1928 1936 1942 1952 1955 1972 1982 1992 2006 2013 2022 2036 2052 2071 2084 2096 2103 2111 2126 2132 2133 2133 2134 2141 2153 2164 2174 2184 2192 2203 2209 2215 2224 2232 2237 2243 2247 2256 2268 2281 2288 2297 2305 2312 2321 2333 2346 2351 2360 2367 2369 2370 2371 2371 2376 2387 2403 2416 2425 2437 2447 2455 2461 2463 2464 2468 2474 2480 2489 2496 2503 2509 2514 2519 2523 2525 2528 2534 2537 2540 2545 2551 2557 2562 2567 2567 2568 2570 2575 2582 2588 2592 2596 2602 2610 2617 2622 2626 2631 2635 2639 2646 2651 2656 2660 2663 2667 2671 2673 2675 2678 2679 2681 2684 2684 2687 2690 2692 2696 2699 2703 2705 2705 2705 2705 2705 2705 2706 2707 2707 2707 2707 2702 2699 2699 2699 2705 2706 2706 2706 2701 2691 2681 2670 2669 2668 2668 2669 2669 2668 2656 2645 2629 2604 2579 2545 0 0 0 0 0 0 0 0 0 0 0 0 0 1707 1708 1715 1728 1753 1760 1760 1760 1760 1760 1760 1765 1789 0 0 0 0 2557 2949 3230 3344 3395 3395 3395 3396 3396 3397 3397 3397 3387 3384 3384 3384 3391 3395 3396 3397 3400 3406 3408 3411 3413 3418 3418 3418 3412 3403 3396 3395 3389 3386 3386 3384 3376 3369 3365 3364 3362 3359 3355 3349 3341 3326 3306 3283 3261 3246 3240 3228 3217 3194 3153 3002 2652 0 0 0 0 1306 1302 1302 1300 1297 1297 1296 1294 1293 1290 1287 1285 1280 1276 1267 1249 1248 1244 1240 1236 1233 1231 1230 1228 1228 1227 1227 1226 1222 1218 1218 1218 1220 1221 1222 1222 1222 1222 1220 1216 1216 1214 1211 1208 1207 1205 1202 1200 1198 1197 1194 1192 1187 1185 1185 1183 1181 1179 1179 1179 1177 1173 1172 1171 1171 1169 1168 1165 1165 1162 1161 1160 1159 1157 1155 1153 1152 1150 1147 1145 1143 1142 1139 1137 1135 1132 1130 1127 1125 1123 1120 1118 1116 1114 1113 1111 1109 1107 1106 1104 1101 1099 1096 1094 1091 1090 1088 1087 1086 1086 1086 1085 1085 1084 1083 1082 1082 1081 1080 1079 1078 1076 1075 1074 1073 1071 1070 1069 1068 1066 1065 1063 1062 1061 1059 1057 1056 1054 1052 1050 1048 1047 1044 1042 1041 1039 1037 1035 1032 1030 1028 1027 1026 1025 1024 1022 1020 1018 1016 1015 1013 1012 1009 1008 1006 1004 1002 1002 1002 1001 1000 1000 999 998 998 998 997 996 995 993 993 991 990 989 987 986 985 983 982 981 979 978 977 975 974 973 971 970 969 968 967 966 965 964 962 961 960 959 958 956 956 954 953 952 951 950 949 948 947 946 946 945 944 943 942 940 940 939 938 938 938 940 941 941 945 951 960 967 970 985 0 0 0 0 1596 1597 1603 1609 1612 1615 1617 1617 1617 1618 1620 1622 1623 1626 1633 1638 1643 1650 1666 1678 1681 1685 1690 1694 1696 1698 1699 1700 1700 1701 1701 1701 1701 1701 1700 1699 1697 1697 1695 1694 1694 1692 1690 1689 1689 1688 1688 1688 1688 1688 1689 1692 1694 1701 1708 1722 1731 1738 1746 1753 1758 1761 1763 1764 1766 1767 1768 1770 1770 1772 1774 1775 1776 1778 1782 1786 1790 1794 1802 1811 1822 1834 1834 1834 1832 1828 1821 1816 1809 1804 1799 1795 1789 1784 1781 1777 1772 1765 1761 1756 1749 1741 1731 1723 1713 1707 1702 1697 1691 1688 1684 1674 1673 1673 1668 1666 1660 1657 1656 1651 1645 1639 1634 1632 1632 1632 1632 1631 1628 1625 1618 1618 1618 1620 1620 1620 1616 1614 1609 1606 1601 1598 1597 1595 0
1872 1872 1889 1908 1920 1931 1940 1948 1955 1968 1981 1992 2007 2021 2030 2042 2055 2068 2083 2096 2103 2111 2126 2132 2133 2133 2134 2138 2147 2160 2174 2185 2196 2204 2211 2215 2224 2234 2240 2244 2250 2257 2269 2283 2294 2302 2309 2314 2321 2331 2343 2349 2360 2367 2369 2370 2371 2371 2376 2387 2399 2413 2424 2437 2447 2455 2461 2463 2464 2468 2474 2480 2490 2498 2504 2509 2514 2519 2523 2526 2532 2534 2537 2540 2545 2550 2556 2563 2567 2571 2572 2578 2583 2587 2588 2592 2596 2602 2610 2618 2622 2626 2631 2637 2644 2649 2654 2659 2662 2666 2669 2672 2675 2676 2678 2681 2682 2684 2684 2687 2690 2693 2696 2699 2703 2705 2705 2705 2705 2705 2705 2707 2708 2708 2708 2707 2702 2699 2699 2699 2705 2706 2706 2706 2702 2692 2685 2682 2680 2680 2680 2681 2691 2691 2691 2690 2681 2676 2666 2662 2648 2604 2542 0 0 0 0 0 0 0 0 0 0 0 0 1741 1743 1753 1766 1766 1766 1760 1760 1760 1763 1773 1798 0 0 0 2557 2949 3230 3305 3381 3381 3381 3386 3386 3388 3388 3388 3387 3380 3380 3380 3383 3386 3387 3389 3389 3399 3404 3406 3407 3408 3408 3408 3405 3400 3395 3392 3389 3386 3384 3378 3373 3365 3363 3363 3361 3359 3354 3346 3336 3320 3302 3282 3261 3244 3230 3218 3200 3174 3135 2968 2603 0 0 0 0 1307 1303 1302 1300 1297 1296 1296 1294 1293 1290 1287 1285 1280 1276 1262 1249 1247 1243 1238 1234 1231 1231 1229 1228 1226 1223 1220 1220 1218 1217 1218 1218 1218 1221 1222 1223 1223 1223 1221 1219 1217 1215 1212 1211 1210 1207 1204 1202 1200 1198 1196 1192 1190 1189 1189 1186 1181 1181 1179 1179 1176 1172 1171 1170 1166 1165 1163 1163 1162 1162 1161 1159 1158 1157 1155 1153 1152 1149 1146 1144 1142 1141 1139 1137 1135 1132 1130 1127 1125 1123 1120 1118 1116 1114 1113 1111 1109 1108 1107 1104 1102 1100 1097 1096 1094 1091 1089 1088 1087 1086 1086 1086 1085 1084 1083 1083 1082 1081 1080 1079 1078 1077 1075 1075 1073 1072 1070 1069 1068 1066 1065 1063 1062 1061 1059 1057 1056 1054 1052 1050 1048 1047 1044 1042 1041 1039 1037 1035 1033 1031 1029 1029 1028 1026 1025 1023 1021 1019 1017 1016 1015 1013 1011 1009 1007 1006 1005 1004 1004 1002 1001 1000 999 999 998 998 997 996 995 993 993 991 990 989 987 986 985 983 982 981 979 978 977 975 974 973 971 970 969 968 967 966 965 964 962 961 960 959 958 956 956 954 953 952 951 950 949 948 947 946 946 945 944 943 943 942 941 941 939 939 939 940 941 942 945 951 960 967 980 0 0 0 0 0 1597 1600 1607 1610 1613 1616 1617 1617 1617 1618 1619 1621 1622 1623 1625 1632 1639 1645 1653 1669 1679 1681 1686 1690 1695 1696 1697 1697 1698 1699 1699 1699 1699 1699 1699 1699 1698 1697 1696 1695 1694 1692 1690 1690 1689 1689 1688 1688 1688 1688 1689 1692 1692 1696 1703 1713 1723 1736 1746 1753 1758 1762 1763 1764 1766 1767 1769 1770 1771 1772 1774 1775 1777 1779 1782 1785 1790 1795 1802 1811 1820 1831 1832 1832 1832 1826 1821 1812 1807 1802 1797 1793 1788 1784 1780 1776 1768 1762 1755 1748 1738 1729 1717 1709 1705 1698 1693 1689 1683 1679 1674 1670 1670 1663 1659 1655 1650 1648 1648 1644 1636 1631 1626 1626 1625 1624 1624 1620 1616 1602 1602 1602 1606 1614 1614 1614 1611 1611 1608 1606 1601 1601 1601 1601 0
1872 1872 1888 1902 1911 1923 1935 1939 1953 1966 1978 1992 2008 2025 2040 2052 2056 2062 2073 2088 2093 2111 2126 2132 2133 2133 2134 2138 2147 2160 2174 2185 2196 2204 2211 2216 2224 2236 2245 2247 2250 2258 2270 2284 2296 2303 2311 2314 2320 2329 2342 2347 2359 2367 2369 2372 2374 2375 2380 2387 2398 2406 2417 2432 2443 2453 2461 2463 2466 2472 2476 2485 2492 2498 2504 2508 2512 2517 2523 2526 2532 2534 2537 2542 2545 2550 2556 2563 2569 2575 2577 2581 2586 2590 2592 2594 2598 2605 2611 2618 2622 2628 2635 2642 2647 2651 2655 2661 2665 2667 2671 2673 2676 2677 2678 2681 2682 2684 2685 2688 2692 2694 2697 2700 2703 2706 2707 2707 2708 2708 2709 2709 2709 2709 2708 2704 2701 2699 2699 2699 2701 2704 2704 2704 2703 2697 2694 2692 2692 2692 2693 2695 2703 2706 2706 2706 2697 2686 2683 2679 2678 2676 2656 2605 2570 2549 0 0 0 0 0 0 0 0 0 0 0 1766 1766 1766 1766 1760 1759 1759 1759 1766 1781 0 0 0 2557 2949 3230 3305 3377 3377 3377 3377 3377 3386 3387 3387 3387 3380 3377 3377 3377 3380 3384 3386 3387 3387 3395 3397 3398 3399 3399 3399 3398 3394 3388 3385 3384 3382 3378 3374 3368 3363 3363 3362 3361 3359 3353 3345 3331 3315 3297 3282 3261 3241 3230 3213 3191 3160 3116 2948 2555 0 0 0 0 1307 1303 1302 1298 1296 1296 1294 1293 1293 1288 1284 1281 1279 1276 1261 1249 1246 1241 1236 1232 1231 1230 1229 1227 1225 1220 1217 1217 1216 1215 1216 1217 1218 1221 1222 1223 1223 1223 1222 1220 1218 1216 1214 1212 1210 1208 1205 1203 1201 1199 1196 1196 1194 1191 1190 1187 1183 1179 1179 1179 1175 1172 1171 1170 1165 1162 1162 1162 1162 1162 1160 1157 1157 1155 1154 1152 1151 1149 1146 1144 1142 1141 1139 1137 1135 1132 1130 1126 1125 1123 1121 1118 1116 1114 1113 1111 1110 1109 1107 1105 1103 1100 1098 1096 1095 1093 1091 1090 1087 1087 1087 1087 1086 1085 1084 1083 1082 1081 1081 1079 1078 1077 1076 1075 1073 1072 1071 1069 1068 1066 1065 1063 1062 1061 1059 1057 1056 1054 1052 1050 1049 1047 1044 1042 1041 1040 1037 1036 1034 1032 1031 1030 1028 1027 1026 1024 1022 1021 1018 1017 1016 1013 1012 1010 1008 1007 1007 1006 1006 1004 1003 1002 1001 1000 999 998 997 996 995 993 993 991 990 989 987 986 985 984 983 981 979 978 977 975 974 973 971 970 969 968 967 966 965 964 962 961 960 959 958 956 956 954 953 952 951 950 949 948 947 947 946 945 944 943 943 942 942 942 940 940 940 940 941 945 945 953 961 969 980 0 0 0 0 0 1597 1602 1609 1613 1615 1617 1617 1617 1618 1618 1619 1620 1621 1622 1623 1625 1635 1641 1648 1656 1672 1679 1680 1684 1690 1694 1694 1695 1696 1697 1699 1699 1699 1699 1699 1699 1698 1697 1696 1695 1694 1693 1692 1691 1689 1689 1689 1689 1689 1689 1689 1690 1691 1692 1699 1708 1718 1733 1746 1753 1758 1762 1763 1764 1766 1767 1769 1770 1771 1773 1774 1776 1777 1780 1782 1785 1790 1795 1803 1810 1819 1826 1830 1830 1830 1825 1815 1806 1802 1798 1794 1790 1786 1781 1780 1773 1758 1750 1744 1736 1726 1716 1707 1700 1695 1690 1688 1682 1677 1673 1670 1669 1667 1660 1644 1643 1643 1639 1634 1630 1626 1621 1618 1618 1617 1615 1614 1609 1603 1601 1601 1601 1604 1604 1604 1604 1604 1605 1605 1605 1601 1601 1601 1601 0
1869 1869 1882 1894 1903 1916 1929 1932 1953 1966 1978 1992 2009 2032 2044 2052 2056 2060 2063 2078 2083 2102 2121 2129 2134 2138 2138 2138 2147 2160 2173 2185 2196 2204 2211 2215 2224 2236 2245 2248 2251 2258 2271 2284 2297 2305 2311 2314 2320 2329 2340 2345 2357 2367 2369 2372 2378 2383 2388 2390 2398 2404 2412 2425 2439 2451 2460 2463 2466 2472 2476 2485 2492 2498 2504 2508 2511 2514 2519 2526 2532 2534 2538 2543 2546 2550 2556 2564 2571 2576 2580 2582 2588 2591 2595 2598 2603 2609 2615 2620 2625 2632 2639 2645 2650 2654 2659 2662 2665 2669 2671 2674 2676 2677 2678 2681 2682 2684 2685 2688 2693 2696 2698 2700 2703 2706 2709 2710 2711 2712 2712 2712 2711 2711 2708 2704 2701 2699 2699 2699 2701 2703 2703 2703 2703 2701 2701 2700 2699 2699 2701 2703 2706 2706 2706 2706 2697 2694 2694 2694 2694 2694 2687 2675 2662 2656 2627 2592 2551 0 0 0 0 0 0 0 0 0 0 0 1775 1760 1759 1751 1751 1751 1752 0 0 0 2796 3040 3246 3305 3376 3376 3376 3376 3376 3386 3387 3387 3387 3380 3375 3375 3375 3378 3382 3382 3382 3382 3382 3382 3386 3391 3395 3395 3395 3389 3380 3374 3372 3371 3371 3369 3365 3363 3362 3361 3360 3359 3353 3337 3324 3310 3297 3278 3261 3239 3228 3207 3190 3157 3092 2880 2508 0 0 0 0 1307 1303 1302 1297 1296 1296 1294 1293 1291 1287 1282 1279 1277 1272 1259 1249 1244 1240 1235 1232 1231 1230 1229 1226 1223 1219 1217 1216 1215 1215 1215 1216 1218 1221 1223 1223 1223 1223 1222 1221 1219 1217 1215 1213 1211 1209 1206 1204 1202 1201 1199 1197 1195 1192 1190 1187 1183 1179 1179 1176 1171 1169 1168 1166 1165 1161 1161 1160 1160 1160 1157 1156 1156 1154 1153 1152 1151 1149 1146 1143 1141 1141 1139 1137 1135 1131 1129 1126 1125 1123 1121 1119 1116 1114 1113 1112 1111 1109 1108 1106 1104 1101 1099 1098 1097 1094 1093 1091 1089 1089 1088 1088 1086 1085 1084 1084 1082 1082 1081 1079 1078 1077 1076 1075 1073 1072 1071 1070 1068 1067 1065 1063 1062 1061 1059 1057 1056 1053 1052 1050 1049 1047 1045 1043 1041 1040 1039 1036 1034 1033 1031 1030 1030 1028 1026 1024 1023 1022 1021 1018 1016 1013 1012 1010 1009 1008 1007 1007 1007 1006 1003 1002 1001 1001 1001 999 997 996 995 994 993 991 990 989 987 986 985 984 983 981 979 978 977 975 974 973 971 970 969 968 967 966 965 964 962 961 960 959 958 956 956 954 953 952 951 950 949 948 948 947 946 945 944 943 943 942 942 942 941 940 940 940 941 945 947 955 963 969 980 0 0 0 0 0 1596 1602 1610 1613 1616 1617 1618 1618 1618 1618 1619 1619 1620 1621 1622 1622 1626 1636 1644 1649 1658 1673 1677 1677 1684 1688 1691 1693 1693 1694 1696 1698 1698 1698 1698 1698 1698 1697 1696 1695 1694 1694 1693 1691 1690 1690 1689 1689 1689 1689 1689 1688 1689 1691 1692 1705 1715 1724 1742 1753 1757 1762 1763 1765 1766 1768 1769 1770 1772 1773 1774 1776 1778 1780 1782 1785 1790 1795 1803 1810 1818 1822 1825 1825 1825 1820 1812 1805 1801 1793 1789 1785 1780 1774 1768 1755 1745 1737 1730 1724 1718 1710 1701 1693 1688 1686 1684 1678 1668 1664 1662 1660 1648 1640 1639 1625 1625 1623 1618 1613 1612 1611 1610 1609 1606 1604 1604 1601 1599 1599 1598 1599 1599 1598 1598 1598 1598 1600 1600 1600 1600 1600 1599 1601 0
1869 1869 1876 1882 1896 1915 1929 1932 1947 1961 1974 1992 2009 2032 2044 2052 2056 2056 2057 2070 2077 2095 2115 2129 2135 2138 2141 2143 2149 2160 2172 2185 2196 2204 2209 2214 2224 2236 2245 2249 2253 2258 2271 2285 2297 2305 2311 2314 2320 2329 2340 2345 2353 2362 2366 2372 2378 2385 2391 2394 2398 2404 2412 2424 2436 2447 2456 2461 2466 2472 2477 2485 2492 2497 2502 2506 2509 2510 2514 2522 2529 2534 2539 2543 2548 2553 2560 2565 2572 2577 2583 2587 2591 2595 2599 2604 2608 2611 2617 2623 2629 2636 2643 2649 2654 2658 2660 2662 2665 2669 2671 2674 2676 2677 2678 2679 2682 2683 2685 2688 2693 2696 2698 2701 2703 2707 2709 2710 2711 2712 2712 2712 2711 2710 2708 2704 2701 2699 2699 2699 2701 2703 2703 2703 2703 2701 2701 2700 2701 2701 2702 2705 2707 2707 2707 2706 2697 2697 2697 2699 2701 2701 2701 2689 2676 2666 2657 2638 2623 2600 2562 2516 0 0 0 0 0 0 0 0 0 1760 1759 1734 1724 1724 1724 0 0 0 2804 3122 3246 3331 3376 3376 3376 3376 3376 3379 3387 3387 3387 3380 3375 3375 3375 3376 3380 3380 3380 3378 3376 3376 3376 3376 3388 3388 3388 3382 3374 3363 3360 3359 3359 3358 3358 3357 3353 3349 3344 3339 3330 3320 3316 3308 3296 3277 3261 3239 3226 3201 3182 3142 3081 2842 0 0 0 0 0 1306 1303 1302 1297 1296 1296 1294 1293 1290 1286 1281 1278 1274 1265 1251 1249 1243 1239 1235 1232 1231 1229 1226 1223 1221 1219 1217 1215 1215 1214 1214 1214 1222 1224 1225 1225 1225 1223 1222 1221 1219 1217 1216 1214 1212 1209 1207 1205 1203 1202 1199 1197 1195 1193 1190 1187 1183 1180 1176 1171 1165 1164 1162 1162 1162 1159 1159 1158 1156 1155 1155 1154 1153 1153 1152 1151 1151 1147 1144 1141 1141 1138 1135 1135 1134 1129 1129 1126 1124 1123 1121 1119 1116 1115 1113 1112 1111 1110 1108 1106 1104 1101 1100 1099 1097 1094 1094 1092 1090 1090 1089 1088 1086 1086 1085 1084 1082 1082 1081 1079 1078 1077 1075 1075 1073 1072 1071 1070 1068 1067 1065 1063 1062 1061 1059 1057 1055 1053 1052 1050 1049 1047 1045 1044 1042 1041 1039 1037 1035 1034 1032 1031 1030 1029 1027 1026 1024 1024 1021 1019 1017 1015 1013 1011 1009 1009 1008 1007 1007 1006 1005 1003 1002 1001 1001 999 997 996 995 994 993 991 990 989 987 986 985 984 983 981 979 978 977 976 974 973 971 970 969 968 967 966 965 964 963 962 960 959 958 956 956 954 953 952 951 950 949 948 948 947 946 945 944 943 942 942 942 942 942 942 941 941 942 942 947 956 963 970 981 0 0 0 0 0 1594 1607 1613 1614 1616 1617 1617 1618 1618 1618 1619 1619 1620 1620 1621 1621 1621 1628 1637 1643 1651 1660 1670 1675 1677 1683 1687 1690 1691 1692 1694 1696 1697 1697 1697 1697 1697 1697 1695 1695 1694 1694 1693 1691 1690 1690 1690 1689 1689 1689 1689 1689 1689 1689 1692 1701 1709 1720 1732 1750 1757 1761 1763 1765 1766 1768 1769 1770 1772 1773 1774 1776 1778 1781 1782 1785 1789 1795 1803 1810 1815 1819 1820 1820 1820 1817 1812 1805 1798 1791 1787 1784 1774 1765 1755 1748 1738 1726 1720 1715 1707 1703 1694 1685 1683 1681 1674 1668 1659 1650 1646 1639 1635 1630 1626 1622 1621 1618 1617 1611 1609 1607 1605 1603 1598 1596 1594 1594 1594 1595 1595 1595 1594 1593 1593 1593 1593 1593 1593 1593 1593 1594 1594 1594 0
1866 1866 1870 1875 1896 1915 1929 1932 1946 1958 1974 1992 2009 2032 2044 2046 2049 2051 2052 2066 2072 2092 2114 2128 2135 2138 2141 2146 2154 2160 2169 2178 2191 2203 2208 2214 2222 2233 2244 2252 2255 2258 2271 2286 2298 2306 2310 2314 2320 2330 2340 2345 2353 2360 2366 2372 2379 2385 2391 2397 2400 2404 2411 2423 2433 2443 2452 2460 2466 2472 2477 2485 2489 2494 2498 2502 2506 2508 2512 2517 2525 2534 2539 2545 2553 2557 2564 2569 2575 2579 2585 2591 2595 2598 2602 2607 2608 2611 2617 2624 2629 2636 2643 2651 2657 2659 2660 2662 2665 2669 2671 2674 2674 2675 2677 2678 2680 2681 2685 2688 2693 2696 2699 2701 2704 2707 2709 2710 2711 2712 2712 2712 2711 2710 2708 2705 2702 2702 2702 2702 2702 2703 2704 2704 2704 2702 2702 2701 2701 2702 2703 2706 2706 2706 2704 2698 2697 2697 2697 2699 2701 2701 2701 2691 2681 2677 2662 2643 2624 2620 2619 2619 2611 2587 2556 0 0 0 0 0 0 0 1760 1734 1721 1721 1721 0 0 0 2884 3128 3246 3331 3376 3376 3376 3369 3369 3369 3381 3381 3381 3375 3371 3371 3371 3375 3380 3380 3380 3378 3374 3371 3367 3367 3367 3370 3370 3370 3355 3348 3347 3347 3347 3344 3341 3341 3339 3330 3317 3314 3313 3313 3313 3308 3290 3277 3256 3232 3214 3193 3167 3134 3033 2680 0 0 0 0 0 1306 1304 1301 1298 1297 1296 1295 1293 1290 1286 1281 1278 1273 1265 1250 1246 1242 1237 1233 1230 1229 1227 1224 1221 1221 1219 1218 1217 1216 1215 1215 1215 1222 1224 1225 1225 1225 1224 1223 1222 1220 1218 1216 1214 1212 1210 1208 1205 1204 1202 1200 1198 1196 1193 1191 1187 1184 1180 1176 1171 1160 1156 1154 1154 1152 1152 1151 1150 1150 1150 1150 1149 1148 1148 1147 1147 1145 1143 1141 1141 1139 1138 1135 1134 1131 1128 1128 1126 1124 1123 1122 1120 1118 1118 1116 1114 1114 1111 1108 1106 1104 1102 1100 1099 1098 1095 1094 1093 1091 1090 1089 1088 1086 1086 1085 1084 1082 1082 1080 1079 1078 1077 1075 1075 1073 1072 1071 1070 1068 1067 1065 1063 1062 1060 1059 1057 1055 1053 1053 1051 1049 1047 1045 1045 1043 1041 1039 1037 1036 1034 1033 1032 1031 1030 1028 1027 1025 1024 1022 1020 1019 1017 1016 1013 1011 1010 1008 1008 1008 1007 1006 1004 1003 1002 1001 999 997 996 995 994 993 991 990 989 987 986 985 984 983 981 979 978 977 976 974 973 972 970 969 968 967 966 965 964 963 962 960 959 958 956 956 954 953 952 951 950 949 948 947 946 946 944 944 943 942 942 942 942 942 942 942 942 942 943 949 956 963 970 0 0 0 0 0 1587 1594 1607 1615 1615 1616 1617 1617 1618 1618 1618 1619 1619 1620 1620 1621 1621 1621 1625 1632 1637 1644 1651 1662 1671 1676 1679 1683 1687 1690 1691 1693 1694 1696 1696 1696 1696 1696 1696 1695 1695 1694 1694 1693 1691 1691 1690 1690 1689 1689 1689 1689 1688 1688 1689 1691 1694 1702 1715 1727 1741 1752 1758 1762 1765 1766 1768 1769 1770 1772 1773 1774 1776 1779 1781 1783 1785 1787 1795 1802 1808 1812 1816 1816 1817 1817 1817 1811 1805 1798 1790 1774 1759 1756 1746 1742 1734 1729 1722 1711 1700 1689 1683 1683 1674 1659 1651 1648 1647 1644 1638 1636 1633 1630 1626 1618 1617 1616 1614 1612 1603 1599 1596 1591 1590 1586 1584 1583 1583 1583 1585 1589 1589 1589 1586 1586 1586 1587 1587 1587 1587 1587 1587 1587 1587 0
1855 1855 1865 1873 1896 1915 1927 1935 1946 1957 1969 1986 2000 2004 2007 2017 2030 2036 2047 2065 2071 2092 2114 2127 2135 2136 2141 2146 2154 2160 2161 2168 2183 2194 2201 2207 2217 2229 2243 2253 2259 2266 2277 2289 2299 2307 2310 2314 2322 2332 2340 2346 2353 2359 2366 2371 2379 2385 2391 2397 2400 2405 2410 2416 2430 2439 2449 2459 2466 2471 2477 2483 2489 2494 2498 2502 2506 2508 2509 2514 2525 2534 2542 2550 2558 2562 2568 2572 2578 2583 2587 2591 2597 2603 2605 2608 2609 2612 2617 2624 2630 2636 2643 2651 2657 2659 2661 2662 2664 2666 2668 2670 2672 2672 2674 2676 2679 2680 2684 2687 2692 2696 2699 2703 2705 2707 2709 2710 2711 2712 2712 2712 2711 2710 2708 2705 2704 2704 2704 2704 2704 2704 2704 2704 2704 2702 2702 2702 2702 2702 2703 2703 2703 2703 2699 2694 2694 2694 2697 2699 2701 2701 2701 2694 2692 2682 2666 2645 2642 2642 2635 2632 2632 2630 2616 2595 2564 0 0 0 0 0 0 1734 1721 1721 0 0 0 2623 2897 3133 3228 3331 3373 3373 3373 3362 3362 3362 3366 3366 3366 3358 3358 3358 3362 3366 3375 3378 3378 3378 3369 3364 3355 3355 3354 3353 3353 3345 3333 3333 3332 3332 3332 3324 3319 3316 3316 3313 3308 3308 3308 3307 3307 3300 3283 3266 3247 3224 3203 3175 3145 3083 2923 2605 0 0 0 0 0 1305 1304 1301 1299 1298 1297 1296 1293 1289 1285 1281 1278 1272 1263 1247 1244 1239 1234 1230 1228 1227 1225 1223 1221 1221 1220 1220 1218 1216 1216 1216 1218 1224 1225 1225 1225 1225 1225 1224 1222 1220 1218 1216 1214 1213 1211 1208 1207 1204 1202 1200 1199 1196 1194 1191 1187 1184 1180 1176 1170 1157 1148 1145 1144 1144 1144 1146 1146 1146 1145 1145 1145 1144 1142 1141 1141 1141 1140 1140 1140 1139 1137 1135 1134 1131 1128 1128 1126 1124 1123 1123 1122 1119 1118 1116 1114 1114 1111 1108 1106 1104 1102 1102 1099 1098 1096 1094 1093 1091 1090 1089 1087 1086 1086 1085 1084 1082 1081 1080 1078 1078 1076 1075 1074 1073 1072 1071 1069 1067 1066 1065 1063 1062 1060 1059 1057 1055 1053 1053 1051 1049 1048 1046 1045 1043 1041 1039 1037 1036 1034 1033 1032 1031 1030 1029 1028 1026 1025 1023 1022 1021 1020 1017 1015 1012 1010 1009 1008 1008 1007 1006 1004 1003 1002 1001 999 998 996 995 994 993 991 990 989 987 986 985 984 983 981 980 978 977 976 974 973 972 970 969 968 967 966 965 964 963 962 960 959 958 957 956 954 953 952 951 950 949 948 947 947 946 944 944 943 942 942 942 943 943 943 942 942 942 943 950 960 965 976 0 0 0 0 0 1587 1594 1610 1615 1615 1616 1616 1616 1617 1617 1618 1619 1619 1620 1620 1621 1621 1621 1623 1626 1633 1638 1647 1653 1664 1672 1675 1680 1684 1687 1689 1691 1693 1695 1695 1696 1696 1696 1695 1695 1695 1694 1694 1693 1692 1691 1690 1690 1689 1689 1689 1688 1688 1688 1689 1691 1694 1699 1710 1721 1737 1750 1758 1761 1763 1765 1767 1769 1770 1772 1773 1774 1776 1779 1781 1783 1785 1787 1790 1799 1807 1809 1810 1812 1816 1816 1816 1811 1805 1794 1777 1760 1747 1742 1737 1733 1726 1721 1712 1701 1691 1687 1672 1662 1651 1643 1638 1636 1634 1631 1628 1625 1624 1624 1619 1611 1605 1604 1603 1603 1599 1595 1587 1584 1583 1581 1577 1575 1571 1571 1571 1574 1577 1577 1578 1579 1581 1581 1581 1576 1571 1570 1569 1564 1564 0
1853 1853 1865 1873 1896 1916 1932 1935 1946 1952 1957 1969 1981 1985 1994 2007 2020 2034 2047 2064 2070 2089 2107 2119 2128 2132 2137 2146 2151 2154 2156 2161 2175 2186 2190 2206 2217 2229 2243 2253 2259 2266 2277 2289 2299 2305 2309 2316 2326 2333 2340 2346 2354 2358 2363 2370 2378 2383 2390 2397 2400 2406 2411 2416 2425 2437 2448 2456 2464 2469 2476 2482 2489 2494 2498 2502 2506 2508 2509 2514 2525 2536 2548 2556 2561 2566 2571 2575 2581 2584 2589 2593 2600 2603 2607 2608 2609 2612 2617 2624 2631 2637 2643 2651 2657 2659 2661 2662 2664 2665 2667 2668 2669 2671 2672 2674 2676 2679 2681 2685 2689 2694 2698 2703 2706 2707 2708 2708 2709 2710 2710 2710 2710 2709 2708 2705 2705 2705 2706 2707 2707 2707 2707 2706 2705 2702 2702 2702 2702 2703 2704 2704 2704 2702 2697 2692 2692 2692 2694 2696 2697 2697 2699 2697 2694 2692 2677 2661 2648 2648 2648 2648 2648 2639 2626 2620 2605 2584 0 0 0 0 0 0 0 0 0 0 0 2627 2984 3133 3228 3328 3364 3364 3364 3358 3346 3344 3339 3327 3312 3312 3312 3315 3329 3335 3337 3342 3345 3346 3346 3345 3342 3342 3341 3340 3334 3320 3318 3318 3318 3318 3318 3314 3309 3305 3303 3303 3303 3303 3303 3302 3302 3289 3276 3259 3239 3217 3187 3154 3107 3020 2899 0 0 0 0 0 1316 1305 1304 1301 1300 1299 1298 1296 1293 1289 1285 1281 1277 1272 1263 1246 1240 1236 1231 1230 1228 1226 1224 1222 1221 1221 1221 1220 1218 1216 1216 1216 1222 1224 1225 1225 1225 1225 1225 1224 1222 1220 1219 1217 1215 1214 1211 1209 1207 1205 1202 1201 1199 1197 1194 1191 1187 1184 1180 1173 1166 1156 1148 1145 1143 1143 1142 1142 1142 1141 1141 1141 1141 1138 1136 1135 1135 1135 1135 1135 1135 1135 1135 1134 1132 1131 1129 1128 1128 1126 1124 1123 1122 1121 1118 1117 1114 1114 1112 1108 1106 1104 1103 1103 1100 1100 1097 1095 1093 1091 1090 1089 1087 1086 1086 1084 1083 1082 1080 1079 1078 1077 1076 1075 1074 1072 1071 1069 1069 1067 1066 1065 1063 1061 1060 1058 1057 1055 1053 1053 1051 1049 1047 1046 1045 1043 1041 1039 1037 1035 1034 1033 1032 1031 1030 1029 1028 1026 1025 1024 1022 1021 1020 1018 1015 1012 1011 1010 1009 1008 1007 1006 1005 1003 1003 1001 1000 998 997 996 994 993 992 990 989 987 986 985 984 983 982 980 979 977 976 975 973 972 970 969 968 967 966 965 964 963 962 960 959 958 957 956 954 953 952 951 950 949 948 947 946 945 945 944 943 942 942 942 942 942 942 942 942 942 943 951 961 968 981 0 0 0 0 0 1587 1601 1611 1615 1615 1616 1616 1616 1617 1618 1618 1619 1619 1620 1620 1621 1621 1622 1623 1624 1628 1633 1641 1646 1654 1663 1669 1675 1682 1686 1688 1690 1691 1692 1694 1695 1695 1695 1695 1695 1695 1694 1694 1692 1692 1691 1690 1690 1689 1689 1689 1688 1688 1688 1689 1690 1692 1698 1706 1720 1730 1749 1757 1761 1763 1764 1766 1768 1769 1772 1773 1774 1776 1779 1781 1783 1785 1786 1788 1794 1801 1802 1805 1812 1813 1813 1813 1810 1800 1781 1763 1749 1741 1737 1733 1726 1717 1706 1695 1686 1677 1669 1657 1644 1636 1632 1629 1625 1623 1621 1621 1618 1617 1616 1610 1601 1593 1591 1587 1586 1583 1582 1580 1579 1578 1578 1573 1571 1566 1563 1563 1563 1564 1567 1569 1570 1574 1574 1574 1569 1556 1554 1553 1552 1549 0
1853 1853 1865 1873 1896 1920 1932 1944 1947 1952 1956 1964 1976 1985 1994 2007 2020 2033 2046 2064 2070 2084 2095 2105 2119 2127 2133 2142 2144 2146 2148 2154 2170 2186 2190 2206 2217 2229 2243 2252 2259 2266 2277 2289 2299 2305 2309 2316 2326 2333 2337 2346 2354 2358 2363 2370 2375 2381 2388 2395 2400 2406 2411 2416 2425 2437 2448 2453 2460 2464 2473 2478 2488 2494 2500 2505 2506 2508 2509 2514 2525 2536 2548 2558 2566 2571 2575 2579 2581 2584 2589 2594 2600 2603 2608 2608 2610 2612 2617 2624 2631 2637 2643 2649 2656 2660 2661 2662 2664 2664 2666 2667 2669 2670 2672 2674 2676 2677 2679 2680 2684 2692 2698 2704 2706 2707 2707 2707 2708 2708 2709 2709 2709 2708 2707 2706 2706 2706 2707 2707 2708 2708 2708 2708 2706 2704 2703 2703 2703 2704 2704 2704 2704 2701 2697 2692 2692 2692 2694 2696 2697 2697 2699 2697 2697 2697 2689 2672 2658 2658 2658 2658 2658 2647 2641 2640 2633 2587 0 0 0 0 0 0 0 0 0 0 0 2685 2993 3139 3228 3310 3351 3351 3351 3331 3309 3278 3241 3222 3216 3206 3206 3206 3221 3241 3257 3259 3266 3267 3276 3289 3306 3317 3317 3317 3316 3301 3301 3301 3303 3311 3311 3311 3309 3305 3303 3301 3300 3300 3298 3295 3291 3285 3270 3256 3235 3208 3167 3123 3068 2982 2723 0 0 0 0 0 1311 1305 1304 1301 1300 1300 1298 1296 1293 1289 1284 1281 1277 1271 1263 1246 1238 1235 1231 1230 1228 1226 1224 1222 1221 1221 1221 1220 1219 1218 1218 1218 1224 1225 1225 1227 1226 1225 1225 1224 1223 1220 1219 1217 1215 1214 1212 1210 1207 1206 1203 1201 1200 1198 1195 1192 1188 1186 1180 1172 1166 1152 1148 1145 1142 1142 1140 1140 1140 1138 1134 1134 1134 1134 1133 1132 1131 1131 1129 1129 1129 1130 1132 1132 1132 1132 1129 1129 1129 1126 1125 1123 1123 1121 1118 1117 1115 1114 1112 1108 1106 1104 1103 1103 1102 1100 1097 1095 1093 1091 1090 1089 1087 1086 1086 1084 1083 1081 1079 1078 1078 1076 1076 1074 1073 1071 1070 1068 1068 1067 1065 1064 1062 1061 1059 1058 1057 1055 1053 1053 1051 1049 1047 1046 1045 1043 1040 1038 1037 1035 1034 1033 1032 1031 1030 1029 1028 1026 1025 1024 1022 1021 1020 1018 1015 1013 1011 1010 1009 1008 1007 1007 1006 1004 1003 1001 1000 998 997 996 994 993 992 990 989 988 987 985 984 983 982 980 979 978 976 975 973 972 970 969 968 967 966 965 964 963 962 961 959 958 957 956 954 953 952 951 950 950 948 947 946 945 944 944 943 942 942 942 942 943 943 943 943 943 943 952 963 968 981 0 0 0 0 0 1590 1606 1611 1614 1615 1616 1616 1616 1617 1618 1618 1618 1619 1620 1620 1621 1621 1622 1622 1623 1625 1629 1634 1641 1647 1654 1662 1668 1675 1680 1684 1687 1689 1691 1692 1693 1693 1694 1694 1694 1693 1693 1693 1692 1692 1691 1691 1690 1690 1689 1689 1689 1689 1689 1689 1690 1694 1696 1701 1712 1728 1740 1754 1760 1763 1764 1766 1767 1768 1771 1773 1774 1776 1778 1781 1783 1784 1785 1788 1793 1794 1797 1803 1809 1809 1809 1802 1796 1779 1763 1750 1737 1734 1730 1718 1701 1696 1685 1677 1666 1660 1650 1637 1629 1626 1625 1625 1620 1617 1617 1615 1613 1612 1608 1600 1592 1588 1584 1580 1576 1570 1570 1570 1571 1571 1571 1568 1567 1563 1559 1559 1559 1560 1563 1565 1566 1568 1568 1568 1565 1554 1554 1553 1552 1549 0
1853 1853 1865 1885 1905 1928 1932 1944 1947 1952 1956 1964 1976 1985 1994 2007 2020 2031 2046 2053 2068 2080 2088 2098 2112 2120 2127 2134 2134 2138 2140 2149 2169 2184 2190 2206 2219 2233 2243 2252 2259 2266 2274 2285 2294 2301 2308 2316 2326 2333 2337 2345 2354 2358 2363 2367 2371 2377 2384 2390 2398 2406 2411 2416 2425 2437 2448 2453 2460 2464 2473 2477 2486 2494 2500 2505 2510 2513 2517 2520 2525 2536 2548 2558 2566 2571 2578 2580 2581 2585 2589 2595 2600 2604 2608 2610 2612 2615 2620 2627 2633 2639 2643 2649 2656 2660 2661 2662 2664 2664 2665 2667 2668 2670 2672 2674 2676 2677 2679 2680 2684 2692 2698 2704 2706 2706 2706 2707 2707 2707 2708 2708 2708 2708 2707 2706 2706 2706 2707 2707 2708 2709 2709 2709 2709 2707 2705 2705 2705 2705 2705 2705 2705 2701 2697 2694 2694 2694 2694 2696 2697 2697 2699 2697 2697 2697 2689 2679 2666 2666 2664 2664 2664 2654 2651 2650 2643 2599 0 0 0 0 0 0 0 0 0 0 0 2739 2995 3139 3239 3310 3310 3310 3310 3274 3222 3159 3097 3081 3078 3062 3021 2991 2989 2989 2991 3057 3065 3087 3129 3171 3203 3249 3290 3290 3290 3285 3285 3285 3298 3307 3307 3307 3302 3302 3301 3300 3297 3293 3289 3289 3281 3273 3267 3256 3234 3197 3152 3102 2982 2821 2504 0 0 0 0 0 1311 1305 1304 1301 1300 1300 1298 1295 1292 1287 1284 1280 1275 1268 1257 1244 1237 1234 1231 1230 1229 1226 1224 1222 1222 1221 1221 1220 1220 1220 1220 1220 1225 1225 1226 1227 1226 1226 1226 1225 1223 1221 1219 1217 1216 1214 1212 1210 1208 1206 1204 1202 1200 1198 1195 1192 1190 1186 1178 1167 1157 1151 1148 1145 1142 1139 1139 1138 1137 1134 1131 1130 1130 1130 1130 1130 1130 1128 1127 1127 1127 1129 1132 1132 1132 1132 1131 1130 1129 1128 1126 1125 1123 1121 1118 1117 1115 1114 1112 1110 1109 1106 1104 1103 1103 1101 1098 1096 1093 1091 1090 1089 1087 1085 1085 1084 1082 1080 1079 1078 1077 1076 1075 1073 1072 1070 1069 1068 1067 1065 1065 1063 1062 1059 1058 1057 1057 1054 1053 1052 1051 1049 1047 1046 1045 1043 1040 1038 1036 1034 1033 1032 1031 1029 1028 1027 1027 1026 1025 1024 1022 1021 1019 1018 1015 1013 1011 1010 1009 1008 1007 1007 1006 1004 1003 1001 1000 999 997 996 994 993 992 990 989 988 987 985 984 983 982 980 979 978 977 975 974 972 971 969 968 967 966 965 964 963 962 961 960 958 957 956 955 953 952 951 950 950 948 947 946 945 944 944 943 943 943 943 943 943 943 943 943 945 947 956 963 971 982 0 0 0 0 1589 1590 1606 1611 1614 1615 1615 1616 1616 1617 1618 1618 1619 1619 1620 1620 1621 1621 1622 1622 1623 1624 1629 1631 1636 1642 1646 1654 1663 1671 1676 1680 1683 1686 1689 1690 1690 1692 1692 1693 1693 1693 1693 1693 1692 1692 1692 1691 1690 1690 1690 1690 1689 1689 1689 1689 1691 1694 1696 1700 1708 1725 1736 1747 1757 1761 1763 1765 1766 1768 1771 1773 1773 1775 1777 1779 1781 1782 1783 1785 1790 1794 1797 1802 1802 1802 1797 1788 1774 1759 1747 1727 1711 1693 1689 1685 1684 1680 1669 1655 1649 1645 1642 1629 1619 1619 1617 1617 1617 1614 1612 1609 1604 1602 1596 1588 1585 1583 1582 1577 1571 1566 1565 1565 1565 1565 1565 1565 1557 1557 1556 1555 1555 1555 1558 1558 1558 1556 1555 1552 1554 1554 1553 1552 1552 1548 0
1869 1869 1885 1902 1915 1928 1931 1944 1947 1952 1956 1964 1976 1987 2001 2011 2020 2031 2046 2051 2067 2079 2088 2098 2105 2115 2124 2132 2134 2137 2138 2149 2169 2183 2190 2206 2219 2233 2242 2249 2253 2256 2262 2269 2280 2292 2302 2311 2319 2330 2334 2343 2350 2356 2357 2359 2364 2370 2376 2382 2394 2406 2414 2418 2427 2437 2449 2453 2460 2464 2473 2477 2484 2493 2500 2505 2510 2517 2522 2525 2525 2535 2546 2558 2566 2571 2578 2581 2582 2585 2589 2596 2601 2604 2609 2613 2616 2620 2625 2632 2636 2640 2643 2649 2654 2659 2662 2662 2663 2664 2665 2667 2668 2670 2672 2675 2677 2677 2679 2680 2684 2691 2697 2703 2706 2706 2706 2706 2706 2706 2707 2707 2707 2707 2707 2707 2707 2707 2707 2707 2708 2709 2710 2710 2710 2709 2708 2707 2706 2706 2705 2705 2705 2701 2698 2695 2695 2695 2697 2699 2699 2699 2698 2698 2697 2697 2689 2681 2672 2672 2672 2670 2670 2661 2660 2659 2652 2602 0 0 0 0 0 0 0 0 0 0 0 2756 3023 3139 3259 3282 3282 3282 3228 3155 3095 3018 2956 2887 2789 2725 2717 2719 2719 2719 2719 2720 2789 2810 2864 2926 2986 3031 3081 3121 3191 3247 3265 3273 3290 3299 3302 3302 3302 3302 3300 3297 3288 3280 3277 3276 3275 3266 3258 3254 3231 3188 3128 3071 2918 2694 0 0 0 0 0 1322 1310 1306 1304 1301 1301 1300 1298 1294 1291 1287 1284 1279 1274 1267 1251 1241 1237 1234 1232 1231 1230 1227 1224 1222 1222 1222 1222 1222 1222 1223 1223 1224 1226 1226 1227 1227 1227 1227 1226 1225 1223 1221 1220 1218 1216 1214 1212 1210 1208 1206 1204 1202 1200 1198 1195 1192 1191 1186 1177 1163 1154 1150 1148 1145 1140 1139 1136 1136 1133 1130 1129 1129 1129 1129 1129 1128 1126 1126 1126 1126 1127 1129 1132 1132 1132 1132 1132 1131 1129 1128 1127 1126 1123 1121 1119 1117 1115 1114 1112 1111 1110 1108 1106 1103 1103 1101 1098 1096 1094 1091 1090 1089 1087 1085 1084 1083 1082 1080 1079 1077 1076 1076 1074 1072 1071 1069 1068 1066 1066 1064 1063 1062 1061 1059 1058 1057 1056 1054 1052 1051 1050 1048 1047 1046 1045 1042 1040 1038 1036 1034 1033 1031 1030 1028 1027 1026 1026 1026 1025 1023 1022 1020 1017 1016 1014 1013 1011 1010 1009 1008 1007 1006 1006 1004 1003 1002 1000 999 997 996 994 993 992 990 989 988 987 985 984 983 982 981 979 978 977 975 974 972 971 969 968 967 966 965 964 963 962 961 960 958 957 956 955 954 952 951 950 950 948 947 946 945 945 944 943 943 943 943 943 943 943 943 944 947 950 958 964 973 0 0 0 0 0 1585 1589 1603 1611 1614 1614 1615 1616 1616 1617 1618 1618 1619 1619 1619 1620 1621 1621 1621 1622 1623 1624 1628 1629 1632 1635 1643 1649 1657 1664 1673 1676 1678 1681 1683 1687 1689 1689 1690 1691 1691 1692 1692 1692 1692 1692 1692 1691 1691 1690 1690 1690 1690 1690 1690 1691 1691 1694 1696 1700 1706 1723 1733 1743 1752 1757 1761 1763 1766 1768 1769 1771 1772 1773 1775 1778 1779 1780 1781 1782 1787 1790 1795 1795 1795 1794 1782 1762 1750 1740 1722 1698 1683 1673 1664 1661 1655 1651 1642 1628 1620 1617 1616 1616 1615 1609 1602 1602 1602 1602 1602 1598 1593 1589 1582 1580 1580 1579 1576 1571 1567 1563 1560 1560 1559 1558 1558 1555 1554 1554 1552 1550 1550 1550 1550 1550 1550 1548 1548 1548 1549 1549 1551 1549 1549 1548 0
1874 1874 1885 1902 1915 1928 1931 1938 1947 1952 1956 1964 1976 1987 2001 2011 2023 2033 2045 2051 2065 2078 2088 2098 2105 2115 2124 2132 2134 2137 2137 2149 2169 2181 2192 2206 2219 2233 2241 2245 2248 2249 2253 2264 2279 2289 2297 2307 2316 2328 2332 2342 2349 2351 2351 2353 2357 2363 2370 2379 2392 2405 2414 2419 2429 2440 2450 2458 2464 2468 2474 2477 2484 2490 2495 2502 2510 2517 2525 2526 2529 2533 2545 2556 2565 2573 2578 2581 2583 2584 2589 2595 2601 2604 2610 2615 2620 2625 2631 2636 2639 2642 2644 2649 2654 2659 2662 2663 2663 2663 2664 2666 2668 2670 2673 2675 2678 2678 2679 2682 2685 2691 2697 2703 2705 2705 2705 2705 2705 2705 2706 2706 2707 2707 2707 2707 2707 2707 2707 2708 2708 2710 2711 2712 2712 2712 2709 2708 2707 2706 2705 2705 2705 2702 2700 2699 2699 2699 2701 2702 2702 2702 2702 2700 2698 2697 2692 2681 2681 2681 2683 2683 2683 2667 2661 2661 2658 2602 0 0 0 0 0 0 0 0 0 0 0 2866 3102 3194 3259 3259 3259 3199 3127 3026 2930 2853 2717 2529 0 0 0 0 0 0 0 0 2513 2535 2535 2535 0 0 0 0 2513 3091 3185 3237 3258 3281 3290 3299 3299 3299 3295 3287 3274 3265 3265 3264 3263 3263 3250 3242 3212 3170 3115 3010 2848 2503 0 0 0 0 0 1320 1310 1307 1304 1301 1301 1300 1298 1293 1291 1287 1284 1279 1274 1266 1251 1241 1237 1234 1232 1232 1230 1227 1224 1222 1222 1222 1222 1224 1224 1224 1224 1224 1226 1226 1227 1227 1227 1227 1226 1225 1223 1221 1220 1218 1217 1214 1213 1211 1209 1207 1205 1203 1200 1197 1195 1192 1191 1186 1176 1163 1153 1149 1144 1141 1139 1138 1136 1134 1131 1128 1128 1128 1127 1127 1127 1126 1125 1125 1125 1125 1127 1129 1130 1132 1132 1132 1132 1131 1130 1129 1127 1126 1124 1122 1120 1118 1116 1115 1114 1112 1110 1109 1107 1105 1103 1101 1098 1096 1094 1091 1089 1089 1087 1085 1084 1083 1082 1080 1078 1075 1075 1074 1071 1071 1070 1068 1067 1066 1065 1063 1061 1061 1059 1059 1058 1056 1056 1053 1052 1051 1050 1048 1047 1046 1045 1042 1040 1038 1036 1034 1032 1031 1030 1028 1027 1026 1025 1025 1025 1022 1021 1018 1016 1014 1012 1012 1011 1010 1009 1008 1007 1006 1005 1004 1003 1002 1000 999 997 996 994 993 992 990 989 988 987 985 984 983 982 981 979 978 977 975 974 972 971 969 968 967 966 965 964 963 962 961 960 958 957 956 955 954 953 951 950 949 948 947 946 945 944 944 943 943 943 943 943 943 945 946 946 949 953 961 964 973 0 0 0 0 0 1586 1589 1603 1611 1613 1614 1615 1616 1616 1617 1618 1618 1618 1619 1619 1620 1620 1621 1621 1621 1622 1624 1625 1628 1630 1633 1639 1646 1653 1659 1667 1676 1678 1679 1682 1684 1685 1686 1688 1689 1690 1691 1691 1691 1691 1691 1691 1691 1691 1691 1691 1690 1690 1690 1690 1691 1693 1694 1696 1699 1706 1720 1731 1738 1746 1755 1758 1761 1765 1767 1769 1770 1771 1772 1774 1776 1776 1776 1777 1777 1779 1785 1789 1789 1789 1773 1746 1734 1720 1703 1686 1673 1658 1642 1632 1630 1625 1621 1618 1613 1607 1605 1604 1604 1604 1603 1596 1595 1592 1592 1591 1589 1583 1580 1575 1575 1573 1571 1569 1566 1564 1561 1559 1558 1557 1555 1551 1549 1549 1548 1548 1548 1544 1544 1544 1545 1545 1546 1546 1546 1549 1549 1549 1549 1549 1548 0
