2418 2439 2464 2482 2487 2506 2543 2557 2573 2595 2617 2630 2647 2664 2676 2687 2697 2713 2721 2727 2736 2744 2752 2761 2769 2770 2770 2773 2779 2785 2790 2790 2790 2772 2761 2760 2759 2757 2752 2745 2741 2740 2734 2721 2705 2699 2691 2678 2667 2662 2657 2650 2646 2636 2635 2633 2630 2624 2618 2618 2618 2618 2617 2616 2614 2613 2612 2605 2600 2596 2593 2591 2589 2587 2586 2585 2585 2585 2582 2582 2582 2582 2582 2578 2574 2572 2569 2569 2569 2569 2566 2560 2554 2549 2546 2545 2542 2538 2532 2528 2522 2518 2514 2509 2503 2496 2489 2482 2476 2471 2468 2467 2464 2459 2452 2444 2442 2435 2430 2427 2421 2411 2385 2360 2333 2302 0 0 0 0 0 0 1008 1008 1004 998 998 998 993 993 993 993 994 994 994 994 995 996 998 998 1000 1001 1002 1003 1004 1005 1005 1006 1007 1007 1008 1009 1009 1010 1011 1012 1013 1014 1015 1016 1018 1019 1021 1022 1023 1024 1025 1026 1027 1028 1029 1030 1031 1031 1032 1033 1034 1035 1036 1037 1038 1039 1040 1042 1044 1044 1046 1047 1048 1050 1051 1052 1053 1055 1056 1058 1058 1060 1062 1063 1064 1065 1067 1069 1070 1071 1072 1074 1076 1078 1079 1080 1081 1082 1082 1083 1084 1086 1088 1088 1090 1091 1092 1093 1094 1095 1097 1099 1100 1101 1103 1104 1105 1106 1108 1109 1112 1113 1114 1116 1118 1120 1121 1122 1122 1124 1126 1127 1128 1130 1131 1133 1135 1137 1138 1139 1141 1142 1143 1145 1147 1149 1150 1152 1153 1155 1156 1157 1157 1159 1161 1163 1164 1165 1167 1169 1171 1173 1174 1174 1176 1177 1179 1179 1180 1184 1186 1188 1189 1192 1194 1196 1196 1198 1199 1201 1203 1205 1208 1210 1213 1214 1214 1216 1216 1218 1218 1219 1221 1222 1224 1224 1225 1228 1229 1232 1234 1236 1236 1236 1238 1240 1242 1243 1244 1247 1249 1250 1251 1252 1253 1255 1256 1257 1258 1260 1264 1265 1267 1269 1270 1272 1274 1275 1276 1279 1283 1286 1288 1289 1291 1294 1300 1303 1306 1308 1310 1312 1314 1316 1317 1318 1320 1321 1324 1324 1325 1326 1331 1344 0 0 0 1705 1710 1721 1730 1726 1726 1726 1721 1717 1714 1710 1704 1699 1689 1681 1676 1672 1669 1665 1660 1656 1653 1648 1645 1641 1639 1636 1632 1629 1625 1622 1618 1616 1612 1609 1606 1604 1601 1599 1597 1594 1592 1589 1587 1584 1581 1579 1576 1574 1571 1569 1567 1565 1563 1562 1560 1558 1556 1555 1553 1551 1549 1547 1546 1545 1543 1542 1540 1538 1537 1536 1535 1533 1532 1531 1530 1528 1528 1526 1526 1525 1524 1523 1522 1522 1521 1520 1520 1519 1518 1518 1518 1517 1517 1516 1516 1515 1515 1514 1514 1513 1513 1513 1512 1512 1511 1510 1510 1509 1509 1509 1508 1508 1507 1507 1506 1505 1505 1505 1504 1504 1504 1504 1504 1504 1503 1503 1503 1503 1502 1502 1501 1501 1501 1500 1500 1500 1500 1501 1501 1502 1502 1503 1503 1504 1505 1505 1505 1505 1505 1505 1505 1505 1505 1505 1505 1505 1505 1505 1506 1506 1506 1507 1507 1508 1508 1508 1508 1508 1509 1509 1509 1510 1510 1511 1511 1512 1513 1513 1514 1514 1514 1514 1514 1514 1514 1515 1515 1516 1516 1516 1516 1517 1517 1517 1517 1517 1517 1517 1517 1517 1517 1517 1517 1516 1516 1516 1516 1516 1516 1516 1516 1517 1517 1517 1517 1516 1513 1512 1511 1509 1507 1506 1505 1505 1503 1503 1502 1502 1502 1502 1502 1507 1507 1507 1503 1496 1494
2422 2452 2472 2489 2521 2525 2548 2563 2583 2604 2620 2635 2657 2672 2681 2689 2698 2716 2726 2730 2738 2749 2761 2776 2779 2779 2781 2781 2781 2785 2790 2790 2790 2772 2760 2759 2757 2745 2737 2727 2723 2716 2704 2690 2683 2676 2665 2653 2651 2651 2649 2648 2639 2631 2631 2627 2621 2614 2611 2611 2611 2611 2610 2610 2608 2608 2607 2599 2594 2590 2587 2587 2584 2580 2579 2579 2579 2577 2576 2576 2576 2575 2575 2573 2571 2569 2569 2568 2568 2567 2563 2557 2552 2547 2544 2541 2538 2535 2530 2526 2522 2518 2514 2508 2503 2496 2488 2482 2475 2470 2467 2466 2464 2458 2451 2443 2442 2435 2429 2422 2415 2398 2374 2349 2322 2297 0 0 0 0 0 0 1008 1008 1004 998 998 998 994 993 993 993 993 994 994 994 995 996 998 998 1000 1001 1002 1003 1004 1005 1006 1007 1007 1007 1009 1009 1010 1011 1012 1013 1014 1015 1015 1017 1019 1020 1021 1023 1024 1024 1026 1027 1027 1029 1030 1031 1031 1032 1033 1034 1036 1036 1038 1038 1039 1041 1042 1043 1044 1045 1046 1047 1048 1049 1050 1051 1052 1053 1055 1056 1057 1059 1061 1062 1064 1065 1067 1068 1070 1071 1072 1074 1076 1077 1079 1080 1081 1081 1082 1083 1084 1086 1088 1090 1091 1091 1092 1094 1095 1097 1098 1099 1101 1103 1103 1105 1106 1107 1109 1111 1113 1114 1115 1117 1118 1120 1121 1122 1123 1124 1126 1127 1128 1130 1131 1133 1134 1135 1136 1138 1140 1141 1142 1144 1147 1148 1150 1151 1152 1155 1155 1155 1156 1158 1161 1162 1164 1165 1167 1169 1171 1173 1174 1175 1176 1178 1180 1183 1184 1186 1188 1188 1192 1194 1195 1197 1199 1199 1201 1203 1204 1206 1208 1210 1213 1214 1214 1215 1216 1217 1217 1219 1220 1222 1223 1224 1224 1225 1226 1231 1234 1234 1234 1235 1237 1239 1239 1242 1244 1246 1248 1250 1251 1252 1254 1256 1256 1258 1259 1262 1265 1267 1269 1271 1272 1274 1275 1277 1279 1282 1285 1288 1291 1292 1295 1298 1301 1304 1306 1308 1310 1312 1314 1316 1317 1318 1320 1321 1324 1324 1325 1326 1331 1345 0 0 0 1703 1707 1721 1725 1724 1724 1724 1720 1717 1714 1710 1704 1696 1688 1681 1676 1672 1669 1665 1660 1656 1653 1648 1645 1641 1639 1636 1632 1629 1625 1622 1618 1616 1612 1609 1606 1604 1601 1599 1597 1594 1592 1589 1587 1584 1581 1579 1576 1574 1571 1569 1567 1565 1563 1561 1560 1558 1556 1555 1553 1551 1549 1547 1546 1544 1543 1542 1540 1538 1537 1536 1534 1533 1531 1531 1529 1528 1527 1526 1526 1525 1524 1523 1522 1521 1520 1519 1519 1519 1518 1518 1517 1516 1516 1516 1515 1515 1514 1514 1514 1513 1513 1513 1512 1512 1511 1510 1509 1509 1509 1508 1508 1508 1507 1506 1506 1505 1505 1504 1504 1504 1504 1504 1504 1504 1503 1503 1503 1503 1502 1502 1501 1501 1501 1500 1500 1500 1500 1501 1501 1502 1502 1503 1503 1504 1505 1505 1505 1505 1505 1505 1505 1505 1504 1504 1504 1505 1505 1505 1506 1506 1506 1507 1507 1508 1508 1508 1508 1508 1509 1509 1509 1510 1510 1511 1512 1512 1513 1513 1513 1514 1514 1514 1514 1514 1514 1515 1515 1515 1516 1516 1516 1516 1517 1517 1517 1517 1518 1518 1518 1518 1517 1517 1517 1517 1517 1516 1516 1516 1516 1516 1516 1516 1516 1516 1515 1515 1513 1512 1511 1509 1507 1506 1505 1505 1503 1503 1502 1502 1502 1502 1502 1502 1502 1498 1496 1496 1494
2446 2474 2497 2512 2528 2533 2551 2573 2597 2616 2630 2648 2667 2683 2692 2698 2707 2717 2727 2731 2739 2757 2772 2782 2782 2782 2781 2781 2781 2781 2781 2778 2759 2737 2731 2731 2725 2717 2716 2712 2703 2687 2674 2667 2662 2656 2646 2646 2646 2645 2645 2640 2632 2624 2619 2618 2610 2608 2607 2607 2607 2606 2604 2603 2602 2602 2601 2597 2594 2589 2585 2583 2578 2575 2575 2574 2574 2573 2572 2571 2570 2570 2569 2569 2568 2566 2566 2566 2565 2564 2559 2554 2547 2543 2541 2539 2536 2531 2528 2526 2522 2518 2513 2508 2502 2496 2488 2481 2474 2470 2467 2465 2463 2456 2448 2441 2440 2433 2424 2415 2409 2391 2371 2349 2320 2296 0 0 0 0 0 0 1007 1007 1003 998 998 998 996 993 993 993 993 994 994 994 995 996 998 999 1000 1001 1002 1004 1005 1005 1006 1007 1008 1008 1009 1010 1011 1011 1013 1013 1014 1015 1016 1018 1020 1021 1022 1023 1025 1025 1026 1028 1029 1030 1030 1031 1031 1033 1033 1035 1036 1037 1038 1039 1039 1041 1042 1043 1044 1045 1046 1046 1048 1048 1050 1051 1051 1053 1054 1055 1056 1058 1060 1061 1062 1063 1066 1068 1070 1071 1072 1073 1074 1074 1076 1078 1079 1080 1081 1083 1084 1087 1089 1090 1091 1092 1093 1094 1097 1098 1100 1101 1102 1103 1104 1106 1108 1109 1110 1112 1113 1115 1115 1117 1119 1120 1121 1122 1123 1125 1126 1127 1128 1130 1131 1132 1133 1135 1136 1137 1139 1140 1140 1141 1142 1144 1146 1148 1151 1153 1154 1154 1156 1158 1161 1163 1164 1165 1167 1170 1171 1173 1175 1177 1177 1179 1182 1183 1185 1186 1188 1189 1192 1195 1196 1198 1199 1201 1202 1204 1206 1207 1208 1210 1211 1212 1213 1213 1213 1215 1216 1216 1218 1221 1221 1221 1221 1222 1223 1225 1225 1226 1227 1228 1234 1236 1238 1240 1243 1246 1247 1250 1251 1253 1255 1257 1258 1260 1262 1264 1266 1268 1269 1272 1273 1275 1276 1279 1282 1284 1287 1289 1291 1293 1295 1299 1301 1305 1306 1308 1311 1312 1314 1316 1317 1318 1320 1321 1324 1324 1325 1326 1331 1346 0 0 0 1695 1706 1720 1720 1720 1720 1720 1719 1716 1713 1706 1698 1693 1688 1681 1676 1672 1667 1662 1659 1656 1653 1648 1645 1641 1639 1636 1632 1629 1625 1622 1618 1615 1612 1609 1606 1603 1601 1599 1596 1594 1591 1589 1586 1584 1581 1579 1576 1574 1571 1569 1567 1565 1563 1561 1560 1557 1556 1554 1553 1551 1549 1547 1546 1544 1543 1541 1540 1538 1536 1535 1534 1533 1531 1531 1529 1527 1526 1525 1525 1524 1524 1522 1521 1520 1519 1519 1518 1518 1518 1517 1517 1516 1516 1515 1515 1514 1514 1514 1514 1513 1512 1512 1512 1511 1510 1510 1509 1509 1509 1508 1507 1506 1506 1506 1505 1505 1505 1504 1504 1504 1504 1504 1504 1504 1503 1503 1503 1503 1503 1502 1501 1501 1501 1500 1500 1500 1500 1501 1501 1502 1502 1503 1503 1504 1505 1505 1505 1505 1505 1505 1505 1505 1504 1504 1504 1505 1505 1505 1506 1506 1506 1507 1507 1508 1508 1508 1508 1508 1509 1509 1509 1510 1511 1512 1512 1512 1513 1513 1513 1514 1514 1514 1514 1515 1515 1515 1516 1516 1516 1516 1516 1516 1517 1517 1517 1517 1518 1518 1518 1518 1518 1518 1518 1517 1517 1516 1516 1516 1516 1516 1516 1515 1515 1515 1515 1515 1513 1512 1511 1509 1507 1506 1505 1504 1503 1502 1500 1498 1498 1498 1499 1499 1499 1498 1496 1496 1494
2470 2484 2498 2517 2535 2542 2562 2585 2609 2628 2641 2660 2677 2695 2704 2709 2717 2731 2739 2742 2746 2757 2772 2782 2782 2782 2781 2781 2781 2781 2781 2776 2757 2713 2699 2698 2691 2690 2685 2684 2677 2663 2654 2644 2638 2633 2633 2633 2633 2633 2632 2628 2620 2611 2608 2607 2607 2606 2605 2605 2602 2598 2597 2597 2597 2597 2597 2597 2592 2588 2583 2579 2574 2574 2572 2571 2571 2570 2570 2569 2568 2568 2567 2566 2565 2564 2563 2563 2563 2560 2555 2549 2544 2540 2538 2536 2532 2528 2526 2524 2522 2518 2513 2507 2501 2493 2488 2481 2474 2470 2466 2463 2460 2451 2444 2437 2436 2427 2418 2412 2404 2390 2370 2346 2320 2295 0 0 0 0 0 0 1005 1005 1005 998 997 997 996 993 993 993 993 994 994 995 996 996 998 999 1000 1001 1002 1004 1005 1006 1006 1007 1008 1008 1010 1011 1011 1011 1013 1014 1015 1016 1018 1019 1020 1021 1023 1024 1025 1026 1027 1028 1029 1030 1031 1032 1032 1034 1035 1036 1038 1038 1038 1039 1041 1042 1042 1043 1044 1045 1046 1046 1047 1048 1049 1051 1051 1052 1053 1055 1055 1058 1060 1061 1062 1063 1065 1067 1070 1071 1072 1072 1072 1074 1075 1078 1079 1080 1081 1083 1085 1088 1090 1090 1091 1092 1094 1095 1097 1098 1100 1101 1102 1103 1104 1106 1108 1109 1111 1112 1113 1115 1116 1118 1119 1121 1122 1123 1124 1125 1126 1127 1128 1129 1131 1132 1133 1134 1135 1137 1138 1139 1140 1141 1142 1143 1145 1148 1150 1152 1153 1154 1156 1158 1161 1163 1164 1165 1168 1170 1171 1173 1177 1178 1180 1182 1184 1185 1186 1187 1189 1191 1193 1195 1197 1198 1200 1203 1203 1205 1207 1208 1208 1210 1211 1211 1212 1213 1213 1213 1213 1214 1214 1216 1216 1216 1217 1218 1218 1219 1222 1223 1225 1226 1227 1231 1234 1234 1238 1242 1246 1249 1251 1253 1257 1258 1258 1260 1264 1265 1268 1269 1272 1274 1276 1276 1278 1280 1283 1285 1287 1290 1292 1294 1296 1299 1302 1305 1307 1309 1311 1312 1314 1315 1317 1318 1319 1321 1323 1324 1325 1326 1331 1346 0 0 1684 1695 1696 1705 1705 1717 1719 1719 1719 1716 1713 1706 1696 1693 1688 1679 1674 1671 1666 1661 1658 1655 1651 1648 1645 1641 1638 1635 1631 1628 1625 1621 1618 1614 1611 1609 1606 1603 1601 1598 1596 1593 1591 1589 1586 1584 1581 1579 1576 1574 1571 1569 1567 1565 1563 1561 1560 1557 1556 1554 1552 1551 1549 1547 1546 1544 1542 1541 1539 1538 1536 1535 1534 1532 1531 1530 1529 1527 1526 1525 1524 1523 1522 1521 1521 1520 1519 1519 1518 1518 1518 1517 1516 1516 1515 1514 1514 1514 1514 1514 1513 1512 1512 1512 1512 1511 1510 1510 1509 1509 1509 1508 1507 1506 1505 1505 1505 1505 1504 1504 1504 1504 1504 1504 1504 1504 1503 1503 1503 1503 1503 1502 1501 1501 1501 1501 1501 1500 1500 1500 1501 1501 1502 1503 1503 1503 1504 1505 1505 1505 1505 1505 1505 1505 1505 1505 1505 1505 1505 1505 1506 1506 1506 1507 1507 1508 1508 1508 1508 1508 1509 1509 1510 1511 1511 1512 1512 1513 1513 1513 1513 1514 1514 1514 1514 1515 1515 1516 1516 1516 1516 1516 1516 1516 1517 1518 1519 1519 1519 1519 1519 1519 1519 1519 1518 1517 1517 1516 1516 1516 1516 1516 1515 1515 1515 1515 1515 1515 1515 1513 1512 1510 1508 1507 1504 1504 1503 1502 1500 1498 1498 1498 1499 1499 1499 1500 1501 1501 1501
2470 2486 2500 2520 2538 2543 2564 2587 2614 2636 2641 2660 2679 2695 2704 2715 2722 2731 2739 2742 2746 2757 2772 2774 2774 2774 2769 2766 2766 2766 2764 2749 2724 2709 2693 2668 2667 2667 2665 2659 2650 2646 2641 2637 2624 2617 2617 2617 2617 2617 2615 2611 2609 2606 2605 2605 2604 2603 2602 2600 2594 2592 2591 2591 2591 2592 2592 2592 2592 2588 2581 2574 2569 2569 2569 2569 2569 2569 2568 2567 2567 2567 2566 2563 2562 2561 2559 2558 2557 2554 2551 2545 2538 2536 2535 2533 2530 2526 2523 2521 2520 2515 2510 2505 2499 2493 2488 2481 2474 2470 2466 2461 2455 2448 2441 2432 2424 2423 2416 2409 2402 2389 2370 2344 2320 2294 0 0 0 0 0 0 1005 1005 1005 998 998 998 996 994 994 994 994 994 995 995 996 997 998 999 1001 1002 1003 1004 1005 1006 1006 1007 1008 1009 1010 1011 1011 1013 1013 1014 1016 1017 1018 1019 1020 1021 1023 1024 1025 1027 1028 1029 1030 1030 1032 1033 1034 1035 1036 1038 1038 1039 1039 1041 1041 1042 1043 1043 1044 1045 1046 1046 1047 1048 1049 1050 1050 1051 1053 1053 1055 1057 1059 1060 1061 1063 1065 1066 1069 1071 1072 1072 1072 1073 1074 1077 1079 1080 1081 1083 1085 1088 1090 1091 1092 1093 1094 1096 1098 1099 1101 1102 1103 1104 1106 1107 1109 1110 1112 1113 1114 1115 1117 1118 1119 1121 1122 1123 1124 1125 1126 1128 1129 1129 1131 1132 1132 1134 1135 1136 1138 1138 1140 1141 1142 1143 1144 1145 1148 1150 1152 1154 1156 1158 1162 1163 1164 1165 1168 1171 1173 1174 1177 1179 1181 1183 1184 1186 1187 1188 1191 1192 1195 1196 1197 1199 1200 1203 1204 1205 1207 1208 1209 1210 1211 1211 1212 1213 1213 1213 1212 1212 1212 1213 1213 1214 1214 1214 1216 1218 1220 1223 1224 1225 1227 1229 1231 1234 1237 1238 1242 1246 1251 1253 1257 1258 1259 1262 1265 1267 1269 1271 1273 1276 1278 1279 1281 1282 1284 1286 1288 1292 1294 1296 1299 1301 1304 1305 1307 1309 1311 1312 1314 1315 1317 1318 1319 1321 1323 1324 1325 1326 1334 1350 0 0 1684 1694 1695 1704 1704 1715 1718 1718 1718 1716 1712 1705 1695 1690 1684 1676 1673 1669 1664 1661 1657 1655 1651 1648 1645 1641 1637 1634 1630 1627 1624 1620 1618 1614 1611 1607 1605 1603 1601 1598 1595 1593 1591 1589 1586 1584 1581 1579 1576 1574 1571 1569 1567 1565 1563 1561 1560 1557 1556 1554 1552 1551 1549 1547 1546 1543 1542 1540 1539 1537 1536 1534 1533 1532 1531 1529 1528 1527 1526 1525 1524 1523 1522 1521 1521 1520 1519 1518 1518 1518 1518 1517 1516 1515 1515 1514 1514 1514 1514 1513 1513 1512 1512 1511 1511 1511 1510 1510 1509 1508 1508 1507 1507 1505 1505 1504 1504 1504 1504 1504 1504 1504 1504 1504 1503 1503 1503 1503 1503 1503 1503 1502 1502 1501 1501 1501 1501 1500 1500 1500 1501 1501 1502 1503 1503 1503 1504 1505 1505 1505 1505 1505 1505 1505 1505 1505 1505 1505 1505 1505 1506 1506 1507 1507 1507 1508 1508 1509 1509 1509 1509 1510 1511 1511 1512 1512 1513 1514 1514 1514 1514 1515 1515 1515 1516 1516 1516 1516 1517 1517 1516 1517 1517 1517 1519 1520 1520 1520 1520 1520 1519 1519 1519 1519 1519 1517 1517 1517 1516 1516 1516 1516 1515 1515 1515 1515 1515 1515 1515 1513 1512 1512 1508 1507 1504 1504 1503 1501 1499 1498 1498 1498 1499 1499 1500 1500 1507 1510 1510
2470 2486 2500 2524 2550 2556 2574 2603 2629 2636 2641 2660 2679 2695 2704 2715 2722 2731 2739 2742 2746 2750 2754 2754 2754 2753 2745 2721 2719 2716 2707 2707 2697 2679 2665 2662 2656 2652 2652 2645 2639 2632 2622 2616 2610 2607 2607 2607 2610 2610 2610 2607 2599 2599 2599 2598 2598 2594 2592 2590 2586 2585 2585 2585 2585 2585 2585 2585 2585 2581 2575 2569 2567 2567 2566 2566 2566 2566 2566 2566 2566 2566 2562 2558 2556 2555 2553 2552 2551 2549 2544 2538 2534 2532 2531 2530 2527 2522 2519 2517 2516 2512 2508 2501 2497 2492 2487 2483 2478 2471 2466 2461 2455 2446 2438 2430 2421 2420 2412 2405 2400 2387 2370 2344 2320 2294 0 0 0 0 0 0 1021 1006 1005 1003 1003 997 995 994 994 994 994 994 995 995 996 997 999 1000 1001 1002 1003 1005 1005 1007 1008 1008 1009 1010 1011 1012 1012 1013 1014 1015 1017 1018 1018 1020 1021 1022 1023 1025 1026 1027 1028 1029 1030 1031 1032 1033 1035 1036 1037 1038 1039 1040 1040 1042 1042 1043 1043 1044 1044 1045 1046 1046 1047 1048 1048 1049 1050 1051 1051 1053 1055 1056 1058 1060 1061 1062 1064 1066 1067 1071 1071 1072 1072 1072 1074 1076 1078 1079 1081 1082 1085 1088 1090 1091 1092 1093 1095 1097 1098 1100 1101 1103 1104 1105 1106 1108 1110 1111 1112 1114 1114 1116 1117 1119 1120 1121 1122 1123 1124 1126 1127 1128 1129 1129 1130 1132 1132 1134 1135 1136 1137 1138 1139 1140 1142 1143 1144 1145 1146 1148 1151 1154 1156 1159 1162 1164 1164 1165 1168 1171 1175 1177 1178 1180 1182 1183 1184 1186 1188 1189 1191 1193 1195 1197 1199 1200 1201 1203 1204 1205 1207 1208 1209 1210 1211 1211 1212 1212 1212 1212 1211 1211 1211 1212 1212 1212 1213 1213 1214 1216 1219 1222 1223 1225 1226 1227 1230 1234 1236 1238 1242 1246 1250 1253 1257 1258 1260 1264 1266 1269 1271 1274 1275 1277 1279 1281 1282 1283 1286 1287 1290 1292 1295 1297 1299 1301 1304 1305 1307 1309 1311 1312 1314 1315 1317 1318 1319 1320 1322 1324 1325 1327 1334 1350 0 0 1684 1692 1696 1704 1704 1713 1716 1716 1716 1712 1709 1703 1694 1688 1681 1676 1670 1666 1662 1660 1657 1654 1651 1647 1643 1639 1636 1633 1629 1626 1623 1619 1616 1613 1610 1607 1604 1602 1600 1597 1595 1593 1591 1588 1586 1584 1581 1579 1577 1574 1571 1569 1567 1565 1563 1561 1560 1557 1556 1554 1552 1551 1549 1547 1545 1543 1541 1539 1539 1537 1536 1534 1533 1531 1530 1529 1528 1527 1526 1525 1524 1523 1522 1521 1520 1519 1519 1518 1518 1518 1517 1517 1515 1515 1515 1514 1514 1513 1512 1512 1511 1511 1511 1511 1511 1511 1510 1509 1509 1508 1507 1507 1506 1505 1504 1504 1503 1503 1503 1503 1503 1503 1503 1503 1503 1503 1503 1503 1503 1503 1503 1502 1502 1501 1501 1501 1501 1501 1501 1501 1501 1501 1503 1503 1503 1503 1504 1505 1505 1505 1505 1505 1505 1505 1505 1505 1505 1505 1506 1506 1506 1506 1507 1507 1508 1508 1508 1509 1510 1510 1510 1511 1511 1512 1512 1514 1514 1515 1515 1516 1516 1516 1516 1517 1517 1517 1518 1518 1518 1518 1518 1518 1518 1519 1521 1521 1521 1521 1521 1521 1521 1521 1520 1520 1519 1518 1518 1517 1517 1517 1517 1517 1515 1515 1515 1515 1515 1515 1515 1513 1512 1512 1509 1508 1504 1503 1503 1501 1499 1498 1498 1498 1498 1498 1500 1501 1509 1513 1513
2467 2485 2500 2526 2550 2556 2574 2603 2629 2636 2641 2655 2677 2690 2702 2715 2717 2717 2721 2721 2722 2722 2722 2720 2717 2710 2704 2679 2679 2679 2671 2671 2671 2661 2649 2649 2648 2646 2626 2622 2615 2609 2606 2598 2598 2598 2602 2603 2603 2603 2600 2591 2584 2584 2584 2583 2583 2581 2580 2580 2578 2578 2578 2577 2577 2577 2576 2576 2576 2574 2570 2567 2563 2563 2562 2562 2561 2560 2555 2553 2553 2553 2553 2552 2551 2548 2546 2545 2545 2542 2538 2532 2527 2526 2526 2526 2522 2518 2515 2514 2512 2510 2507 2501 2496 2491 2487 2483 2481 2474 2466 2461 2454 2444 2436 2427 2417 2416 2407 2403 2400 2387 2368 2344 2320 0 0 0 0 0 0 0 1021 1006 1004 1003 1003 997 995 994 994 994 994 995 995 996 996 998 999 1000 1001 1003 1004 1005 1005 1007 1008 1009 1009 1011 1011 1012 1013 1014 1015 1016 1017 1018 1019 1020 1022 1023 1024 1026 1026 1028 1029 1030 1031 1032 1033 1034 1035 1036 1038 1038 1039 1040 1041 1042 1042 1043 1043 1044 1045 1045 1046 1046 1046 1047 1048 1049 1049 1049 1050 1051 1054 1055 1057 1058 1059 1060 1061 1064 1067 1069 1069 1070 1070 1072 1074 1076 1078 1079 1081 1082 1085 1088 1090 1091 1092 1094 1096 1097 1098 1100 1102 1103 1105 1105 1107 1108 1110 1112 1112 1114 1116 1117 1118 1119 1120 1122 1122 1124 1125 1126 1127 1128 1128 1129 1130 1131 1132 1133 1134 1135 1136 1137 1139 1140 1141 1143 1143 1145 1145 1147 1150 1153 1156 1159 1162 1164 1164 1166 1168 1171 1175 1177 1179 1180 1182 1184 1185 1187 1188 1189 1192 1194 1196 1197 1199 1200 1202 1203 1204 1205 1207 1208 1209 1210 1211 1211 1212 1212 1212 1212 1210 1210 1210 1210 1211 1211 1212 1212 1212 1215 1218 1221 1222 1223 1224 1226 1230 1233 1236 1238 1241 1246 1250 1253 1257 1258 1261 1264 1267 1269 1272 1274 1276 1278 1279 1281 1283 1285 1287 1288 1291 1293 1295 1297 1299 1302 1304 1306 1307 1309 1311 1312 1313 1315 1316 1317 1319 1320 1322 1324 1326 1328 1336 0 0 0 1682 1697 1704 1704 1704 1712 1712 1712 1712 1708 1704 1700 1691 1685 1680 1672 1666 1663 1660 1656 1655 1651 1649 1646 1641 1637 1634 1631 1628 1626 1622 1618 1615 1613 1609 1606 1603 1601 1598 1596 1594 1592 1590 1588 1586 1584 1581 1579 1577 1574 1571 1569 1567 1565 1563 1561 1559 1557 1556 1553 1552 1550 1549 1546 1545 1543 1541 1539 1538 1537 1535 1534 1532 1531 1530 1529 1528 1527 1526 1525 1524 1523 1522 1521 1520 1519 1519 1518 1518 1517 1517 1516 1515 1514 1514 1514 1513 1513 1512 1512 1511 1511 1511 1511 1511 1511 1510 1509 1509 1508 1507 1506 1505 1504 1504 1503 1503 1503 1503 1503 1503 1503 1503 1503 1503 1503 1503 1503 1503 1503 1503 1503 1502 1502 1502 1502 1501 1501 1501 1502 1502 1503 1503 1503 1504 1504 1504 1504 1505 1505 1505 1505 1505 1505 1505 1505 1505 1506 1506 1507 1507 1507 1507 1508 1508 1508 1508 1509 1510 1510 1511 1511 1512 1513 1514 1515 1515 1516 1516 1517 1517 1517 1517 1517 1518 1518 1519 1519 1519 1519 1519 1519 1520 1520 1521 1522 1522 1522 1522 1523 1523 1523 1521 1520 1520 1519 1519 1518 1518 1517 1517 1517 1516 1516 1516 1515 1515 1515 1515 1513 1512 1512 1509 1507 1504 1503 1502 1501 1499 1498 1498 1498 1498 1498 1500 1501 1510 1514 1517
2465 2485 2498 2526 2550 2556 2574 2603 2620 2626 2629 2640 2655 2668 2674 2680 2680 2680 2680 2680 2678 2678 2674 2654 2651 2651 2647 2645 2642 2642 2640 2634 2633 2631 2629 2628 2627 2626 2622 2616 2599 2592 2585 2585 2585 2589 2589 2589 2589 2586 2582 2575 2574 2572 2572 2572 2571 2570 2569 2569 2569 2569 2570 2570 2570 2570 2569 2566 2564 2564 2563 2562 2559 2559 2557 2555 2554 2553 2551 2548 2548 2548 2549 2549 2549 2544 2541 2541 2539 2537 2533 2526 2522 2520 2520 2519 2518 2517 2514 2512 2511 2509 2506 2500 2494 2489 2487 2483 2481 2474 2466 2457 2449 2440 2432 2421 2413 2405 2404 2399 2399 2386 2367 2344 2316 0 0 0 0 0 0 0 1021 1006 1004 1001 1001 997 995 994 994 994 994 995 995 996 996 998 999 1000 1002 1003 1004 1005 1007 1007 1008 1009 1010 1011 1012 1012 1013 1014 1015 1016 1017 1018 1019 1021 1022 1023 1025 1026 1027 1028 1029 1031 1031 1032 1033 1034 1036 1037 1038 1039 1040 1040 1041 1042 1043 1043 1044 1044 1045 1045 1045 1046 1046 1047 1047 1047 1047 1048 1049 1051 1053 1054 1055 1055 1055 1057 1059 1062 1065 1067 1067 1067 1069 1072 1073 1075 1076 1078 1081 1082 1085 1088 1090 1091 1092 1095 1096 1098 1099 1100 1102 1103 1105 1106 1108 1109 1110 1112 1114 1115 1116 1118 1118 1121 1121 1122 1123 1124 1125 1127 1128 1128 1129 1129 1130 1131 1132 1133 1134 1134 1135 1137 1139 1140 1141 1142 1143 1144 1145 1147 1150 1152 1156 1159 1162 1164 1164 1166 1169 1172 1176 1177 1179 1180 1183 1184 1187 1187 1189 1191 1192 1194 1196 1197 1199 1201 1202 1203 1205 1206 1207 1208 1209 1210 1211 1211 1212 1212 1212 1212 1210 1210 1210 1209 1209 1209 1209 1209 1210 1211 1214 1216 1218 1221 1222 1225 1230 1233 1236 1237 1241 1246 1250 1253 1257 1259 1261 1264 1267 1270 1272 1275 1277 1279 1280 1282 1283 1285 1287 1289 1291 1293 1296 1298 1300 1302 1304 1306 1307 1309 1311 1312 1313 1315 1317 1318 1318 1320 1322 1324 1326 1328 1336 0 0 0 1682 1697 1708 1708 1708 1710 1710 1710 1708 1705 1700 1694 1689 1685 1678 1670 1665 1662 1659 1655 1652 1649 1646 1644 1640 1636 1632 1628 1626 1624 1621 1617 1614 1611 1608 1605 1602 1599 1597 1594 1593 1592 1589 1587 1586 1584 1581 1579 1577 1574 1571 1569 1566 1565 1563 1561 1559 1557 1555 1553 1552 1550 1548 1546 1545 1543 1541 1539 1537 1537 1535 1534 1532 1531 1530 1529 1528 1527 1525 1525 1523 1522 1522 1521 1520 1519 1518 1518 1517 1517 1516 1516 1515 1514 1514 1513 1513 1512 1512 1511 1511 1511 1510 1510 1510 1510 1510 1509 1508 1508 1507 1505 1504 1503 1503 1502 1502 1502 1502 1502 1502 1502 1502 1502 1502 1502 1502 1503 1503 1503 1503 1503 1502 1502 1502 1502 1502 1502 1502 1502 1502 1503 1503 1504 1504 1504 1504 1505 1505 1505 1505 1505 1505 1505 1505 1506 1507 1507 1507 1507 1507 1508 1508 1508 1509 1509 1509 1510 1510 1511 1511 1513 1514 1514 1515 1515 1516 1517 1517 1518 1518 1518 1518 1519 1519 1519 1519 1519 1519 1519 1520 1520 1521 1521 1522 1522 1522 1522 1523 1523 1523 1523 1523 1522 1521 1520 1520 1519 1519 1519 1519 1518 1518 1517 1516 1515 1515 1515 1515 1513 1512 1512 1509 1507 1504 1503 1502 1500 1499 1498 1498 1498 1498 1498 1500 1505 1512 1514 1517
2458 2475 2497 2526 2535 2554 2558 2592 2598 2598 2599 2602 2602 2613 2618 2618 2618 2614 2614 2614 2614 2614 2594 2587 2587 2587 2588 2599 2608 2608 2608 2603 2600 2599 2597 2589 2589 2589 2594 2594 2594 2580 2575 2575 2575 2575 2574 2571 2571 2570 2566 2565 2563 2562 2562 2560 2559 2559 2559 2559 2561 2562 2564 2565 2565 2565 2562 2558 2554 2553 2553 2553 2553 2552 2550 2548 2548 2547 2546 2546 2546 2546 2547 2547 2547 2543 2541 2539 2537 2534 2530 2524 2518 2516 2516 2515 2515 2515 2513 2510 2510 2508 2504 2497 2492 2487 2484 2483 2481 2474 2463 2452 2443 2433 2426 2420 2411 2403 2402 2394 2387 2377 2365 2342 2315 0 0 0 0 0 0 0 1018 1006 1004 1000 1000 997 995 995 995 995 995 995 996 996 997 998 999 1001 1002 1003 1004 1005 1007 1008 1008 1009 1010 1011 1012 1012 1014 1014 1016 1016 1018 1019 1020 1021 1023 1024 1025 1026 1027 1029 1030 1031 1032 1033 1034 1035 1036 1037 1038 1039 1040 1041 1042 1042 1043 1043 1044 1044 1045 1045 1045 1046 1046 1046 1046 1046 1047 1047 1048 1050 1053 1053 1053 1053 1053 1054 1055 1059 1064 1064 1065 1066 1068 1070 1073 1074 1076 1078 1080 1082 1085 1088 1090 1091 1092 1095 1097 1098 1100 1101 1103 1104 1106 1107 1109 1110 1111 1113 1114 1115 1117 1118 1119 1121 1122 1123 1124 1125 1125 1127 1128 1128 1129 1130 1130 1131 1132 1133 1133 1134 1135 1137 1139 1140 1141 1141 1143 1144 1145 1147 1150 1152 1156 1159 1162 1163 1164 1166 1169 1173 1176 1177 1179 1180 1183 1184 1187 1189 1189 1191 1193 1195 1196 1198 1199 1201 1202 1204 1205 1206 1207 1208 1209 1210 1211 1211 1211 1211 1211 1211 1210 1209 1208 1208 1207 1207 1207 1207 1207 1207 1210 1212 1214 1217 1219 1223 1227 1232 1234 1237 1241 1246 1250 1255 1258 1260 1261 1265 1267 1271 1273 1275 1277 1280 1281 1282 1285 1286 1288 1290 1292 1294 1297 1298 1300 1303 1304 1306 1308 1309 1311 1312 1313 1315 1317 1318 1319 1320 1321 1324 1326 1328 1336 0 0 0 1701 1701 1709 1709 1709 1709 1709 1707 1705 1701 1698 1693 1687 1680 1674 1668 1664 1662 1658 1654 1651 1648 1645 1641 1638 1634 1630 1626 1623 1621 1619 1614 1611 1609 1605 1604 1601 1598 1596 1594 1592 1590 1589 1587 1585 1583 1581 1579 1576 1574 1570 1568 1566 1564 1563 1560 1559 1556 1555 1553 1551 1549 1548 1545 1544 1542 1541 1538 1537 1536 1535 1533 1532 1531 1529 1529 1528 1526 1525 1525 1523 1522 1521 1520 1519 1519 1518 1517 1517 1516 1516 1515 1515 1514 1513 1513 1512 1512 1511 1510 1510 1510 1510 1510 1510 1509 1509 1508 1508 1507 1506 1504 1503 1503 1502 1502 1502 1502 1502 1502 1502 1502 1502 1502 1502 1502 1502 1503 1503 1503 1503 1503 1502 1502 1502 1502 1502 1502 1502 1502 1502 1503 1503 1504 1504 1504 1504 1505 1505 1505 1505 1505 1505 1505 1506 1506 1507 1507 1507 1507 1508 1508 1508 1509 1509 1509 1510 1510 1510 1512 1513 1513 1514 1515 1516 1517 1517 1518 1518 1519 1519 1519 1519 1519 1519 1520 1520 1520 1520 1520 1521 1521 1522 1522 1522 1522 1523 1523 1523 1523 1523 1523 1523 1522 1521 1520 1520 1519 1519 1519 1519 1518 1518 1518 1517 1516 1516 1516 1515 1514 1512 1511 1509 1507 1504 1503 1502 1500 1499 1498 1498 1498 1498 1500 1501 1507 1510 1512 1517
2440 2450 2473 2502 2503 2503 2502 2502 2503 2502 2502 2506 2506 2506 2509 2517 2523 2526 2541 2542 2542 2542 2540 2540 2540 2542 2554 2567 2579 2579 2579 2578 2577 2576 2572 2567 2567 2567 2571 2576 2576 2576 2569 2566 2566 2562 2562 2558 2555 2555 2554 2554 2553 2553 2552 2550 2549 2549 2549 2549 2551 2552 2554 2559 2559 2559 2556 2552 2547 2544 2544 2544 2544 2544 2544 2544 2543 2543 2542 2542 2542 2542 2543 2543 2543 2543 2541 2537 2536 2534 2528 2521 2516 2513 2513 2513 2513 2513 2513 2509 2506 2504 2500 2493 2486 2482 2481 2480 2478 2471 2463 2448 2437 2428 2421 2416 2411 2401 2400 2387 2379 2371 2360 2341 2312 0 0 0 0 0 0 0 1018 1007 999 999 999 996 995 995 995 995 995 995 996 997 997 999 1000 1001 1002 1004 1005 1006 1007 1008 1009 1009 1011 1011 1012 1013 1014 1015 1016 1017 1018 1019 1021 1022 1023 1024 1025 1027 1028 1029 1030 1031 1032 1033 1034 1035 1036 1037 1039 1039 1040 1041 1042 1042 1043 1044 1044 1044 1045 1045 1045 1046 1046 1046 1046 1046 1046 1046 1048 1050 1051 1052 1052 1053 1053 1054 1054 1057 1061 1064 1064 1065 1068 1070 1073 1074 1076 1078 1080 1082 1085 1089 1090 1091 1093 1096 1098 1100 1101 1102 1104 1105 1106 1108 1110 1110 1112 1114 1114 1116 1117 1119 1120 1121 1122 1123 1124 1125 1126 1127 1128 1128 1129 1130 1130 1131 1132 1133 1133 1134 1135 1136 1138 1139 1140 1141 1143 1144 1146 1147 1150 1152 1156 1159 1162 1163 1164 1166 1169 1173 1175 1177 1179 1181 1183 1185 1187 1189 1190 1192 1193 1195 1196 1198 1199 1201 1202 1204 1205 1206 1207 1208 1210 1210 1210 1211 1211 1211 1211 1211 1210 1210 1208 1208 1206 1205 1205 1205 1205 1206 1208 1210 1212 1215 1217 1220 1225 1229 1233 1237 1241 1246 1250 1255 1258 1260 1263 1265 1269 1271 1273 1276 1278 1280 1281 1283 1285 1287 1289 1290 1292 1295 1297 1299 1300 1303 1304 1306 1308 1309 1311 1312 1314 1316 1317 1318 1318 1319 1320 1323 1324 1327 1336 0 0 0 1702 1702 1709 1709 1709 1709 1709 1707 1702 1699 1695 1692 1686 1679 1672 1667 1664 1662 1657 1652 1649 1646 1643 1640 1636 1633 1629 1624 1622 1619 1616 1612 1609 1606 1604 1602 1599 1597 1596 1593 1591 1589 1588 1587 1585 1582 1580 1578 1576 1572 1570 1568 1566 1564 1562 1560 1558 1556 1555 1553 1550 1548 1547 1545 1543 1542 1540 1538 1537 1536 1534 1533 1532 1530 1529 1529 1528 1526 1525 1524 1523 1522 1521 1520 1519 1519 1518 1517 1517 1516 1515 1515 1514 1514 1513 1512 1512 1511 1511 1510 1510 1509 1509 1509 1509 1509 1508 1507 1507 1506 1506 1504 1503 1502 1502 1502 1502 1502 1502 1502 1502 1502 1502 1502 1502 1502 1502 1502 1502 1502 1502 1502 1502 1502 1502 1502 1502 1502 1502 1502 1502 1503 1503 1503 1503 1503 1504 1504 1505 1505 1505 1505 1505 1505 1505 1506 1507 1507 1507 1507 1508 1508 1509 1509 1510 1510 1510 1511 1512 1513 1513 1514 1515 1516 1517 1518 1518 1519 1519 1519 1520 1520 1520 1520 1520 1520 1521 1521 1521 1521 1522 1523 1523 1523 1523 1523 1523 1523 1523 1523 1523 1523 1523 1523 1522 1520 1520 1520 1519 1519 1519 1519 1518 1518 1517 1516 1516 1516 1516 1514 1513 1511 1509 1507 1505 1503 1501 1500 1499 1499 1499 1500 1500 1502 1507 1507 1509 1512 1514
2406 2412 0 0 0 0 0 0 0 2431 2431 2436 2448 2454 2458 2461 2463 2473 2482 2497 2499 2502 2503 2506 2518 2528 2543 2557 2560 2562 2562 2562 2557 2556 2556 2549 2546 2545 2545 2545 2546 2550 2550 2550 2546 2544 2543 2543 2543 2543 2543 2543 2542 2538 2538 2538 2538 2539 2539 2540 2541 2545 2547 2550 2550 2550 2549 2544 2539 2537 2537 2537 2537 2538 2538 2539 2538 2538 2538 2538 2536 2536 2536 2538 2538 2538 2538 2537 2533 2529 2525 2519 2514 2509 2508 2508 2508 2508 2508 2505 2501 2497 2493 2487 2483 2480 2477 2476 2473 2466 2456 2446 2437 2428 2419 2414 2409 2400 2399 2385 2377 2366 2356 2339 2312 0 0 0 0 0 0 0 1017 1007 999 999 999 996 995 995 995 995 995 996 996 997 998 999 1000 1001 1002 1004 1005 1006 1007 1008 1009 1010 1011 1011 1013 1013 1014 1015 1016 1017 1018 1020 1021 1023 1023 1025 1026 1027 1028 1029 1030 1031 1032 1034 1034 1036 1037 1038 1039 1039 1041 1041 1043 1043 1043 1044 1044 1044 1045 1045 1045 1046 1046 1046 1046 1046 1046 1046 1048 1049 1050 1051 1052 1053 1053 1054 1054 1056 1059 1061 1064 1065 1068 1070 1073 1074 1076 1079 1080 1083 1086 1089 1090 1092 1094 1096 1099 1100 1101 1102 1104 1105 1107 1109 1110 1111 1113 1114 1115 1116 1118 1119 1120 1122 1123 1123 1124 1126 1126 1127 1128 1128 1129 1129 1130 1131 1132 1132 1133 1134 1135 1136 1138 1139 1140 1141 1142 1144 1146 1147 1150 1153 1157 1159 1162 1163 1164 1166 1169 1173 1175 1177 1179 1181 1183 1185 1187 1189 1191 1192 1194 1195 1197 1198 1200 1201 1202 1204 1205 1206 1207 1208 1210 1210 1210 1211 1211 1211 1210 1210 1210 1210 1209 1208 1206 1205 1204 1204 1204 1206 1207 1210 1211 1213 1217 1220 1225 1229 1233 1237 1242 1246 1250 1255 1259 1261 1264 1267 1270 1272 1275 1276 1279 1280 1282 1284 1286 1287 1289 1291 1292 1295 1297 1299 1300 1303 1304 1306 1308 1309 1311 1312 1314 1316 1317 1318 1318 1319 1320 1321 1322 1326 1343 0 0 0 1702 1702 1710 1710 1709 1709 1709 1707 1702 1699 1695 1690 1683 1677 1670 1664 1662 1661 1657 1652 1648 1645 1640 1637 1633 1630 1626 1623 1621 1618 1614 1611 1608 1605 1602 1600 1598 1597 1595 1593 1591 1589 1588 1586 1583 1581 1579 1577 1574 1572 1569 1567 1564 1563 1561 1560 1558 1556 1554 1552 1550 1548 1547 1545 1543 1541 1540 1538 1536 1535 1534 1533 1532 1530 1529 1528 1528 1526 1525 1524 1523 1522 1521 1520 1519 1518 1518 1517 1516 1516 1515 1515 1514 1513 1513 1512 1511 1510 1510 1510 1509 1509 1508 1508 1508 1507 1507 1506 1506 1505 1505 1503 1502 1502 1501 1501 1501 1501 1501 1501 1501 1501 1502 1501 1502 1502 1502 1501 1501 1501 1501 1502 1502 1502 1502 1502 1502 1502 1502 1502 1502 1503 1503 1503 1503 1503 1503 1504 1504 1504 1504 1505 1505 1505 1505 1506 1507 1507 1507 1507 1508 1508 1509 1510 1510 1511 1511 1512 1512 1513 1514 1515 1516 1517 1517 1518 1519 1520 1520 1521 1521 1521 1521 1521 1521 1521 1522 1522 1522 1523 1523 1523 1523 1523 1523 1523 1523 1523 1523 1523 1523 1523 1523 1523 1522 1520 1520 1520 1520 1520 1519 1519 1519 1518 1517 1516 1516 1516 1516 1515 1513 1511 1510 1507 1506 1503 1501 1500 1500 1500 1500 1500 1500 1502 1507 1507 1507 1508 1510
2337 2339 2344 2347 2359 2359 2359 2361 2362 2381 2399 2426 2443 2453 2456 2456 2456 2457 2457 2460 2467 2470 2485 2488 2493 2505 2520 2529 2535 2543 2546 2546 2546 2537 2535 2532 2531 2530 2530 2528 2528 2528 2531 2538 2538 2538 2531 2531 2531 2531 2531 2529 2526 2526 2526 2527 2530 2530 2531 2531 2534 2537 2543 2543 2543 2542 2542 2540 2534 2532 2531 2531 2531 2533 2533 2533 2531 2530 2530 2529 2529 2529 2530 2531 2533 2533 2533 2533 2528 2524 2519 2515 2510 2507 2504 2503 2503 2502 2502 2500 2496 2491 2486 2482 2477 2475 2473 2471 2466 2461 2451 2442 2436 2427 2417 2411 2407 2398 2386 2384 2377 2365 2353 2334 2305 0 0 0 0 0 0 0 1012 1007 999 999 999 995 995 995 995 995 995 996 997 997 998 1000 1000 1002 1003 1004 1005 1006 1007 1008 1010 1010 1011 1012 1013 1014 1015 1016 1017 1018 1019 1020 1022 1023 1024 1025 1026 1027 1029 1029 1030 1031 1033 1034 1034 1036 1037 1038 1039 1040 1041 1042 1043 1043 1044 1044 1044 1045 1045 1045 1045 1045 1045 1045 1045 1045 1045 1046 1047 1048 1049 1051 1051 1052 1052 1053 1054 1056 1058 1061 1063 1065 1068 1070 1073 1075 1078 1079 1081 1083 1086 1089 1090 1093 1095 1097 1099 1100 1102 1103 1105 1106 1108 1109 1110 1112 1113 1114 1116 1116 1118 1120 1121 1122 1123 1124 1125 1126 1127 1127 1128 1128 1129 1130 1130 1131 1132 1132 1132 1134 1135 1136 1138 1139 1140 1141 1142 1144 1146 1149 1151 1156 1158 1161 1163 1163 1164 1166 1169 1173 1175 1177 1179 1181 1183 1185 1187 1190 1191 1192 1194 1195 1197 1199 1200 1202 1203 1204 1205 1206 1207 1208 1210 1210 1210 1210 1210 1210 1210 1210 1210 1209 1209 1207 1206 1205 1204 1204 1204 1206 1207 1210 1211 1213 1217 1220 1225 1228 1233 1237 1242 1246 1250 1255 1259 1261 1264 1268 1271 1274 1275 1277 1280 1281 1283 1285 1286 1288 1289 1291 1293 1295 1297 1299 1300 1302 1304 1306 1307 1309 1311 1312 1314 1316 1317 1318 1318 1319 1319 1321 1321 1326 0 0 0 0 1702 1702 1711 1711 1710 1710 1710 1707 1702 1699 1695 1688 1680 1673 1669 1664 1659 1658 1655 1652 1648 1644 1640 1636 1632 1629 1626 1623 1621 1616 1613 1611 1608 1605 1602 1600 1598 1596 1594 1591 1590 1588 1586 1585 1583 1580 1578 1575 1572 1569 1567 1566 1564 1562 1561 1559 1558 1556 1554 1552 1550 1547 1546 1545 1543 1541 1539 1538 1536 1535 1534 1533 1531 1530 1529 1528 1527 1525 1524 1523 1522 1521 1521 1520 1519 1518 1518 1517 1516 1515 1515 1514 1514 1513 1511 1511 1510 1510 1509 1509 1508 1508 1508 1507 1507 1507 1506 1506 1505 1504 1504 1503 1502 1501 1501 1500 1500 1500 1501 1501 1501 1501 1501 1501 1501 1501 1501 1501 1501 1501 1501 1501 1502 1502 1501 1502 1502 1502 1502 1502 1502 1502 1503 1503 1503 1503 1503 1503 1504 1504 1504 1505 1505 1505 1506 1506 1507 1507 1507 1507 1508 1509 1509 1510 1510 1511 1511 1512 1512 1513 1514 1515 1516 1517 1518 1519 1520 1520 1521 1521 1521 1522 1522 1522 1522 1522 1522 1523 1524 1524 1524 1524 1524 1523 1523 1523 1523 1523 1523 1523 1523 1523 1523 1523 1522 1521 1520 1520 1520 1520 1519 1519 1519 1519 1518 1517 1516 1516 1516 1515 1513 1512 1510 1507 1506 1503 1501 1500 1500 1500 1500 1500 1501 1503 1506 1506 1506 1506 1506
2331 2339 2344 2347 2359 2359 2359 2361 2362 2381 2399 2420 2423 2433 2443 2443 2446 2446 2446 2451 2455 2458 2462 2464 2478 2483 2494 2499 2506 2516 2516 2517 2521 2520 2521 2522 2523 2523 2523 2522 2520 2519 2519 2520 2522 2522 2522 2511 2509 2509 2509 2509 2515 2516 2520 2520 2524 2527 2527 2528 2529 2531 2536 2536 2536 2535 2534 2533 2531 2527 2527 2525 2525 2525 2525 2525 2525 2523 2521 2521 2521 2521 2523 2525 2525 2525 2525 2524 2523 2520 2516 2512 2508 2505 2501 2498 2498 2497 2497 2497 2493 2487 2483 2477 2472 2467 2466 2464 2461 2455 2445 2437 2431 2425 2416 2408 2404 2396 2383 2383 2376 2365 2345 2325 2298 0 0 0 0 0 0 0 1008 1005 999 999 999 995 995 995 995 995 996 996 997 997 999 1000 1001 1002 1003 1004 1005 1006 1008 1008 1010 1011 1012 1012 1013 1014 1015 1016 1018 1018 1020 1021 1022 1023 1024 1026 1026 1028 1029 1030 1031 1032 1033 1034 1035 1036 1037 1038 1040 1040 1041 1042 1043 1043 1044 1044 1044 1045 1045 1045 1045 1045 1045 1045 1045 1045 1045 1046 1047 1048 1049 1050 1051 1052 1052 1053 1054 1056 1058 1060 1061 1065 1067 1070 1073 1075 1078 1079 1081 1083 1086 1089 1090 1093 1095 1097 1099 1100 1102 1104 1105 1106 1108 1109 1111 1112 1113 1114 1116 1117 1119 1121 1121 1122 1123 1124 1125 1126 1127 1127 1128 1128 1129 1129 1130 1131 1132 1132 1132 1134 1135 1136 1138 1139 1140 1141 1143 1144 1146 1150 1153 1157 1160 1162 1164 1164 1165 1167 1171 1173 1175 1177 1179 1181 1183 1186 1188 1190 1191 1193 1194 1196 1198 1199 1200 1202 1203 1204 1205 1206 1208 1208 1210 1210 1210 1210 1210 1210 1209 1209 1209 1209 1209 1207 1206 1205 1204 1204 1204 1206 1208 1210 1211 1213 1217 1221 1224 1228 1233 1240 1243 1246 1250 1255 1259 1261 1265 1269 1271 1274 1276 1278 1280 1282 1283 1285 1287 1289 1290 1291 1294 1295 1298 1299 1300 1302 1304 1305 1307 1309 1311 1312 1314 1316 1318 1318 1319 1319 1320 1320 1321 1326 0 0 0 1687 1697 1697 1699 1699 1710 1710 1710 1707 1704 1699 1694 1688 1679 1673 1669 1663 1659 1656 1654 1652 1647 1643 1638 1634 1632 1628 1625 1620 1616 1613 1612 1609 1607 1604 1601 1599 1598 1596 1594 1591 1589 1587 1585 1583 1581 1580 1576 1573 1571 1569 1566 1564 1563 1562 1560 1558 1557 1555 1554 1551 1549 1547 1545 1544 1542 1541 1539 1537 1536 1534 1533 1532 1531 1529 1528 1527 1526 1525 1524 1523 1522 1521 1520 1519 1518 1518 1517 1516 1515 1515 1514 1513 1513 1511 1511 1511 1510 1509 1508 1508 1507 1507 1506 1506 1506 1505 1505 1505 1504 1504 1503 1502 1501 1501 1501 1500 1500 1500 1500 1500 1500 1500 1500 1500 1500 1500 1500 1501 1501 1501 1501 1501 1501 1501 1501 1501 1501 1502 1502 1502 1502 1502 1503 1503 1503 1503 1503 1503 1503 1503 1504 1504 1505 1505 1506 1506 1507 1507 1507 1507 1508 1509 1509 1510 1510 1511 1511 1512 1512 1513 1514 1515 1516 1518 1519 1520 1520 1521 1521 1522 1522 1522 1522 1522 1522 1522 1523 1523 1524 1524 1524 1524 1524 1524 1524 1524 1524 1524 1524 1524 1524 1524 1523 1523 1522 1521 1520 1520 1520 1520 1519 1519 1519 1519 1518 1517 1516 1516 1515 1514 1513 1512 1510 1509 1506 1503 1501 1500 1500 1500 1500 1500 1501 1501 1501 1501 1498 1498 1498
2329 2329 2336 2347 2359 2359 2359 2361 2362 2381 2399 2420 2423 2433 2443 2443 2446 2446 2446 2450 2451 2452 2458 2464 2472 2477 2478 2479 2482 2488 2490 2490 2491 2491 2497 2508 2516 2516 2516 2516 2514 2511 2501 2501 2501 2501 2504 2504 2504 2499 2499 2499 2504 2510 2515 2519 2521 2522 2523 2523 2524 2524 2524 2524 2524 2523 2522 2521 2521 2521 2521 2518 2518 2518 2518 2518 2518 2517 2514 2514 2514 2515 2517 2517 2517 2517 2517 2517 2517 2516 2513 2510 2506 2502 2496 2494 2494 2494 2493 2493 2492 2486 2479 2473 2467 2464 2461 2460 2458 2452 2442 2433 2427 2423 2415 2407 2400 2391 2382 2382 2376 2361 2345 2317 2292 0 0 0 0 0 0 0 1008 1001 997 997 997 996 995 995 995 996 996 997 998 998 999 1000 1001 1002 1003 1005 1006 1007 1008 1008 1010 1011 1012 1013 1014 1015 1016 1017 1018 1019 1020 1021 1022 1023 1025 1026 1026 1028 1029 1030 1031 1032 1033 1035 1035 1036 1038 1038 1040 1040 1041 1042 1043 1043 1044 1044 1045 1045 1045 1045 1045 1045 1045 1045 1045 1045 1045 1046 1047 1048 1049 1050 1050 1052 1052 1053 1054 1056 1057 1058 1059 1063 1067 1070 1073 1075 1078 1079 1081 1083 1086 1089 1090 1093 1095 1097 1099 1101 1102 1104 1105 1107 1108 1110 1112 1112 1114 1115 1116 1118 1119 1121 1122 1123 1124 1124 1125 1126 1127 1127 1128 1128 1129 1129 1130 1131 1131 1132 1132 1133 1134 1136 1138 1139 1140 1141 1143 1144 1146 1150 1153 1157 1160 1162 1164 1164 1165 1167 1171 1173 1175 1177 1179 1181 1184 1186 1188 1190 1191 1193 1194 1196 1198 1199 1201 1202 1203 1204 1205 1207 1208 1209 1210 1210 1210 1210 1210 1210 1209 1209 1208 1208 1207 1207 1206 1206 1205 1205 1205 1206 1209 1211 1212 1213 1217 1221 1224 1226 1233 1240 1243 1246 1250 1255 1261 1262 1265 1270 1272 1275 1277 1279 1281 1283 1284 1286 1287 1289 1290 1292 1295 1296 1298 1300 1301 1302 1304 1305 1307 1309 1311 1312 1314 1316 1318 1319 1319 1319 1320 1320 1321 1326 0 0 0 1687 1695 1701 1705 1705 1712 1712 1712 1708 1705 1699 1693 1686 1678 1673 1669 1662 1658 1655 1653 1649 1646 1640 1635 1633 1630 1627 1624 1619 1616 1613 1610 1608 1605 1603 1601 1599 1597 1595 1593 1591 1588 1586 1584 1582 1580 1578 1575 1572 1571 1568 1566 1564 1562 1561 1559 1558 1556 1555 1553 1551 1549 1547 1545 1543 1541 1540 1538 1537 1536 1534 1533 1532 1530 1529 1527 1527 1525 1525 1523 1522 1521 1521 1520 1519 1518 1517 1517 1516 1515 1514 1513 1513 1512 1511 1510 1509 1509 1508 1508 1508 1507 1507 1506 1506 1505 1505 1504 1504 1503 1503 1503 1502 1501 1501 1500 1500 1500 1500 1500 1500 1500 1500 1500 1500 1500 1500 1500 1500 1500 1501 1501 1501 1501 1501 1501 1501 1501 1501 1501 1502 1502 1502 1502 1502 1502 1502 1503 1503 1503 1503 1503 1504 1504 1505 1506 1506 1506 1507 1507 1507 1508 1509 1509 1510 1510 1511 1511 1512 1513 1513 1514 1515 1516 1518 1519 1520 1522 1522 1522 1522 1522 1522 1522 1522 1522 1522 1523 1523 1524 1524 1524 1524 1524 1524 1524 1524 1524 1524 1524 1524 1524 1524 1523 1523 1522 1521 1520 1520 1520 1519 1519 1519 1519 1518 1518 1517 1516 1516 1515 1514 1513 1512 1510 1509 1508 1504 1502 1500 1499 1499 1499 1500 1501 1501 1501 1499 1496 1496 1496
2329 2334 2340 2347 2367 2373 2373 2377 2381 2394 2408 2420 2423 2433 2443 2443 2446 2446 2446 2450 2451 2452 2458 2464 2472 2472 2472 2469 2469 2469 2474 2474 2474 2475 2480 2492 2502 2504 2504 2504 2498 2497 2485 2485 2485 2483 2483 2485 2483 2483 2485 2488 2494 2501 2508 2513 2514 2517 2517 2517 2517 2513 2512 2512 2512 2511 2508 2508 2508 2508 2508 2509 2509 2509 2512 2512 2512 2511 2508 2508 2508 2508 2509 2509 2509 2510 2511 2511 2511 2511 2508 2506 2504 2500 2494 2489 2489 2489 2489 2489 2487 2483 2476 2469 2463 2461 2459 2458 2454 2448 2439 2432 2426 2422 2414 2403 2395 2389 2378 2373 2373 2359 2343 2317 2291 0 0 0 0 0 0 1011 1008 1001 1001 997 997 996 996 996 996 996 996 997 998 998 999 1001 1001 1002 1003 1005 1006 1007 1008 1009 1010 1011 1012 1013 1014 1015 1016 1017 1018 1020 1020 1021 1023 1024 1025 1026 1028 1029 1029 1030 1031 1033 1033 1035 1036 1037 1038 1039 1040 1041 1041 1042 1043 1043 1044 1044 1045 1045 1045 1045 1045 1045 1045 1044 1044 1044 1045 1046 1047 1048 1049 1050 1050 1052 1052 1053 1054 1056 1057 1058 1059 1062 1067 1070 1072 1074 1077 1078 1081 1083 1086 1088 1090 1093 1095 1097 1099 1101 1102 1104 1106 1107 1108 1110 1112 1113 1114 1116 1117 1119 1120 1121 1122 1123 1124 1125 1126 1126 1127 1128 1128 1129 1129 1130 1130 1131 1131 1132 1132 1133 1134 1136 1137 1139 1141 1143 1143 1144 1146 1150 1153 1157 1160 1162 1163 1164 1165 1167 1171 1173 1175 1178 1179 1181 1184 1186 1188 1190 1192 1193 1195 1196 1198 1200 1201 1202 1203 1204 1206 1207 1208 1209 1210 1210 1210 1210 1210 1210 1209 1209 1208 1208 1207 1206 1206 1206 1206 1206 1206 1209 1211 1213 1213 1214 1217 1221 1224 1226 1233 1240 1244 1250 1250 1255 1262 1264 1268 1271 1274 1276 1277 1280 1282 1283 1285 1287 1288 1289 1291 1293 1295 1297 1298 1300 1301 1303 1304 1306 1308 1309 1311 1313 1314 1316 1318 1320 1320 1320 1320 1321 1321 1331 0 0 0 1687 1691 1701 1710 1710 1715 1715 1715 1709 1705 1699 1692 1685 1677 1672 1668 1662 1657 1653 1651 1648 1643 1638 1635 1632 1629 1627 1623 1619 1616 1613 1610 1607 1605 1602 1599 1597 1596 1594 1592 1590 1587 1585 1583 1581 1579 1577 1573 1572 1570 1567 1565 1563 1561 1559 1558 1557 1555 1554 1552 1550 1548 1546 1544 1543 1541 1539 1538 1536 1535 1533 1532 1531 1530 1528 1527 1526 1525 1524 1523 1522 1521 1520 1519 1518 1518 1517 1516 1516 1515 1514 1513 1512 1511 1510 1509 1509 1508 1508 1508 1506 1506 1506 1505 1505 1504 1504 1504 1503 1503 1502 1502 1501 1500 1500 1500 1500 1500 1500 1500 1500 1500 1500 1500 1500 1500 1499 1499 1500 1500 1500 1500 1500 1500 1500 1501 1501 1501 1501 1501 1502 1502 1502 1502 1502 1502 1502 1502 1503 1503 1503 1503 1503 1504 1505 1506 1506 1506 1507 1507 1507 1508 1508 1509 1510 1510 1511 1511 1512 1513 1513 1514 1515 1517 1518 1519 1520 1522 1522 1522 1522 1522 1522 1522 1522 1522 1523 1523 1523 1524 1524 1524 1524 1524 1524 1524 1524 1524 1524 1524 1524 1524 1524 1523 1523 1521 1520 1520 1520 1519 1519 1518 1518 1518 1518 1518 1517 1516 1515 1513 1513 1512 1512 1510 1509 1508 1505 1502 1500 1499 1499 1499 1501 1502 1502 1502 1497 1495 1495 1495
2331 2339 2344 2355 2368 2392 2395 2399 2406 2429 2450 2458 2460 2461 2463 2475 2475 2475 2460 2458 2458 2458 2462 2464 2477 2477 2477 2469 2469 2469 2468 2468 2465 2465 2465 2474 2489 2491 2491 2491 2485 2474 2473 2473 2473 2473 2473 2474 2474 2474 2479 2479 2483 2490 2498 2503 2506 2508 2508 2508 2507 2503 2501 2501 2501 2500 2500 2501 2502 2502 2502 2501 2501 2501 2504 2505 2505 2505 2504 2502 2502 2502 2502 2504 2504 2507 2507 2507 2507 2504 2503 2502 2500 2497 2490 2485 2482 2482 2481 2481 2480 2477 2472 2465 2462 2461 2457 2453 2448 2442 2435 2430 2426 2422 2414 2402 2393 2385 2375 2369 2368 2358 2339 2315 2281 0 0 0 0 0 0 1011 1009 1001 1001 997 997 997 996 996 996 996 997 997 998 998 999 1001 1001 1003 1004 1005 1006 1007 1008 1009 1010 1011 1012 1013 1014 1015 1016 1018 1019 1020 1021 1022 1023 1024 1026 1026 1028 1029 1030 1031 1032 1033 1034 1035 1036 1037 1038 1039 1040 1041 1041 1042 1043 1043 1044 1044 1045 1045 1045 1044 1044 1044 1044 1044 1044 1044 1045 1046 1047 1048 1049 1050 1050 1052 1052 1053 1054 1056 1057 1058 1059 1062 1067 1070 1072 1074 1077 1078 1081 1083 1086 1088 1090 1093 1095 1097 1099 1101 1103 1104 1106 1107 1109 1111 1112 1114 1115 1116 1118 1119 1120 1122 1123 1124 1125 1126 1126 1127 1127 1128 1129 1129 1129 1130 1130 1131 1131 1132 1132 1133 1134 1135 1137 1139 1141 1143 1143 1144 1147 1149 1152 1155 1158 1160 1163 1163 1164 1167 1169 1172 1175 1178 1179 1182 1184 1186 1188 1190 1192 1193 1195 1197 1198 1200 1201 1202 1203 1205 1206 1207 1208 1209 1210 1210 1210 1210 1210 1210 1209 1209 1209 1207 1207 1206 1206 1206 1206 1206 1208 1210 1212 1213 1213 1214 1217 1221 1224 1226 1233 1238 1243 1250 1250 1256 1262 1267 1270 1273 1274 1277 1278 1280 1282 1283 1286 1287 1288 1290 1291 1293 1295 1297 1298 1300 1301 1303 1304 1306 1308 1309 1311 1313 1314 1316 1318 1321 1321 1321 1322 1323 1323 1335 0 0 0 1690 1697 1707 1712 1712 1715 1715 1715 1709 1705 1697 1692 1685 1677 1672 1667 1662 1657 1653 1650 1646 1643 1638 1635 1632 1629 1626 1623 1619 1616 1613 1610 1607 1604 1601 1599 1597 1595 1593 1591 1589 1587 1584 1582 1581 1579 1575 1573 1571 1568 1566 1564 1563 1560 1559 1557 1555 1554 1553 1551 1549 1547 1545 1544 1542 1540 1538 1536 1536 1534 1533 1532 1530 1529 1528 1527 1526 1524 1523 1522 1521 1521 1520 1519 1518 1517 1516 1516 1515 1515 1513 1512 1511 1510 1509 1509 1509 1508 1507 1507 1506 1505 1505 1505 1504 1504 1503 1503 1503 1502 1502 1501 1501 1500 1500 1500 1500 1500 1499 1499 1499 1499 1499 1499 1499 1499 1499 1499 1499 1499 1499 1499 1500 1500 1500 1500 1501 1501 1501 1501 1501 1501 1501 1502 1502 1502 1502 1502 1503 1503 1503 1503 1503 1504 1505 1506 1506 1506 1507 1507 1508 1508 1509 1509 1510 1510 1510 1511 1512 1513 1514 1515 1515 1517 1518 1519 1520 1522 1522 1522 1522 1522 1522 1522 1522 1522 1523 1523 1523 1524 1524 1524 1524 1524 1524 1524 1524 1524 1524 1524 1524 1524 1523 1522 1522 1521 1520 1519 1519 1519 1518 1518 1518 1518 1518 1517 1517 1516 1514 1512 1512 1510 1510 1509 1509 1508 1506 1503 1500 1499 1499 1499 1501 1501 1501 1501 1497 1495 1495 1495
2343 2344 2345 2364 2402 2421 2428 2433 2442 2458 2472 2472 2473 2480 2480 2483 2489 2489 2497 2492 2492 0 2496 2496 2496 2483 2483 2469 2469 2469 2468 2468 2465 2461 2461 2461 2464 2479 2479 2479 2471 2464 2463 2463 2463 2463 2463 2464 2464 2468 2472 2474 2477 2481 2486 2490 2495 2495 2496 2496 2496 2494 2493 2493 2492 2493 2493 2494 2495 2495 2495 2495 2495 2495 2498 2500 2500 2500 2500 2499 2499 2499 2499 2500 2502 2503 2503 2503 2500 2497 2497 2496 2495 2492 2486 2480 2477 2475 2474 2473 2473 2470 2465 2462 2461 2459 2457 2450 2444 2437 2432 2429 2425 2419 2414 2402 2393 2384 2371 2364 2362 2352 2337 2309 2278 0 0 0 0 0 0 1011 1009 1005 1001 998 998 997 997 996 996 997 997 997 998 999 1000 1001 1002 1003 1004 1005 1006 1007 1008 1010 1011 1012 1012 1013 1015 1016 1017 1018 1019 1020 1021 1023 1024 1025 1026 1027 1028 1029 1030 1031 1032 1033 1034 1035 1036 1037 1038 1039 1040 1041 1041 1042 1043 1043 1044 1044 1044 1044 1044 1044 1044 1044 1044 1044 1044 1044 1045 1046 1047 1048 1050 1051 1051 1053 1054 1055 1056 1057 1058 1058 1059 1062 1067 1070 1072 1074 1077 1078 1081 1084 1087 1088 1090 1093 1095 1098 1100 1101 1103 1104 1106 1108 1109 1111 1112 1114 1115 1116 1118 1119 1121 1122 1123 1124 1125 1126 1126 1127 1128 1128 1129 1129 1129 1130 1130 1131 1131 1132 1132 1133 1134 1135 1137 1139 1141 1143 1143 1144 1146 1149 1150 1152 1155 1158 1160 1162 1164 1167 1169 1171 1175 1178 1179 1182 1184 1186 1188 1190 1192 1193 1195 1197 1198 1200 1201 1202 1204 1205 1206 1207 1208 1209 1210 1210 1211 1211 1210 1210 1210 1209 1208 1207 1207 1207 1206 1206 1207 1208 1209 1211 1212 1213 1214 1215 1217 1221 1224 1227 1233 1238 1243 1250 1252 1256 1262 1267 1271 1273 1275 1277 1279 1280 1283 1284 1286 1287 1288 1290 1291 1293 1295 1297 1299 1300 1302 1303 1304 1306 1308 1309 1312 1313 1315 1316 1319 1321 1321 1322 1322 1323 1327 1337 0 0 0 1699 1699 1712 1712 1712 1715 1715 1715 1709 1703 1697 1692 1686 1678 1672 1667 1661 1657 1653 1649 1646 1642 1638 1635 1632 1629 1626 1623 1619 1617 1613 1610 1607 1604 1601 1598 1597 1594 1593 1590 1588 1586 1583 1581 1579 1578 1575 1573 1569 1567 1564 1563 1560 1559 1557 1556 1555 1553 1552 1551 1549 1546 1545 1543 1541 1539 1538 1536 1535 1533 1532 1531 1529 1528 1527 1526 1525 1524 1523 1522 1521 1520 1519 1518 1517 1516 1516 1515 1515 1514 1513 1511 1511 1510 1509 1508 1508 1508 1506 1506 1506 1505 1504 1504 1504 1503 1503 1503 1501 1501 1501 1501 1501 1500 1500 1500 1499 1499 1499 1499 1499 1499 1499 1499 1499 1499 1499 1499 1499 1499 1499 1499 1499 1499 1499 1500 1500 1500 1500 1501 1501 1501 1501 1501 1501 1502 1502 1502 1502 1503 1503 1503 1503 1504 1504 1506 1506 1506 1507 1507 1507 1508 1508 1509 1509 1510 1510 1511 1512 1513 1514 1515 1516 1517 1518 1519 1520 1521 1522 1522 1522 1522 1522 1522 1522 1522 1523 1523 1523 1524 1524 1524 1524 1524 1524 1524 1524 1524 1524 1524 1524 1523 1522 1522 1521 1521 1520 1519 1519 1519 1518 1518 1518 1517 1516 1516 1516 1514 1514 1512 1511 1510 1509 1508 1508 1508 1506 1503 1500 1499 1499 1499 1501 1501 1501 1500 1497 1495 1495 1495
2336 2343 2353 2386 2418 2452 2469 2473 2479 2487 2491 2492 2492 2494 2502 2519 2534 2542 2543 2569 2581 2581 2581 2563 2539 2537 2527 2527 2495 2487 2471 2470 2465 2461 2461 2461 2462 2464 2464 2462 2458 2450 2450 2450 2451 2451 2451 2451 2451 2455 2463 2464 2468 2474 2478 2483 2485 2485 2487 2488 2488 2488 2485 2484 2484 2484 2484 2486 2487 2487 2487 2487 2487 2489 2493 2493 2498 2499 2499 2499 2497 2497 2497 2498 2499 2499 2499 2497 2493 2491 2491 2491 2489 2487 2483 2478 2473 2471 2470 2469 2467 2464 2462 2460 2459 2457 2453 2446 2441 2435 2432 2429 2423 2416 2409 2399 2391 2378 2363 2353 2353 2337 2321 2294 2266 0 0 0 0 0 0 1011 1010 1005 999 999 999 997 997 997 997 997 997 998 998 999 1000 1001 1002 1003 1004 1005 1006 1007 1008 1010 1011 1012 1012 1014 1015 1016 1017 1018 1019 1020 1022 1023 1024 1025 1027 1028 1028 1029 1030 1032 1032 1033 1034 1035 1036 1037 1038 1039 1040 1041 1041 1042 1043 1044 1044 1044 1044 1044 1044 1044 1044 1044 1044 1044 1044 1045 1046 1047 1047 1048 1050 1052 1052 1054 1055 1057 1058 1059 1060 1061 1063 1065 1067 1070 1072 1074 1077 1078 1081 1083 1087 1088 1090 1093 1095 1098 1100 1101 1103 1105 1106 1108 1110 1111 1113 1114 1115 1117 1118 1120 1121 1122 1123 1124 1125 1126 1126 1127 1128 1128 1129 1129 1129 1130 1131 1131 1131 1132 1132 1133 1134 1135 1137 1139 1140 1142 1143 1144 1146 1149 1150 1152 1155 1158 1159 1161 1163 1166 1169 1171 1175 1177 1179 1182 1184 1186 1188 1190 1192 1193 1195 1197 1199 1200 1201 1202 1204 1205 1206 1207 1209 1209 1210 1211 1211 1211 1211 1211 1210 1209 1209 1207 1207 1207 1208 1208 1209 1209 1211 1211 1212 1214 1214 1215 1217 1221 1224 1229 1233 1238 1244 1250 1252 1258 1265 1268 1271 1273 1276 1277 1279 1281 1283 1285 1286 1288 1288 1290 1292 1293 1296 1297 1299 1300 1302 1303 1304 1306 1308 1310 1312 1313 1315 1316 1319 1320 1321 1322 1323 1323 1327 1337 0 0 1699 1699 1701 1713 1713 1713 1713 1713 1710 1706 1702 1697 1692 1686 1678 1672 1667 1661 1657 1652 1649 1645 1641 1638 1635 1632 1629 1626 1623 1619 1617 1613 1610 1607 1604 1601 1598 1596 1594 1592 1590 1587 1585 1582 1581 1579 1576 1573 1571 1568 1566 1564 1562 1560 1559 1557 1556 1553 1552 1551 1550 1549 1546 1543 1542 1539 1539 1537 1535 1535 1533 1532 1530 1529 1528 1526 1526 1524 1523 1522 1522 1520 1519 1518 1517 1517 1516 1515 1514 1514 1513 1512 1510 1510 1510 1509 1508 1507 1506 1505 1505 1504 1504 1504 1504 1503 1502 1502 1501 1501 1501 1500 1499 1499 1499 1499 1499 1499 1499 1499 1499 1499 1498 1498 1498 1498 1498 1498 1498 1498 1499 1499 1499 1499 1499 1499 1499 1499 1500 1500 1500 1500 1500 1501 1501 1501 1501 1502 1502 1502 1503 1503 1503 1503 1504 1504 1506 1506 1506 1507 1507 1508 1508 1508 1509 1509 1509 1510 1511 1512 1513 1514 1514 1515 1517 1518 1519 1519 1520 1522 1522 1522 1522 1522 1522 1522 1522 1523 1523 1523 1523 1524 1524 1524 1524 1524 1524 1524 1524 1524 1524 1524 1523 1522 1521 1521 1520 1520 1519 1519 1519 1518 1517 1517 1517 1516 1516 1515 1514 1513 1512 1511 1510 1509 1508 1508 1507 1506 1505 1502 1500 1500 1500 1499 1500 1500 1498 1498 1495 1495 1495
2336 2343 2353 2386 2418 2452 2472 2507 2513 2532 2542 2546 2554 2557 2568 2603 2618 2621 2621 2621 2604 2602 2600 2597 2544 2544 2544 2544 2544 2539 2534 2524 2491 2464 2464 2464 2462 2464 2464 2462 2443 2433 2433 2433 2433 2434 2434 2435 2436 2440 2443 2451 2456 2466 2475 2476 2476 2478 2478 2481 2481 2481 2477 2474 2473 2473 2473 2473 2477 2479 2479 2479 2479 2482 2484 2489 2494 2497 2497 2497 2496 2496 2496 2496 2496 2496 2494 2492 2489 2488 2487 2487 2485 2482 2480 2476 2472 2469 2467 2465 2464 2461 2459 2457 2455 2454 2448 2442 2438 2434 2431 2428 2421 2408 2399 2391 2381 2367 2351 2340 2325 2324 2303 2279 2256 0 0 0 0 0 0 1011 1011 1005 1000 1000 1000 998 997 997 997 997 997 998 998 999 1000 1001 1002 1004 1005 1006 1007 1008 1009 1010 1011 1012 1013 1014 1015 1016 1017 1018 1019 1021 1022 1024 1025 1026 1027 1028 1029 1030 1031 1032 1033 1034 1034 1035 1036 1037 1038 1039 1040 1041 1041 1042 1043 1044 1044 1044 1044 1044 1044 1044 1044 1044 1044 1044 1044 1045 1046 1047 1047 1049 1051 1052 1053 1055 1057 1058 1059 1059 1061 1062 1063 1065 1067 1070 1072 1074 1076 1079 1081 1083 1087 1088 1090 1093 1096 1098 1100 1102 1103 1105 1107 1108 1110 1112 1113 1114 1115 1117 1119 1120 1121 1122 1123 1125 1126 1126 1127 1127 1128 1128 1129 1129 1129 1130 1131 1131 1131 1132 1132 1134 1134 1135 1137 1139 1140 1141 1142 1144 1146 1149 1150 1152 1155 1158 1159 1161 1161 1165 1168 1171 1174 1176 1179 1182 1185 1186 1188 1190 1192 1194 1196 1197 1199 1200 1201 1203 1204 1205 1207 1208 1209 1209 1210 1211 1211 1211 1211 1211 1210 1209 1209 1207 1207 1207 1208 1209 1209 1210 1211 1212 1212 1214 1214 1215 1217 1221 1224 1229 1233 1237 1244 1250 1253 1260 1266 1269 1271 1274 1276 1278 1279 1282 1284 1285 1286 1288 1290 1291 1293 1294 1296 1297 1299 1301 1302 1303 1305 1306 1308 1310 1312 1313 1314 1316 1319 1320 1321 1322 1323 1324 1327 1337 0 0 1704 1704 1704 1710 1710 1712 1712 1712 1708 1705 1702 1697 1692 1687 1679 1673 1667 1662 1657 1653 1648 1644 1641 1638 1635 1632 1629 1626 1623 1619 1617 1613 1610 1606 1604 1600 1597 1595 1593 1592 1589 1587 1585 1581 1580 1578 1576 1573 1570 1567 1565 1563 1562 1560 1558 1556 1554 1553 1552 1550 1548 1547 1544 1542 1541 1539 1538 1536 1535 1533 1532 1530 1529 1528 1526 1526 1524 1524 1523 1522 1521 1519 1518 1517 1517 1516 1515 1515 1513 1513 1512 1512 1510 1509 1508 1507 1506 1506 1505 1504 1504 1504 1503 1503 1503 1502 1502 1502 1501 1500 1500 1500 1499 1499 1499 1499 1498 1498 1498 1498 1498 1498 1498 1498 1498 1498 1498 1498 1498 1498 1498 1498 1499 1499 1499 1499 1499 1499 1499 1499 1499 1500 1500 1500 1500 1500 1501 1501 1502 1502 1502 1503 1503 1503 1504 1504 1506 1507 1507 1507 1507 1507 1508 1508 1509 1509 1509 1510 1511 1511 1513 1514 1514 1515 1516 1517 1518 1519 1520 1522 1522 1522 1522 1522 1522 1522 1522 1523 1523 1523 1523 1524 1524 1524 1524 1524 1524 1524 1524 1524 1524 1524 1523 1522 1521 1520 1520 1519 1519 1518 1518 1517 1517 1516 1516 1516 1515 1515 1514 1513 1512 1511 1510 1510 1508 1508 1507 1507 1507 1504 1501 1499 1499 1499 1499 1499 1498 1498 1498 1498 1498
2307 2336 2353 2386 2418 2452 2472 2507 2513 2532 2542 2559 2575 2595 2626 2656 2661 2661 2661 2645 2618 2618 2612 2606 2600 2588 2571 2563 2563 2562 2560 2560 2543 2524 2486 2479 2478 2468 2466 2462 2443 2430 2428 2426 2426 2426 2426 2426 2427 2426 2427 2427 2431 2438 2462 2462 2464 2469 2469 2469 2469 2469 2467 2464 2463 2463 2463 2464 2468 2471 2471 2472 2474 2476 2482 2486 2487 2490 2492 2492 2492 2492 2493 2493 2493 2492 2490 2488 2487 2487 2485 2485 2483 2479 2476 2474 2470 2468 2465 2463 2461 2460 2458 2455 2452 2449 2443 2437 2434 2431 2429 2425 2418 2405 2393 2382 2371 2359 2342 2333 2313 2312 2290 2267 2243 0 0 0 0 0 0 1011 1010 1005 1000 1000 1000 999 998 997 997 997 997 998 999 999 1000 1002 1002 1004 1005 1006 1007 1008 1009 1010 1011 1012 1013 1014 1015 1016 1017 1019 1021 1022 1023 1024 1025 1026 1028 1028 1029 1030 1031 1032 1033 1034 1035 1036 1036 1038 1039 1039 1041 1041 1042 1043 1043 1044 1044 1044 1044 1044 1044 1044 1044 1044 1044 1044 1044 1046 1046 1047 1048 1049 1051 1052 1053 1056 1058 1059 1059 1059 1061 1063 1064 1065 1068 1070 1072 1074 1076 1079 1081 1083 1087 1089 1090 1094 1096 1099 1100 1102 1103 1105 1107 1108 1110 1112 1113 1114 1116 1117 1119 1120 1122 1123 1124 1125 1126 1126 1127 1128 1128 1128 1129 1129 1129 1130 1131 1131 1131 1132 1132 1134 1135 1136 1137 1139 1140 1141 1142 1144 1146 1149 1150 1153 1155 1158 1159 1161 1161 1165 1168 1170 1174 1176 1179 1182 1185 1187 1189 1191 1192 1194 1196 1197 1199 1200 1201 1203 1204 1205 1207 1208 1209 1210 1211 1211 1212 1212 1212 1212 1210 1209 1209 1208 1208 1208 1209 1210 1210 1211 1212 1214 1214 1215 1215 1216 1217 1221 1225 1229 1233 1237 1244 1250 1254 1260 1266 1269 1271 1274 1276 1278 1279 1282 1284 1285 1287 1288 1290 1291 1293 1294 1296 1298 1299 1301 1302 1304 1305 1306 1308 1310 1312 1313 1315 1316 1319 1321 1321 1323 1324 1324 1327 1343 0 0 1705 1705 1705 1705 1705 1712 1712 1712 1708 1705 1702 1696 1692 1687 1680 1673 1667 1662 1657 1653 1648 1644 1640 1638 1635 1632 1629 1626 1623 1619 1616 1612 1609 1606 1604 1600 1597 1595 1592 1590 1589 1586 1584 1581 1578 1576 1574 1571 1568 1566 1564 1562 1561 1559 1557 1555 1554 1552 1551 1549 1548 1546 1544 1542 1540 1539 1536 1536 1533 1532 1531 1530 1528 1527 1526 1524 1524 1523 1522 1521 1519 1519 1517 1517 1516 1515 1515 1513 1512 1511 1511 1510 1510 1509 1507 1507 1506 1505 1505 1504 1503 1503 1503 1502 1502 1502 1501 1501 1501 1500 1499 1499 1499 1499 1498 1498 1498 1498 1497 1497 1497 1497 1497 1497 1497 1497 1497 1497 1497 1497 1498 1498 1498 1498 1498 1498 1498 1498 1498 1498 1499 1499 1499 1499 1500 1500 1501 1501 1501 1501 1502 1503 1503 1503 1504 1506 1507 1507 1507 1507 1507 1507 1508 1508 1508 1509 1509 1510 1511 1511 1513 1513 1514 1515 1516 1517 1518 1519 1519 1520 1521 1521 1521 1522 1522 1522 1522 1522 1522 1523 1523 1523 1524 1524 1524 1524 1524 1524 1524 1524 1524 1524 1522 1521 1521 1519 1519 1519 1518 1518 1517 1517 1517 1516 1515 1515 1515 1515 1514 1513 1512 1511 1510 1510 1509 1508 1507 1507 1507 1504 1501 1499 1499 1499 1499 1499 1499 1499 1499 1500 1501
2307 2333 2336 2371 2406 2444 2472 2507 2513 2532 2542 2559 2575 2595 2626 2656 2662 2664 2665 2665 2668 2668 2670 2670 2668 2667 2641 2594 2577 2572 2571 2563 2558 2554 2539 2526 2483 2478 2474 2472 2443 2430 2428 2426 2425 2423 2419 2418 2418 2418 2418 2418 2423 2432 2446 2453 2453 2454 2457 2454 2454 2454 2456 2456 2457 2457 2459 2459 2465 2468 2468 2469 2470 2473 2478 2481 2482 2484 2486 2487 2488 2488 2489 2489 2489 2488 2486 2485 2485 2485 2484 2483 2480 2478 2474 2471 2468 2465 2463 2461 2460 2460 2458 2454 2449 2445 2439 2434 2428 2425 2422 2419 2412 2403 2391 2378 2367 2352 2342 2329 2311 2309 2290 2265 2236 0 0 0 0 0 0 1011 1010 1005 1000 1000 1000 999 998 997 997 997 998 998 999 999 1000 1002 1002 1004 1005 1006 1007 1009 1010 1010 1011 1013 1013 1014 1016 1017 1018 1019 1021 1022 1023 1025 1026 1026 1028 1029 1030 1030 1031 1032 1033 1034 1035 1036 1036 1038 1039 1040 1041 1041 1042 1043 1044 1044 1044 1044 1044 1044 1044 1044 1044 1045 1045 1045 1046 1047 1047 1048 1048 1050 1051 1052 1055 1057 1059 1059 1060 1060 1061 1063 1065 1065 1068 1070 1072 1074 1076 1079 1081 1083 1087 1089 1091 1094 1097 1099 1100 1102 1103 1105 1107 1108 1110 1112 1113 1114 1116 1117 1119 1120 1122 1123 1124 1125 1126 1127 1128 1128 1128 1128 1129 1129 1129 1129 1131 1131 1131 1132 1133 1134 1136 1137 1139 1139 1140 1141 1142 1144 1146 1149 1151 1153 1156 1158 1159 1159 1160 1165 1168 1170 1174 1176 1180 1182 1185 1187 1189 1191 1193 1194 1196 1198 1199 1201 1202 1204 1205 1206 1207 1208 1209 1210 1211 1211 1212 1212 1212 1212 1212 1210 1210 1210 1210 1210 1210 1210 1211 1211 1212 1215 1216 1217 1217 1218 1219 1222 1225 1230 1233 1237 1244 1250 1254 1260 1266 1269 1272 1274 1276 1278 1280 1282 1284 1285 1287 1288 1290 1291 1293 1294 1296 1298 1299 1301 1302 1304 1305 1307 1309 1310 1312 1314 1315 1317 1321 1322 1322 1323 1324 1324 1327 1344 0 0 1702 1702 1706 1706 1706 1713 1713 1713 1708 1705 1701 1696 1692 1686 1680 1674 1667 1661 1657 1653 1648 1643 1640 1637 1635 1632 1629 1626 1622 1619 1615 1612 1609 1606 1604 1600 1597 1595 1592 1589 1588 1585 1583 1580 1577 1575 1573 1570 1568 1565 1563 1561 1559 1558 1556 1555 1553 1552 1550 1548 1547 1545 1543 1542 1540 1538 1536 1535 1533 1532 1530 1529 1527 1525 1525 1524 1523 1522 1521 1519 1519 1517 1517 1515 1515 1514 1514 1512 1512 1511 1510 1509 1509 1508 1507 1506 1505 1504 1504 1503 1503 1502 1502 1502 1502 1501 1501 1500 1500 1499 1499 1499 1498 1498 1498 1498 1497 1497 1497 1497 1497 1497 1497 1497 1496 1497 1497 1497 1497 1497 1497 1498 1498 1498 1498 1498 1498 1498 1498 1498 1498 1498 1499 1499 1499 1500 1501 1501 1501 1501 1502 1503 1504 1504 1506 1506 1507 1507 1507 1507 1507 1507 1508 1508 1508 1509 1509 1510 1511 1511 1512 1513 1514 1516 1516 1517 1518 1518 1519 1520 1521 1521 1521 1521 1521 1522 1522 1522 1522 1523 1523 1523 1523 1523 1523 1524 1524 1524 1524 1524 1524 1523 1522 1521 1520 1519 1518 1518 1518 1517 1517 1517 1516 1516 1515 1515 1515 1515 1514 1513 1512 1511 1511 1510 1510 1509 1509 1509 1507 1504 1502 1500 1499 1499 1499 1499 1499 1499 1499 1504 1504
2307 2333 2336 2371 2406 2406 2471 2472 2475 2513 2538 2559 2575 2595 2626 2656 2662 2664 2665 2665 2668 2668 2670 2670 2670 2670 2670 2661 2649 2639 2604 2572 2570 2560 2549 2532 2519 2512 2474 2473 2472 2444 2428 2425 2423 2421 2416 2413 2409 2407 2407 2407 2411 2420 2424 2425 2430 2441 2441 2442 2446 2447 2447 2452 2455 2456 2456 2458 2465 2468 2468 2468 2468 2472 2474 2475 2476 2478 2481 2482 2483 2484 2485 2485 2485 2485 2484 2484 2482 2481 2480 2480 2479 2476 2472 2468 2465 2461 2460 2459 2457 2456 2454 2450 2446 2443 2437 2431 2425 2420 2416 2410 2404 2397 2390 2378 2367 2351 2338 2326 2310 2292 2289 2265 2236 0 0 0 0 0 0 1011 1010 1005 1001 1001 1000 999 998 998 998 998 998 998 999 999 1001 1002 1003 1004 1005 1006 1008 1009 1010 1011 1012 1013 1014 1015 1016 1018 1019 1020 1021 1022 1023 1025 1026 1027 1029 1029 1030 1031 1032 1032 1034 1034 1035 1036 1037 1038 1039 1040 1041 1042 1042 1043 1044 1044 1045 1045 1045 1045 1045 1045 1045 1045 1045 1045 1047 1048 1048 1049 1050 1051 1053 1055 1056 1057 1059 1060 1060 1061 1063 1065 1066 1066 1068 1070 1072 1074 1076 1078 1081 1083 1087 1089 1091 1094 1097 1099 1100 1102 1104 1106 1107 1109 1110 1112 1113 1115 1116 1118 1119 1121 1122 1123 1125 1125 1126 1127 1128 1128 1128 1129 1129 1129 1129 1129 1130 1131 1131 1132 1133 1134 1136 1137 1139 1139 1139 1140 1142 1144 1146 1149 1152 1155 1157 1158 1159 1159 1160 1165 1168 1170 1174 1176 1180 1182 1185 1187 1189 1191 1193 1194 1196 1198 1200 1201 1202 1204 1205 1206 1207 1209 1210 1211 1211 1211 1212 1213 1213 1213 1213 1211 1211 1211 1211 1211 1211 1211 1212 1212 1214 1217 1218 1218 1219 1220 1222 1226 1229 1231 1233 1237 1244 1250 1254 1260 1266 1269 1271 1274 1276 1278 1280 1281 1284 1285 1287 1288 1290 1291 1293 1294 1296 1298 1299 1301 1302 1304 1305 1307 1309 1310 1312 1314 1315 1317 1321 1323 1324 1324 1324 1325 1334 0 0 0 1702 1702 1706 1706 1706 1713 1713 1713 1708 1704 1700 1695 1690 1686 1680 1674 1665 1660 1656 1653 1648 1643 1640 1637 1634 1632 1628 1624 1621 1617 1614 1612 1609 1606 1604 1600 1598 1595 1592 1589 1587 1584 1581 1579 1577 1575 1572 1569 1568 1564 1562 1561 1558 1557 1556 1554 1552 1550 1549 1547 1545 1544 1542 1541 1539 1537 1536 1534 1532 1531 1530 1528 1526 1524 1523 1522 1521 1520 1519 1518 1517 1516 1516 1515 1514 1513 1512 1512 1511 1510 1509 1509 1508 1508 1506 1505 1505 1504 1503 1503 1502 1502 1502 1501 1500 1500 1500 1500 1499 1498 1498 1498 1498 1498 1497 1497 1497 1496 1496 1496 1496 1496 1496 1496 1496 1496 1496 1496 1496 1496 1497 1497 1497 1497 1497 1497 1497 1497 1497 1498 1498 1498 1499 1499 1499 1500 1501 1501 1501 1501 1502 1503 1504 1505 1506 1506 1507 1507 1507 1507 1507 1508 1508 1508 1508 1509 1509 1510 1511 1511 1512 1513 1514 1515 1516 1517 1517 1517 1518 1519 1519 1520 1520 1521 1521 1521 1522 1522 1522 1522 1523 1523 1523 1523 1523 1523 1523 1524 1524 1524 1523 1523 1522 1521 1520 1519 1518 1518 1517 1517 1517 1516 1516 1515 1515 1515 1515 1515 1514 1513 1512 1512 1511 1510 1510 1510 1509 1509 1507 1504 1502 1500 1500 1499 1499 1499 1499 1499 1499 1504 1504
2294 2329 2333 2371 2406 2406 2471 2472 2475 2513 2533 2538 2550 2561 2593 2633 2647 2662 2663 2664 2668 2668 2670 2670 2670 2670 2670 2661 2649 2646 2641 2627 2627 2604 2586 2555 2522 2512 2485 2474 2472 2444 2428 2425 2423 2420 2413 2407 2405 2395 2395 2395 2403 2403 2404 2405 2405 2413 2426 2429 2429 2436 2436 2443 2450 2452 2455 2457 2464 2467 2467 2468 2468 2468 2469 2470 2472 2473 2475 2477 2478 2480 2481 2481 2481 2481 2481 2479 2478 2478 2478 2477 2475 2474 2471 2467 2463 2461 2459 2458 2456 2455 2451 2447 2444 2440 2434 2428 2423 2417 2412 2403 2395 2390 2386 2374 2363 2350 2337 2326 2309 2291 2288 2265 2236 0 0 0 0 0 0 1011 1010 1005 1001 1001 999 998 998 998 998 998 998 999 1000 1000 1001 1003 1003 1004 1006 1007 1008 1009 1010 1011 1012 1013 1014 1015 1016 1018 1019 1020 1021 1022 1024 1025 1026 1027 1029 1029 1030 1031 1032 1033 1034 1034 1035 1036 1037 1038 1039 1040 1041 1042 1043 1044 1044 1044 1045 1045 1045 1045 1045 1045 1045 1046 1046 1046 1047 1048 1049 1050 1051 1053 1056 1057 1057 1058 1059 1060 1061 1062 1063 1066 1068 1068 1069 1071 1073 1074 1076 1078 1081 1083 1087 1090 1093 1094 1097 1099 1100 1103 1105 1106 1108 1109 1110 1112 1113 1115 1116 1118 1120 1121 1123 1123 1125 1126 1126 1127 1128 1128 1128 1128 1129 1129 1129 1129 1130 1131 1131 1131 1133 1135 1136 1137 1139 1139 1139 1140 1142 1146 1149 1150 1153 1155 1157 1158 1158 1159 1161 1165 1168 1170 1174 1177 1180 1182 1185 1187 1189 1191 1193 1194 1196 1198 1200 1201 1202 1204 1205 1206 1207 1209 1210 1211 1211 1212 1212 1213 1214 1214 1214 1214 1212 1212 1212 1212 1212 1213 1214 1214 1216 1218 1219 1220 1221 1222 1225 1228 1231 1234 1237 1239 1244 1248 1254 1260 1266 1269 1271 1274 1276 1277 1279 1281 1283 1285 1286 1288 1290 1291 1292 1294 1296 1298 1299 1301 1303 1305 1306 1308 1309 1311 1313 1314 1315 1317 1321 1323 1323 1324 1325 1325 1334 0 0 0 1700 1700 1707 1708 1708 1713 1713 1713 1708 1704 1700 1695 1689 1684 1678 1674 1665 1659 1655 1653 1648 1643 1639 1636 1634 1631 1628 1624 1621 1617 1614 1611 1609 1606 1604 1600 1598 1595 1592 1589 1586 1584 1581 1579 1576 1574 1572 1569 1567 1564 1562 1560 1558 1557 1555 1552 1550 1548 1547 1546 1545 1544 1542 1540 1538 1536 1534 1532 1531 1530 1528 1527 1526 1524 1522 1522 1520 1519 1518 1517 1517 1516 1514 1514 1513 1512 1512 1511 1510 1510 1508 1508 1507 1506 1505 1505 1504 1503 1503 1502 1502 1501 1501 1500 1500 1499 1499 1498 1498 1498 1498 1498 1497 1496 1496 1496 1496 1496 1496 1496 1496 1496 1496 1496 1496 1496 1495 1496 1496 1496 1496 1496 1496 1496 1497 1497 1497 1497 1497 1497 1498 1498 1499 1499 1499 1500 1501 1501 1501 1502 1502 1503 1504 1505 1506 1506 1506 1507 1507 1507 1507 1507 1508 1508 1508 1509 1509 1510 1511 1511 1512 1513 1514 1515 1516 1517 1517 1517 1518 1518 1519 1519 1520 1520 1521 1521 1521 1522 1522 1522 1522 1523 1523 1523 1523 1523 1523 1523 1522 1522 1522 1522 1521 1520 1519 1519 1518 1517 1517 1517 1517 1516 1515 1515 1515 1515 1515 1515 1514 1513 1513 1512 1511 1510 1510 1510 1509 1509 1508 1506 1504 1503 1502 1500 1499 1498 1498 1498 1498 1504 1504
2294 2313 2329 2343 2376 2402 2446 2466 2475 2512 2516 2524 2533 2533 2546 2575 2586 2612 2642 2642 2647 2653 2658 2662 2668 2671 2674 2674 2674 2646 2641 2627 2627 2604 2586 2563 2533 2512 2485 2473 2472 2444 2428 2425 2423 2420 2403 2387 2375 0 0 0 0 2368 2361 2361 2361 2382 2394 2400 2417 2417 2426 2430 2440 2447 2452 2456 2461 2463 2463 2463 2463 2464 2464 2466 2468 2470 2471 2473 2475 2477 2477 2477 2477 2477 2476 2475 2475 2475 2474 2473 2472 2470 2469 2466 2463 2460 2459 2457 2455 2452 2448 2444 2442 2438 2432 2427 2422 2417 2409 2399 2392 2386 2378 2368 2357 2345 2336 2320 2304 2288 2288 2265 2231 0 0 0 0 0 0 1011 1010 1010 1005 1005 999 998 998 998 998 998 999 999 1000 1000 1002 1003 1003 1005 1006 1008 1009 1009 1011 1011 1012 1014 1015 1016 1017 1018 1019 1021 1021 1023 1024 1026 1027 1028 1029 1030 1031 1031 1032 1033 1035 1035 1036 1037 1038 1039 1039 1040 1041 1042 1043 1044 1044 1044 1045 1045 1045 1046 1046 1046 1046 1046 1046 1046 1047 1049 1049 1051 1053 1056 1057 1059 1059 1059 1060 1061 1062 1063 1064 1066 1068 1068 1070 1071 1073 1074 1076 1078 1081 1084 1088 1091 1094 1096 1098 1099 1100 1103 1105 1106 1108 1109 1110 1112 1114 1115 1116 1118 1120 1121 1123 1123 1125 1126 1126 1127 1128 1128 1128 1129 1129 1129 1129 1129 1130 1131 1131 1131 1133 1135 1136 1137 1138 1139 1139 1140 1142 1146 1149 1150 1153 1155 1157 1158 1158 1159 1161 1165 1168 1171 1175 1178 1180 1182 1185 1187 1189 1191 1193 1194 1196 1197 1199 1201 1202 1204 1205 1206 1207 1209 1210 1211 1212 1213 1213 1213 1214 1215 1215 1215 1213 1213 1213 1213 1214 1214 1215 1216 1217 1219 1221 1222 1223 1224 1227 1229 1233 1236 1238 1241 1244 1248 1254 1260 1265 1267 1271 1273 1275 1277 1279 1281 1283 1285 1286 1287 1289 1290 1291 1293 1295 1297 1299 1301 1302 1305 1306 1308 1310 1311 1314 1314 1316 1318 1321 1323 1323 1324 1325 1325 1337 0 0 0 1697 1697 1713 1713 1713 1713 1713 1713 1708 1704 1699 1695 1689 1684 1678 1673 1663 1658 1653 1652 1648 1642 1638 1636 1633 1631 1628 1624 1621 1617 1614 1611 1608 1605 1603 1600 1598 1595 1592 1589 1586 1583 1581 1579 1576 1573 1571 1569 1567 1564 1561 1560 1558 1556 1554 1551 1549 1548 1546 1545 1543 1541 1539 1538 1536 1535 1533 1532 1530 1529 1528 1526 1525 1523 1521 1521 1519 1518 1517 1516 1515 1514 1514 1513 1512 1511 1510 1510 1510 1509 1508 1508 1507 1506 1505 1504 1503 1503 1502 1501 1501 1500 1500 1500 1499 1499 1498 1498 1498 1497 1497 1497 1496 1496 1496 1496 1496 1496 1496 1496 1495 1495 1495 1495 1495 1495 1495 1495 1495 1494 1495 1495 1495 1496 1496 1496 1497 1497 1497 1497 1497 1498 1499 1499 1500 1500 1501 1501 1501 1502 1502 1503 1504 1505 1506 1506 1506 1506 1507 1507 1507 1507 1508 1508 1508 1509 1509 1510 1511 1511 1513 1513 1514 1515 1515 1516 1517 1517 1518 1518 1518 1519 1519 1519 1520 1521 1521 1521 1522 1522 1522 1522 1523 1523 1523 1523 1523 1523 1522 1521 1521 1521 1521 1520 1518 1518 1518 1517 1517 1516 1516 1516 1515 1515 1515 1515 1515 1515 1514 1513 1513 1512 1511 1511 1510 1509 1509 1508 1508 1506 1504 1503 1502 1500 1498 1495 1495 1495 1494 1493 1488
0 0 0 0 2352 2396 2446 2452 2453 2478 2505 2505 2507 2521 2521 2565 2569 2570 2585 2595 2597 2601 2610 2614 2636 2668 2674 2674 2674 2646 2641 2627 2627 2615 2595 2569 2536 2505 2473 2449 2449 2432 2423 2398 2372 2347 0 0 0 0 0 0 0 0 2307 2314 2361 2382 2394 2396 2400 2413 2417 2428 2429 2437 2446 2449 2452 2453 2455 2456 2457 2457 2458 2461 2465 2468 2470 2471 2472 2473 2473 2473 2472 2472 2472 2471 2471 2470 2470 2469 2468 2468 2467 2465 2462 2460 2458 2456 2454 2449 2445 2441 2439 2437 2432 2427 2422 2417 2407 2398 2389 2383 2376 2367 2355 2342 2332 2316 2298 2283 2266 2265 0 0 0 0 0 0 0 1012 1010 1008 1005 1005 999 998 998 998 998 999 999 999 1000 1000 1002 1003 1004 1005 1007 1008 1009 1010 1011 1012 1013 1014 1015 1016 1018 1019 1020 1021 1022 1024 1025 1026 1027 1028 1029 1030 1031 1031 1033 1034 1035 1035 1036 1037 1038 1039 1039 1040 1041 1042 1043 1044 1044 1045 1045 1046 1046 1046 1046 1046 1046 1047 1047 1047 1048 1050 1051 1053 1055 1057 1059 1060 1060 1061 1061 1061 1062 1063 1064 1066 1068 1068 1070 1071 1073 1074 1076 1078 1081 1084 1088 1091 1095 1096 1098 1099 1101 1103 1105 1106 1108 1109 1110 1112 1114 1115 1117 1118 1119 1121 1123 1123 1125 1126 1126 1127 1128 1128 1128 1129 1129 1129 1129 1130 1130 1131 1131 1132 1133 1135 1136 1137 1138 1139 1139 1142 1144 1146 1149 1150 1153 1155 1156 1158 1158 1159 1162 1165 1168 1171 1175 1178 1180 1182 1184 1187 1189 1191 1192 1194 1196 1197 1199 1201 1202 1204 1205 1206 1207 1209 1210 1211 1212 1213 1213 1213 1214 1215 1216 1216 1216 1214 1214 1214 1214 1215 1216 1217 1218 1220 1221 1222 1224 1225 1227 1230 1233 1236 1240 1243 1244 1248 1254 1260 1262 1265 1269 1272 1274 1277 1279 1281 1282 1284 1285 1286 1288 1289 1290 1292 1294 1296 1299 1301 1303 1305 1307 1309 1310 1312 1314 1315 1317 1319 1321 1323 1323 1323 1325 1325 1337 0 0 0 1697 1707 1716 1716 1716 1716 1716 1713 1707 1702 1699 1695 1689 1683 1678 1673 1665 1659 1655 1651 1648 1643 1640 1636 1633 1630 1627 1624 1621 1617 1614 1611 1608 1605 1602 1600 1598 1594 1591 1589 1586 1583 1581 1578 1576 1573 1571 1569 1566 1564 1561 1559 1558 1556 1553 1551 1549 1547 1546 1544 1543 1540 1539 1538 1535 1534 1532 1531 1529 1528 1527 1525 1524 1522 1521 1519 1518 1518 1517 1516 1515 1513 1513 1512 1511 1511 1510 1510 1509 1508 1508 1507 1506 1505 1505 1504 1503 1503 1502 1501 1501 1500 1500 1499 1499 1498 1498 1497 1497 1497 1497 1496 1496 1495 1495 1495 1495 1495 1495 1495 1495 1495 1495 1495 1494 1494 1494 1494 1493 1493 1494 1494 1494 1495 1495 1496 1496 1497 1497 1497 1497 1498 1499 1499 1500 1500 1501 1502 1502 1502 1502 1503 1504 1505 1506 1506 1506 1506 1506 1507 1507 1507 1508 1508 1508 1509 1509 1510 1511 1512 1513 1513 1514 1515 1515 1516 1516 1517 1518 1518 1518 1519 1519 1519 1520 1520 1521 1521 1521 1522 1522 1522 1522 1522 1522 1522 1522 1522 1521 1520 1520 1520 1520 1519 1518 1517 1516 1516 1516 1516 1516 1516 1515 1515 1515 1515 1515 1515 1514 1513 1513 1512 1511 1511 1510 1509 1508 1507 1507 1506 1504 1503 1502 1499 1496 1495 1493 1492 1490 1486 1475
0 0 0 0 0 0 0 0 2446 2465 2476 2495 2500 2500 2521 2536 2562 2563 2563 2567 2579 2583 2584 2607 2609 2638 2647 2647 2647 2599 2599 2599 2595 2595 2595 2569 2536 2505 2473 2433 2433 2411 2395 2340 2336 0 0 0 0 0 0 0 0 0 0 0 0 2364 2390 2390 2390 2394 2411 2411 2424 2428 2436 2439 2441 2441 2446 2449 2450 2451 2452 2457 2465 2467 2469 2469 2470 2470 2470 2469 2468 2468 2466 2466 2466 2467 2467 2467 2466 2464 2463 2463 2461 2460 2457 2455 2451 2446 2441 2437 2436 2435 2432 2426 2421 2415 2407 2396 2388 2380 2375 2365 2353 2342 2331 2312 2295 2279 2263 2262 0 0 0 0 0 0 0 1013 1010 1006 1005 1005 999 998 998 998 998 999 999 1000 1000 1001 1002 1003 1004 1006 1007 1008 1009 1010 1011 1012 1014 1014 1016 1017 1018 1019 1020 1021 1022 1024 1025 1026 1027 1028 1029 1030 1031 1031 1033 1034 1035 1035 1036 1037 1038 1039 1039 1041 1041 1042 1043 1044 1045 1045 1046 1046 1046 1046 1046 1047 1047 1047 1048 1049 1050 1051 1053 1054 1055 1057 1059 1061 1061 1062 1062 1062 1062 1063 1065 1067 1068 1068 1070 1071 1073 1074 1076 1079 1082 1085 1089 1091 1095 1096 1098 1099 1101 1103 1105 1106 1108 1109 1111 1112 1114 1115 1116 1118 1119 1121 1122 1123 1124 1125 1126 1127 1128 1128 1128 1129 1129 1129 1129 1130 1131 1131 1132 1132 1134 1135 1136 1137 1138 1139 1140 1142 1144 1145 1147 1148 1150 1153 1156 1158 1158 1159 1162 1165 1168 1172 1175 1178 1180 1182 1184 1187 1189 1190 1192 1193 1196 1197 1199 1201 1202 1203 1205 1205 1207 1208 1209 1210 1212 1213 1213 1214 1215 1215 1216 1216 1216 1215 1214 1214 1214 1216 1217 1218 1219 1220 1221 1223 1224 1225 1227 1230 1233 1236 1240 1243 1245 1248 1254 1258 1261 1265 1269 1271 1273 1275 1278 1279 1281 1283 1284 1285 1286 1288 1289 1292 1294 1296 1299 1301 1303 1305 1307 1309 1310 1313 1314 1316 1317 1319 1321 1323 1323 1323 1325 1328 1338 0 0 1692 1695 1709 1716 1716 1716 1716 1716 1710 1706 1702 1699 1694 1689 1683 1678 1673 1665 1660 1656 1651 1649 1644 1639 1635 1632 1630 1626 1624 1621 1618 1614 1611 1608 1605 1602 1600 1597 1594 1591 1588 1585 1582 1580 1578 1576 1573 1570 1569 1566 1564 1561 1559 1557 1555 1552 1550 1548 1547 1545 1543 1542 1540 1539 1537 1535 1533 1531 1530 1529 1527 1526 1525 1522 1522 1520 1519 1517 1517 1515 1515 1514 1512 1512 1512 1511 1510 1510 1510 1509 1508 1508 1507 1506 1505 1505 1504 1503 1502 1501 1501 1500 1500 1500 1499 1499 1498 1497 1497 1497 1497 1496 1496 1495 1495 1495 1494 1494 1494 1495 1495 1495 1494 1494 1494 1494 1494 1494 1493 1493 1493 1493 1493 1493 1495 1495 1496 1496 1497 1497 1497 1498 1499 1499 1500 1500 1500 1501 1502 1502 1502 1503 1503 1504 1505 1506 1506 1506 1506 1506 1507 1507 1507 1508 1508 1508 1509 1509 1510 1511 1512 1513 1513 1514 1514 1515 1516 1516 1517 1517 1518 1518 1518 1519 1519 1519 1520 1521 1521 1521 1521 1522 1522 1522 1522 1522 1522 1521 1521 1521 1520 1520 1520 1519 1518 1517 1517 1516 1516 1516 1516 1516 1516 1515 1515 1515 1515 1515 1515 1514 1513 1512 1512 1511 1511 1510 1509 1508 1507 1507 1506 1504 1503 1501 1498 1495 1494 1493 1492 1490 1484 1471
0 0 0 0 0 0 0 0 0 0 0 0 0 2495 2520 2529 2531 2534 2534 2540 2540 2540 2555 2595 2597 2607 2607 2607 2605 2591 2582 2570 2569 2567 2563 2562 2533 0 0 0 0 0 0 0 0 0 0 0 0 0 0 0 0 0 0 0 0 0 2387 2387 2387 2400 2400 2400 2415 2424 2424 2426 2429 2432 2438 2443 2445 2445 2447 2454 2461 2466 2466 2467 2468 2468 2468 2466 2465 2464 2462 2462 2462 2464 2465 2465 2465 2463 2460 2459 2459 2457 2455 2451 2447 2442 2438 2434 2433 2433 2431 2426 2419 2409 2398 2387 2379 2372 2368 2360 2352 2341 2328 2311 2294 2278 2262 2261 0 0 0 0 0 0 0 1013 1010 1005 1003 1003 999 998 998 998 998 999 999 1000 1000 1001 1003 1003 1005 1006 1007 1008 1010 1011 1012 1013 1014 1015 1016 1017 1018 1019 1020 1021 1022 1024 1025 1026 1027 1028 1029 1030 1031 1032 1033 1034 1035 1035 1036 1037 1038 1039 1039 1041 1041 1042 1043 1044 1045 1046 1046 1047 1047 1047 1047 1047 1048 1049 1049 1049 1051 1053 1054 1055 1056 1058 1060 1061 1062 1062 1062 1062 1063 1064 1066 1067 1068 1068 1071 1072 1073 1074 1076 1079 1082 1086 1089 1092 1095 1096 1098 1100 1101 1103 1105 1106 1108 1109 1111 1112 1114 1115 1116 1118 1119 1121 1122 1123 1124 1124 1126 1126 1128 1128 1128 1129 1129 1129 1130 1130 1131 1132 1132 1133 1134 1136 1136 1137 1138 1139 1141 1143 1144 1145 1146 1148 1149 1153 1156 1158 1158 1158 1162 1165 1168 1172 1175 1177 1180 1182 1183 1186 1187 1189 1192 1193 1195 1197 1198 1200 1201 1203 1204 1205 1207 1208 1209 1210 1212 1213 1213 1214 1215 1215 1216 1216 1216 1215 1215 1215 1215 1216 1218 1219 1220 1221 1222 1223 1224 1226 1227 1229 1233 1236 1240 1243 1246 1248 1250 1255 1260 1265 1269 1270 1272 1275 1276 1277 1280 1282 1284 1285 1285 1286 1288 1291 1294 1296 1298 1301 1303 1305 1307 1309 1310 1313 1315 1316 1318 1319 1321 1322 1323 1323 1323 1328 1338 0 0 1693 1695 1709 1716 1716 1716 1716 1716 1710 1706 1702 1699 1694 1689 1683 1678 1673 1667 1660 1657 1651 1649 1643 1639 1635 1632 1629 1626 1623 1621 1618 1614 1611 1608 1605 1602 1600 1596 1593 1591 1587 1585 1582 1579 1576 1573 1572 1570 1567 1566 1563 1561 1559 1556 1554 1552 1550 1548 1546 1545 1543 1542 1540 1538 1536 1534 1533 1531 1529 1528 1526 1525 1524 1522 1521 1520 1518 1517 1516 1515 1514 1513 1512 1512 1512 1511 1510 1510 1509 1509 1508 1508 1507 1506 1505 1505 1504 1503 1502 1501 1501 1500 1499 1499 1499 1498 1498 1497 1497 1497 1496 1495 1495 1495 1495 1494 1494 1494 1494 1494 1494 1494 1493 1493 1493 1493 1493 1493 1493 1493 1492 1492 1492 1493 1494 1495 1496 1496 1497 1497 1498 1498 1499 1499 1500 1500 1500 1501 1502 1502 1503 1503 1504 1504 1505 1506 1506 1506 1506 1506 1506 1507 1507 1508 1508 1508 1509 1509 1510 1511 1512 1513 1513 1514 1514 1515 1516 1516 1517 1517 1518 1518 1518 1518 1518 1519 1520 1520 1521 1521 1521 1521 1521 1521 1521 1521 1521 1521 1521 1520 1520 1519 1519 1518 1517 1517 1516 1515 1515 1515 1515 1516 1516 1516 1516 1516 1516 1515 1515 1515 1514 1513 1512 1512 1511 1510 1510 1508 1506 1506 1505 1503 1502 1501 1498 1495 1494 1493 1492 1490 1481 1471
0 0 0 0 0 0 0 0 0 0 0 0 0 0 2520 2520 2520 2515 2509 0 0 0 0 0 0 2507 2507 2507 2506 0 0 0 0 0 0 0 0 0 0 0 0 0 0 0 0 0 0 0 0 1909 0 0 0 0 0 0 0 0 0 2387 2387 2386 2386 2386 2403 2417 2420 2421 2424 2426 2431 2435 2439 2441 2444 2451 2459 2462 2463 2464 2465 2465 2465 2464 2462 2461 2460 2460 2460 2460 2463 2463 2463 2460 2457 2456 2454 2453 2450 2447 2443 2437 2432 2431 2430 2429 2425 2420 2410 2400 2388 2378 2372 2366 2360 2354 2347 2338 2324 2310 2293 2272 2250 2225 0 0 0 0 0 0 0 1012 1010 1002 1002 1002 999 998 998 998 998 999 1000 1000 1001 1001 1003 1004 1005 1007 1007 1008 1010 1011 1012 1013 1014 1015 1016 1017 1018 1019 1020 1021 1022 1023 1025 1026 1027 1028 1029 1030 1031 1032 1033 1034 1034 1035 1036 1037 1038 1039 1039 1041 1041 1042 1043 1044 1045 1046 1046 1047 1047 1047 1047 1048 1049 1050 1050 1051 1052 1054 1054 1056 1056 1058 1060 1061 1062 1062 1062 1062 1064 1065 1066 1067 1068 1069 1071 1072 1073 1074 1077 1079 1082 1087 1090 1092 1094 1096 1098 1100 1101 1103 1104 1106 1107 1109 1111 1111 1113 1115 1116 1117 1119 1120 1121 1123 1123 1124 1126 1126 1127 1128 1129 1129 1129 1129 1130 1131 1132 1132 1133 1134 1135 1136 1136 1137 1138 1140 1142 1144 1145 1145 1146 1148 1149 1153 1156 1158 1158 1158 1162 1164 1168 1172 1175 1177 1179 1181 1182 1184 1186 1189 1190 1191 1194 1195 1197 1200 1200 1203 1203 1205 1206 1208 1209 1210 1212 1213 1213 1214 1215 1215 1215 1216 1216 1216 1217 1217 1218 1219 1219 1220 1222 1223 1223 1224 1225 1227 1228 1229 1233 1236 1239 1243 1246 1248 1250 1255 1259 1263 1266 1269 1270 1272 1274 1277 1280 1282 1284 1284 1284 1285 1287 1291 1294 1296 1298 1301 1303 1305 1307 1309 1311 1313 1315 1316 1318 1319 1320 1321 1322 1323 1326 1329 1341 0 0 1695 1697 1710 1719 1718 1716 1716 1716 1710 1706 1703 1699 1694 1687 1681 1677 1672 1667 1661 1657 1652 1649 1644 1639 1635 1632 1629 1626 1623 1621 1617 1615 1612 1609 1605 1602 1599 1595 1593 1589 1587 1584 1581 1579 1576 1573 1571 1569 1567 1565 1563 1561 1558 1556 1554 1551 1549 1548 1546 1545 1543 1541 1540 1538 1536 1534 1533 1531 1529 1528 1526 1525 1522 1522 1520 1519 1518 1517 1516 1515 1514 1513 1512 1512 1511 1511 1510 1509 1509 1508 1508 1507 1507 1506 1505 1504 1504 1503 1502 1501 1501 1500 1499 1499 1498 1498 1497 1497 1496 1496 1495 1495 1495 1494 1494 1494 1494 1493 1493 1493 1493 1493 1493 1493 1493 1493 1493 1492 1492 1492 1492 1492 1492 1493 1494 1495 1495 1496 1497 1497 1498 1499 1499 1500 1500 1500 1501 1501 1502 1503 1503 1503 1504 1505 1505 1506 1506 1506 1506 1506 1506 1507 1507 1508 1508 1508 1509 1509 1510 1511 1512 1513 1513 1513 1514 1515 1515 1516 1517 1517 1517 1518 1518 1518 1518 1519 1520 1520 1521 1521 1521 1521 1521 1521 1521 1521 1521 1521 1520 1519 1519 1518 1517 1517 1516 1516 1515 1515 1515 1515 1515 1515 1516 1516 1516 1516 1516 1515 1515 1515 1514 1513 1512 1512 1512 1511 1510 1507 1506 1505 1505 1503 1502 1500 1498 1498 1498 1495 1495 1493 1480 1475
0 0 0 0 0 0 0 0 0 0 0 0 0 0 0 0 0 0 0 0 0 0 0 0 0 0 0 0 0 0 0 0 0 0 0 0 0 0 0 0 0 0 0 1858 1860 1861 1867 1871 1885 1890 1893 1902 1906 0 0 0 0 0 0 2383 2383 2372 2372 2372 2395 2405 2412 2413 2417 2419 2426 2431 2435 2438 2442 2448 2453 2454 2455 2456 2461 2461 2461 2459 2458 2456 2455 2453 2453 2453 2456 2457 2457 2457 2455 2454 2450 2447 2443 2440 2437 2431 2429 2427 2427 2425 2418 2412 2399 2386 2378 2370 2364 2357 2353 2347 2341 2331 2319 2300 2283 2263 2238 0 0 0 0 0 0 0 1005 1005 1005 1002 1002 1002 999 999 999 999 999 999 1000 1000 1001 1002 1003 1004 1005 1007 1008 1009 1010 1011 1012 1014 1014 1015 1016 1017 1018 1019 1020 1021 1022 1023 1025 1026 1027 1028 1029 1030 1030 1031 1032 1034 1034 1035 1036 1036 1038 1038 1039 1040 1041 1042 1043 1044 1045 1045 1046 1047 1047 1047 1047 1048 1049 1050 1051 1052 1054 1055 1055 1056 1057 1058 1060 1062 1062 1062 1062 1062 1064 1065 1066 1068 1069 1070 1072 1072 1074 1075 1077 1080 1083 1087 1090 1092 1094 1096 1098 1100 1101 1103 1104 1105 1107 1109 1110 1111 1113 1114 1115 1117 1118 1119 1120 1121 1123 1124 1125 1126 1127 1128 1128 1129 1129 1130 1131 1131 1132 1133 1133 1134 1135 1137 1137 1137 1139 1141 1142 1144 1145 1145 1146 1148 1149 1154 1157 1158 1158 1158 1161 1164 1168 1172 1175 1177 1178 1180 1182 1184 1186 1187 1188 1190 1191 1194 1196 1199 1199 1201 1203 1204 1206 1207 1208 1210 1211 1213 1213 1214 1215 1215 1215 1216 1218 1218 1219 1219 1220 1220 1221 1222 1226 1226 1227 1227 1228 1228 1228 1230 1233 1237 1239 1243 1246 1248 1250 1255 1259 1263 1266 1267 1269 1272 1274 1275 1278 1279 1281 1283 1283 1285 1287 1290 1293 1296 1298 1300 1303 1305 1307 1308 1311 1313 1315 1317 1318 1320 1320 1320 1322 1324 1326 1330 1344 0 0 1699 1699 1710 1719 1718 1716 1716 1716 1712 1707 1704 1699 1691 1685 1681 1677 1673 1667 1661 1657 1652 1649 1644 1639 1635 1632 1629 1627 1623 1621 1618 1615 1612 1609 1606 1602 1599 1595 1592 1589 1586 1584 1581 1579 1576 1573 1571 1569 1567 1564 1562 1560 1558 1556 1554 1551 1549 1548 1546 1545 1543 1541 1539 1538 1536 1534 1533 1531 1529 1527 1526 1524 1522 1521 1520 1518 1517 1516 1515 1514 1514 1513 1512 1512 1511 1510 1510 1509 1509 1508 1507 1507 1507 1506 1505 1504 1504 1503 1502 1501 1501 1500 1499 1499 1498 1498 1497 1497 1496 1496 1495 1495 1494 1494 1494 1493 1493 1493 1493 1493 1493 1492 1492 1492 1492 1492 1492 1492 1491 1491 1491 1492 1492 1493 1494 1495 1495 1496 1497 1498 1499 1499 1500 1500 1500 1501 1501 1501 1502 1503 1503 1504 1504 1505 1505 1505 1505 1506 1506 1506 1506 1507 1507 1507 1508 1508 1509 1509 1510 1511 1512 1513 1513 1513 1514 1514 1515 1516 1516 1517 1517 1518 1518 1518 1518 1519 1520 1520 1521 1521 1521 1521 1521 1521 1521 1521 1521 1520 1520 1519 1519 1518 1517 1516 1516 1515 1515 1515 1515 1515 1515 1515 1516 1516 1516 1516 1516 1515 1515 1515 1514 1514 1513 1512 1512 1511 1510 1507 1506 1505 1505 1503 1501 1500 1498 1498 1498 1498 1498 1493 1481 1476
0 0 0 0 0 0 0 0 0 0 0 0 0 0 0 0 0 0 0 0 0 0 0 0 0 0 0 0 0 0 0 0 0 0 0 0 0 0 0 1814 1824 1824 1834 1834 1834 1836 1837 1837 1845 1860 1862 1865 1869 1886 0 0 0 0 0 2286 2317 2317 2317 2354 2382 2396 2400 2406 2410 2417 2423 2429 2433 2438 2441 2445 2446 2446 2446 2450 2454 2454 2454 2454 2454 2452 2452 2448 2447 2447 2447 2451 2453 2453 2453 2450 2444 2438 2435 2433 2431 2427 2425 2422 2419 2415 2409 2400 2389 2375 2369 2365 2360 2354 2348 2339 2328 2320 2309 2287 2267 2247 2218 0 0 0 0 0 0 0 1004 1004 1004 1002 1002 1002 999 999 999 999 999 999 1000 1000 1001 1002 1003 1005 1006 1007 1008 1009 1010 1012 1013 1014 1014 1015 1016 1017 1018 1019 1020 1021 1022 1023 1024 1025 1026 1027 1028 1029 1030 1031 1032 1033 1033 1034 1035 1036 1037 1038 1039 1040 1041 1042 1043 1043 1044 1045 1046 1047 1047 1047 1048 1049 1050 1051 1052 1053 1054 1055 1056 1057 1058 1059 1060 1062 1062 1062 1063 1063 1065 1067 1067 1068 1069 1070 1072 1073 1074 1075 1077 1080 1083 1087 1090 1092 1094 1096 1097 1099 1101 1103 1103 1105 1106 1108 1109 1110 1112 1113 1115 1116 1117 1118 1120 1121 1123 1124 1124 1126 1127 1128 1128 1129 1130 1130 1131 1132 1133 1133 1134 1135 1136 1138 1138 1140 1141 1141 1142 1144 1145 1145 1146 1148 1151 1155 1157 1158 1158 1158 1161 1164 1168 1172 1175 1176 1178 1180 1181 1183 1184 1186 1186 1187 1190 1192 1195 1197 1198 1199 1201 1203 1205 1207 1208 1208 1211 1213 1214 1215 1215 1215 1215 1219 1220 1220 1222 1222 1222 1224 1225 1228 1230 1230 1230 1231 1231 1232 1234 1235 1237 1237 1239 1243 1247 1249 1251 1255 1259 1262 1265 1266 1267 1271 1273 1273 1275 1276 1278 1281 1283 1284 1286 1287 1289 1291 1298 1300 1303 1304 1306 1308 1311 1313 1315 1317 1319 1320 1320 1320 1322 1324 1326 1330 1341 0 0 1725 1725 1725 1719 1719 1717 1717 1717 1713 1711 1705 1699 1691 1685 1681 1677 1673 1667 1661 1657 1652 1648 1644 1639 1637 1634 1631 1627 1623 1621 1618 1615 1612 1609 1606 1602 1599 1595 1592 1589 1586 1584 1581 1579 1576 1574 1571 1569 1566 1564 1562 1560 1558 1556 1554 1551 1549 1548 1546 1545 1543 1541 1539 1538 1536 1534 1532 1530 1529 1527 1525 1524 1522 1520 1519 1518 1517 1516 1515 1514 1513 1512 1512 1511 1511 1510 1510 1509 1509 1508 1507 1507 1507 1506 1505 1504 1504 1503 1502 1501 1501 1500 1499 1499 1498 1498 1497 1497 1496 1496 1495 1495 1494 1494 1493 1493 1493 1493 1493 1493 1492 1492 1492 1492 1492 1492 1491 1491 1491 1491 1491 1492 1492 1493 1494 1495 1495 1497 1498 1498 1499 1499 1500 1500 1501 1501 1501 1501 1502 1503 1504 1504 1504 1505 1505 1505 1505 1505 1505 1506 1506 1507 1507 1507 1508 1508 1509 1509 1511 1511 1512 1512 1513 1513 1514 1514 1515 1516 1516 1517 1517 1517 1518 1518 1518 1519 1519 1520 1521 1521 1521 1521 1521 1521 1521 1521 1521 1520 1519 1519 1519 1518 1517 1516 1516 1515 1515 1515 1515 1515 1515 1515 1516 1516 1516 1516 1516 1515 1515 1515 1515 1514 1513 1512 1512 1511 1510 1508 1506 1505 1505 1502 1501 1500 1500 1500 1499 1499 1498 1493 1484 1477
0 0 0 0 0 0 0 0 0 0 0 0 0 0 0 0 0 0 0 0 0 0 0 0 0 0 0 0 0 0 0 0 0 0 0 0 0 0 1796 1796 1811 1813 1816 1818 1820 1822 1829 1832 1841 1846 1852 1853 1857 1859 1869 0 0 0 0 2261 2266 2289 2289 2323 2361 2382 2391 2401 2407 2414 2421 2426 2433 2438 2439 2439 2439 2440 2440 2442 2446 2447 2447 2447 2447 2447 2446 2444 2440 2440 2440 2441 2446 2446 2446 2443 2436 2433 2431 2429 2427 2425 2419 2414 2407 2403 2400 2395 2387 2375 2365 2359 2353 2347 2338 2327 2317 2305 2294 2276 2256 2236 2213 0 0 0 0 0 0 0 1002 1002 1002 1002 1002 1002 999 999 999 999 999 999 1000 1000 1001 1002 1004 1005 1006 1007 1008 1010 1011 1012 1013 1014 1014 1015 1016 1017 1018 1019 1020 1021 1022 1023 1024 1024 1026 1027 1027 1028 1030 1030 1032 1032 1033 1034 1035 1036 1037 1038 1039 1040 1041 1041 1042 1043 1044 1045 1046 1047 1048 1048 1048 1050 1052 1052 1052 1054 1055 1056 1057 1057 1058 1060 1062 1062 1062 1063 1063 1064 1066 1067 1067 1068 1070 1071 1073 1073 1075 1076 1078 1081 1084 1087 1090 1091 1093 1096 1097 1099 1100 1101 1103 1104 1105 1107 1108 1110 1111 1112 1113 1114 1115 1116 1119 1120 1122 1123 1124 1125 1126 1128 1128 1129 1130 1130 1132 1133 1134 1134 1135 1136 1136 1138 1139 1141 1141 1142 1143 1144 1146 1146 1147 1149 1153 1156 1158 1158 1159 1159 1161 1164 1168 1172 1172 1173 1174 1177 1180 1181 1183 1183 1184 1185 1187 1189 1193 1196 1197 1198 1199 1202 1204 1207 1208 1208 1211 1213 1215 1215 1215 1215 1216 1219 1222 1222 1223 1223 1225 1226 1229 1230 1230 1231 1231 1232 1234 1236 1237 1238 1239 1240 1242 1246 1249 1250 1251 1255 1259 1261 1262 1263 1265 1268 1268 1268 1270 1272 1274 1277 1279 1281 1283 1285 1287 1290 1295 1299 1301 1303 1306 1308 1311 1313 1316 1318 1319 1320 1320 1322 1324 1325 1325 1328 0 0 0 1708 1711 1720 1720 1720 1720 1720 1717 1713 1711 1705 1699 1691 1685 1681 1677 1673 1667 1661 1656 1652 1648 1644 1641 1637 1635 1631 1627 1624 1621 1617 1615 1612 1609 1606 1603 1599 1595 1592 1589 1586 1584 1581 1579 1576 1575 1571 1569 1566 1564 1562 1560 1558 1556 1554 1551 1550 1548 1546 1545 1543 1541 1539 1538 1536 1534 1532 1530 1529 1527 1525 1524 1522 1520 1519 1518 1517 1516 1515 1514 1513 1512 1512 1511 1511 1510 1509 1509 1509 1508 1507 1507 1507 1506 1505 1505 1504 1503 1502 1502 1501 1500 1499 1498 1498 1498 1497 1496 1496 1496 1495 1495 1494 1494 1493 1493 1493 1493 1492 1492 1492 1492 1492 1492 1492 1491 1491 1491 1491 1491 1491 1491 1492 1493 1493 1495 1496 1497 1498 1498 1499 1499 1500 1501 1501 1501 1502 1502 1503 1503 1504 1504 1505 1505 1505 1505 1505 1505 1505 1506 1506 1507 1507 1507 1507 1508 1508 1509 1511 1511 1512 1512 1513 1513 1514 1514 1515 1516 1516 1516 1517 1517 1518 1518 1518 1519 1519 1520 1521 1521 1521 1521 1521 1521 1521 1521 1521 1520 1519 1519 1519 1518 1517 1516 1516 1515 1515 1515 1515 1515 1515 1515 1516 1516 1516 1516 1516 1515 1515 1515 1515 1514 1514 1513 1512 1511 1510 1508 1506 1506 1505 1502 1500 1500 1500 1500 1499 1497 1493 1493 1486 1480
