1993 2007 2025 2040 2048 2065 2071 2075 2086 2104 2125 2150 2181 2194 2210 2224 2249 2253 2284 2304 2312 2330 2353 2377 2393 2405 2420 2429 2440 2446 2449 2450 2455 2458 2475 2493 2506 2508 2509 2513 2528 2549 2566 2580 2590 2599 2604 2623 2645 2673 2684 2687 2687 2687 2684 2684 2684 2706 2731 2741 2745 2745 2744 2744 2745 2746 2748 2748 2753 2753 2754 2781 2810 2861 2898 2916 2930 2937 2943 2946 2952 2959 2967 2978 2980 2984 2990 2997 3005 3017 3028 3036 3044 3047 3052 3056 3057 3058 3064 3071 3085 3095 3104 3108 3114 3120 3121 3121 3122 3125 3130 3135 3142 3151 3168 3179 3185 3191 3193 3203 3212 3221 3230 3230 3232 3234 3243 3254 3262 3271 3276 3283 3286 3293 3297 3297 3297 3297 3297 3299 3301 3303 3306 3312 3323 3332 3337 3337 3337 3338 3338 3338 3341 3345 3352 3359 3363 3363 3368 3374 3381 3382 3383 3383 3382 3383 3383 3383 3390 3390 3390 3390 3388 3388 3388 3391 3394 3401 3412 3415 3416 3416 3416 3415 3415 3415 3416 3417 3417 3417 3417 3414 3414 3414 3414 3415 3417 3424 3428 3428 3428 3428 3426 3424 3424 3421 3412 3394 3384 3384 3384 3384 3384 3365 3353 3346 3346 3346 3346 3385 3408 3417 3420 3429 3429 3429 3425 3407 3391 3381 3367 3367 3367 3367 3367 3362 3358 3346 3336 3325 3323 3323 3323 3323 3323 3312 3294 3267 3209 3079 0 0 2173 2145 2080 2064 2042 2034 2034 2032 2028 2024 2023 2023 2022 2022 2022 2021 2021 2021 2021 2021 2020 2020 2016 2014 2012 2010 2009 2002 1991 1974 1946 1920 1903 1895 1890 1888 1885 1880 1873 1870 1870 1870 1870 1870 1870 1870 1870 1873 1875 1877 1878 1882 1883 1886 1889 1893 1896 1897 1899 1899 1900 1901 1902 1902 1902 1902 1902 1901 1901 1901 1900 1899 1898 1898 1897 1896 1895 1894 1892 1890 1888 1888 1887 1885 1882 1881 1879 1877 1876 1874 1872 1871 1870 1869 1868 1867 1867 1867 1867 1865 1863 1862 1860 1860 1859 1858 1858 1857 1855 1855 1854 1854 1854 1854 1854 1854 1854 1854 1853 1853 1853 1853 1853 1853 1852 1852 1851 1851 1851 1851 1850 1850 1849 1849 1848 1847 1847 1846 1844 1844 1844 1843 1841 1840 1839 1838 1837 1834 1832 1829 1826 1823 1821 1819 1817 1814 1811 1808 1806 1804 1802 1800 1798 1797 1795 1795 1794 1794 1794 1795 1795 1798 1800 1801 1804 1807 1810 1813 1816 1818 1820 1823 1823 1825 1828 1830 1831 1831 1833 1834 1835 1837 1837 1838 1839 1840 1841 1841 1841 1842 1841 1841 1841 1841 1841 1842 1842 1843 1843 1844 1844 1844 1844 1844 1844 1844 1844 1844 1845 1846 1846 1846 1846 1846 1846 1846 1846 1846 1846 1846 1846 1845 1845 1844 1842 1842 1841 1841 1840 1839 1838 1837 1837 1836 1835 1835 1833 1832 1830 1828 1827 1825 1824 1824 1823 1822 1821 1820 1820 1820 1818 1816 1815 1814 1814 1814 1814 1814 1816 1816 1817 1818 1818 1818 1819 1819 1819 1819 1818 1817 1817 1815 1815 1813 1812 1810 1810 1809 1807 1806 1804 1803 1802 1801 1801 1801 1800 1800 1801 1801 1801 1801 1801 1815 1825 1833 1849 1874 1891 1894 1894 1894 1890 1887 1883 1882 1880 1877 1873 1871 1869 1866 1861 1853 1852 1852 1852 1853 1853 1853 1839 1823 1823 1817 1810 0 0 0 0 0 0 0 0 0 0 0 0 0 0 0 0 0 0 0 0 0 0 0 0 0 0 0 0 0 0 0 0 0 0 0 0 0 0 0 0 0 0 0 0 0 0
1992 2007 2025 2029 2050 2066 2083 2090 2101 2117 2140 2160 2184 2202 2221 2243 2260 2271 2292 2305 2313 2332 2354 2377 2395 2410 2425 2439 2442 2451 2456 2462 2465 2473 2486 2509 2523 2527 2528 2533 2547 2569 2584 2590 2594 2599 2608 2624 2657 2674 2684 2692 2693 2695 2698 2701 2716 2735 2756 2763 2765 2766 2767 2768 2773 2782 2782 2782 2759 2759 2759 2784 2815 2861 2898 2916 2930 2941 2952 2962 2967 2974 2980 2984 2986 2991 3000 3012 3019 3026 3035 3040 3044 3050 3054 3056 3057 3058 3066 3080 3093 3104 3110 3117 3123 3130 3130 3130 3131 3131 3133 3137 3143 3154 3170 3179 3186 3191 3194 3204 3214 3225 3230 3230 3232 3234 3243 3255 3270 3281 3285 3288 3293 3295 3299 3299 3301 3301 3301 3303 3307 3309 3311 3318 3325 3332 3339 3343 3343 3343 3344 3344 3347 3352 3361 3367 3369 3369 3373 3377 3385 3385 3385 3383 3383 3383 3383 3387 3394 3394 3394 3390 3390 3390 3393 3395 3400 3409 3416 3424 3430 3430 3430 3430 3429 3429 3429 3428 3427 3427 3424 3422 3422 3422 3427 3427 3429 3431 3433 3433 3433 3432 3432 3431 3430 3428 3422 3409 3396 3396 3396 3404 3404 3404 3398 3364 3349 3349 3349 3370 3399 3414 3423 3431 3431 3431 3427 3411 3397 3388 3378 3378 3378 3377 3377 3376 3361 3348 3337 3325 3325 3325 3327 3327 3327 3316 3297 3270 3209 3039 0 0 2164 2145 2080 2059 2042 2034 2032 2032 2028 2026 2025 2023 2022 2022 2021 2021 2021 2021 2020 2020 2019 2018 2016 2015 2012 2011 2009 2006 1999 1987 1958 1929 1912 1899 1890 1888 1882 1876 1871 1869 1869 1868 1868 1868 1868 1868 1868 1869 1872 1874 1875 1877 1879 1880 1884 1887 1892 1895 1896 1896 1897 1898 1899 1899 1899 1899 1899 1899 1899 1899 1898 1897 1896 1896 1895 1895 1894 1893 1890 1889 1887 1886 1885 1883 1880 1878 1878 1875 1874 1872 1870 1870 1869 1867 1866 1866 1866 1866 1864 1863 1861 1859 1858 1856 1856 1855 1855 1855 1854 1852 1852 1852 1852 1852 1852 1853 1853 1853 1851 1851 1851 1851 1851 1850 1850 1850 1850 1850 1850 1850 1849 1849 1848 1848 1847 1846 1846 1845 1844 1844 1842 1841 1840 1840 1839 1838 1836 1834 1832 1829 1826 1823 1821 1818 1816 1814 1811 1808 1806 1804 1802 1800 1798 1797 1795 1793 1793 1793 1793 1793 1793 1794 1796 1797 1800 1804 1807 1810 1812 1815 1818 1821 1821 1824 1826 1827 1830 1831 1831 1833 1835 1835 1837 1837 1838 1839 1840 1840 1841 1841 1841 1841 1841 1841 1841 1841 1841 1843 1843 1843 1843 1843 1843 1843 1843 1843 1843 1843 1843 1844 1844 1844 1844 1845 1845 1846 1846 1846 1845 1845 1845 1844 1844 1842 1841 1841 1839 1839 1838 1838 1836 1836 1835 1835 1834 1834 1833 1830 1828 1827 1825 1824 1824 1824 1823 1822 1821 1820 1819 1819 1818 1815 1814 1813 1813 1813 1813 1813 1815 1815 1815 1816 1816 1816 1816 1816 1816 1816 1816 1815 1814 1813 1812 1811 1811 1810 1808 1806 1805 1804 1803 1802 1801 1800 1800 1800 1800 1800 1801 1801 1801 1801 1801 1817 1828 1837 1855 1875 1892 1894 1894 1894 1890 1887 1886 1884 1880 1877 1873 1871 1869 1865 1862 1858 1853 1853 1853 1856 1856 1856 1845 1831 1825 1821 1810 0 0 0 0 0 0 0 0 0 0 0 0 0 0 0 0 0 0 0 0 0 0 0 0 0 0 0 0 0 0 0 0 0 0 0 0 0 0 0 0 0 0 0 0 0 0
1992 2007 2025 2029 2050 2074 2092 2107 2116 2132 2149 2168 2189 2210 2235 2254 2263 2279 2297 2313 2322 2340 2357 2380 2397 2417 2436 2446 2449 2452 2458 2466 2474 2482 2496 2513 2525 2533 2544 2556 2574 2589 2596 2597 2599 2603 2612 2632 2663 2685 2687 2695 2704 2715 2724 2732 2739 2752 2770 2779 2781 2785 2788 2790 2796 2796 2796 2791 2777 2777 2777 2784 2815 2861 2898 2916 2930 2941 2952 2962 2975 2986 2991 2991 2995 3001 3011 3024 3034 3037 3038 3042 3047 3055 3057 3058 3060 3062 3072 3085 3098 3107 3113 3120 3128 3133 3139 3140 3141 3141 3141 3142 3147 3158 3170 3180 3187 3192 3197 3205 3215 3227 3230 3231 3232 3234 3246 3261 3277 3284 3290 3295 3296 3297 3301 3303 3303 3305 3305 3305 3309 3313 3317 3320 3326 3332 3339 3345 3349 3351 3354 3356 3359 3363 3370 3372 3373 3374 3376 3383 3388 3388 3388 3388 3388 3389 3391 3398 3398 3398 3395 3394 3394 3394 3394 3398 3406 3415 3423 3433 3439 3443 3443 3443 3439 3437 3434 3434 3433 3432 3432 3432 3433 3433 3435 3435 3436 3439 3442 3442 3443 3446 3446 3446 3446 3434 3423 3419 3403 3403 3403 3404 3411 3411 3411 3393 3363 3363 3363 3370 3399 3411 3422 3431 3431 3431 3427 3416 3402 3393 3388 3388 3388 3388 3388 3377 3362 3348 3338 3328 3328 3328 3333 3333 3333 3323 3305 3272 3201 2921 0 0 2150 2134 2077 2056 2042 2034 2032 2032 2028 2026 2025 2023 2022 2022 2022 2021 2021 2021 2020 2019 2019 2018 2016 2015 2012 2011 2010 2007 1999 1987 1961 1933 1916 1900 1892 1883 1878 1872 1868 1865 1865 1865 1864 1864 1864 1864 1864 1864 1867 1869 1872 1873 1875 1877 1880 1884 1888 1891 1892 1893 1894 1894 1895 1896 1896 1897 1897 1897 1897 1896 1896 1895 1895 1894 1893 1893 1892 1890 1888 1887 1885 1884 1883 1881 1879 1877 1875 1875 1873 1871 1870 1868 1868 1866 1866 1865 1865 1864 1863 1861 1860 1858 1856 1855 1854 1853 1852 1852 1851 1851 1849 1849 1849 1850 1850 1850 1850 1850 1850 1850 1849 1849 1849 1849 1848 1848 1848 1848 1848 1848 1847 1847 1847 1846 1845 1845 1845 1844 1843 1842 1841 1841 1840 1839 1838 1837 1835 1834 1832 1829 1826 1823 1821 1818 1816 1814 1811 1808 1806 1804 1802 1800 1798 1796 1794 1792 1791 1790 1790 1790 1790 1791 1793 1795 1798 1802 1804 1807 1810 1813 1815 1817 1820 1822 1823 1826 1828 1830 1830 1831 1833 1834 1836 1837 1838 1838 1839 1839 1840 1840 1840 1840 1840 1840 1840 1840 1841 1842 1842 1843 1843 1843 1842 1842 1842 1842 1842 1842 1843 1843 1843 1844 1844 1844 1844 1844 1844 1844 1844 1844 1843 1842 1842 1841 1841 1840 1839 1838 1837 1836 1835 1834 1834 1834 1833 1832 1831 1828 1827 1825 1824 1824 1823 1822 1822 1821 1821 1820 1819 1817 1816 1814 1814 1813 1813 1813 1812 1813 1813 1813 1813 1814 1814 1814 1814 1814 1814 1814 1813 1812 1812 1811 1810 1809 1809 1808 1806 1805 1803 1801 1800 1800 1799 1799 1799 1799 1799 1800 1801 1801 1801 1804 1805 1820 1836 1850 1863 1885 1892 1894 1894 1894 1891 1888 1886 1885 1883 1881 1878 1873 1869 1865 1862 1860 1858 1858 1858 1856 1856 1856 1852 1836 1829 1826 1818 0 0 0 0 0 0 0 0 0 0 0 0 0 0 0 0 0 0 0 0 0 0 0 0 0 0 0 0 0 0 0 0 0 0 0 0 0 0 0 0 0 0 0 0 0 0
1992 2007 2025 2029 2050 2074 2092 2110 2128 2140 2154 2178 2194 2217 2239 2255 2263 2279 2297 2314 2327 2345 2365 2383 2404 2421 2438 2448 2452 2455 2458 2469 2479 2487 2503 2520 2527 2537 2555 2564 2578 2593 2602 2605 2608 2613 2627 2649 2671 2685 2693 2707 2719 2735 2746 2754 2761 2773 2784 2790 2793 2796 2797 2803 2808 2809 2809 2809 2795 2786 2786 2786 2815 2860 2878 2904 2922 2941 2952 2962 2975 2986 2999 3001 3004 3010 3019 3030 3038 3041 3044 3046 3054 3060 3062 3063 3064 3070 3080 3091 3102 3108 3115 3121 3128 3133 3139 3147 3147 3149 3150 3152 3156 3165 3171 3182 3190 3193 3198 3210 3221 3229 3231 3234 3235 3242 3253 3265 3280 3286 3292 3296 3301 3302 3307 3307 3307 3308 3308 3308 3313 3316 3321 3322 3327 3334 3339 3345 3349 3359 3362 3365 3369 3374 3378 3379 3379 3380 3382 3387 3388 3390 3390 3392 3394 3399 3401 3405 3405 3405 3400 3399 3399 3399 3399 3403 3413 3422 3431 3440 3443 3444 3444 3444 3443 3442 3439 3438 3436 3436 3436 3443 3443 3443 3443 3443 3443 3445 3450 3451 3454 3462 3462 3462 3449 3440 3429 3419 3409 3404 3404 3404 3411 3425 3425 3425 3397 3370 3370 3370 3399 3409 3420 3429 3429 3429 3427 3416 3406 3403 3400 3398 3397 3395 3392 3379 3364 3352 3341 3340 3340 3340 3345 3345 3345 3334 3314 3272 3186 2905 0 0 2142 2112 2070 2056 2042 2034 2029 2028 2028 2026 2025 2023 2022 2022 2021 2021 2021 2020 2020 2019 2019 2018 2016 2015 2014 2013 2011 2009 2002 1987 1961 1937 1923 1907 1892 1883 1877 1870 1868 1865 1864 1862 1861 1861 1861 1861 1861 1861 1864 1867 1869 1871 1872 1875 1878 1882 1885 1887 1888 1889 1889 1891 1892 1893 1894 1895 1895 1895 1895 1895 1895 1894 1893 1892 1891 1891 1890 1889 1887 1886 1884 1882 1881 1879 1877 1875 1874 1872 1871 1869 1869 1868 1867 1865 1864 1864 1863 1863 1862 1860 1858 1856 1854 1852 1851 1851 1851 1851 1850 1848 1847 1847 1847 1847 1847 1848 1848 1848 1848 1848 1847 1847 1847 1847 1847 1847 1847 1847 1847 1846 1846 1845 1845 1845 1845 1844 1844 1843 1842 1841 1840 1840 1840 1838 1837 1836 1835 1832 1830 1828 1826 1823 1821 1819 1816 1814 1811 1808 1806 1803 1801 1799 1798 1795 1794 1791 1790 1789 1789 1788 1788 1788 1791 1792 1795 1800 1802 1804 1806 1810 1812 1815 1818 1820 1821 1824 1828 1829 1829 1830 1832 1834 1836 1836 1837 1838 1838 1838 1839 1840 1840 1840 1840 1840 1840 1840 1841 1842 1842 1842 1842 1842 1842 1841 1842 1842 1842 1842 1842 1842 1842 1842 1843 1843 1843 1843 1843 1843 1843 1843 1843 1842 1841 1841 1839 1839 1837 1837 1837 1836 1834 1833 1832 1832 1831 1831 1829 1828 1826 1825 1824 1823 1823 1822 1821 1820 1819 1819 1818 1815 1814 1813 1813 1812 1812 1812 1811 1811 1811 1811 1811 1812 1812 1813 1813 1813 1812 1811 1810 1809 1809 1809 1809 1808 1807 1807 1804 1802 1800 1799 1798 1798 1798 1798 1798 1799 1799 1803 1804 1804 1804 1811 1817 1833 1854 1855 1876 1891 1893 1894 1894 1894 1891 1889 1887 1886 1883 1882 1879 1875 1870 1865 1863 1862 1860 1860 1860 1857 1857 1857 1856 1852 1837 1828 1824 1813 0 0 0 0 0 0 0 0 0 0 0 0 0 0 0 0 0 0 0 0 0 0 0 0 0 0 0 0 0 0 0 0 0 0 0 0 0 0 0 0 0 0 0 0 0
1996 2014 2025 2035 2056 2077 2095 2112 2131 2146 2172 2191 2209 2223 2243 2257 2263 2279 2297 2314 2337 2354 2378 2400 2416 2430 2440 2450 2457 2460 2465 2472 2481 2491 2504 2524 2543 2556 2560 2571 2580 2594 2605 2617 2621 2632 2645 2657 2677 2690 2701 2713 2728 2744 2758 2769 2778 2785 2794 2797 2797 2800 2801 2807 2811 2811 2811 2809 2805 2792 2792 2792 2803 2826 2865 2893 2914 2934 2952 2957 2975 2986 2999 3003 3010 3015 3022 3030 3038 3045 3049 3055 3061 3064 3065 3065 3068 3077 3088 3099 3106 3109 3116 3121 3128 3133 3141 3147 3152 3155 3159 3164 3171 3173 3175 3182 3190 3197 3207 3219 3226 3233 3235 3240 3242 3252 3262 3271 3280 3287 3294 3302 3308 3311 3316 3316 3316 3313 3313 3313 3319 3323 3327 3327 3332 3336 3339 3345 3349 3359 3366 3370 3380 3383 3386 3387 3388 3388 3388 3390 3391 3392 3393 3397 3402 3407 3409 3410 3410 3410 3409 3408 3407 3407 3407 3411 3419 3430 3440 3445 3445 3446 3447 3447 3448 3448 3448 3448 3447 3447 3447 3448 3451 3451 3451 3451 3451 3452 3457 3458 3461 3468 3468 3468 3460 3451 3445 3435 3421 3411 3411 3411 3411 3425 3425 3425 3419 3404 3401 3401 3401 3407 3420 3428 3428 3428 3426 3416 3412 3410 3409 3408 3407 3406 3402 3387 3373 3362 3356 3354 3354 3354 3358 3358 3358 3352 3317 3274 3159 2553 0 0 2142 2089 2067 2053 2041 2031 2027 2026 2026 2025 2024 2023 2022 2022 2021 2021 2021 2020 2020 2019 2019 2018 2017 2016 2016 2015 2013 2010 2003 1988 1964 1941 1925 1917 1897 1883 1877 1870 1868 1865 1864 1862 1861 1859 1859 1859 1859 1859 1861 1864 1867 1869 1870 1872 1875 1879 1882 1883 1885 1886 1887 1888 1890 1892 1892 1893 1893 1893 1893 1893 1893 1893 1892 1890 1890 1889 1887 1886 1884 1884 1882 1880 1879 1877 1875 1874 1873 1871 1870 1868 1868 1866 1866 1865 1864 1863 1863 1862 1860 1858 1856 1855 1853 1851 1850 1850 1849 1849 1848 1847 1846 1846 1844 1844 1844 1844 1844 1844 1845 1845 1845 1845 1846 1846 1846 1846 1846 1845 1845 1844 1844 1844 1844 1844 1843 1843 1843 1842 1841 1840 1839 1839 1839 1838 1836 1835 1833 1831 1830 1828 1825 1823 1821 1818 1816 1814 1811 1808 1806 1803 1801 1799 1797 1795 1793 1790 1789 1788 1787 1787 1787 1787 1788 1790 1793 1796 1800 1802 1805 1807 1810 1812 1816 1818 1820 1822 1826 1828 1828 1829 1832 1834 1836 1836 1837 1837 1838 1838 1839 1840 1840 1840 1840 1840 1840 1840 1840 1841 1841 1840 1840 1840 1840 1840 1841 1841 1841 1841 1841 1841 1841 1842 1842 1842 1842 1842 1842 1842 1842 1842 1842 1841 1840 1839 1838 1838 1836 1836 1836 1834 1834 1833 1832 1831 1831 1831 1829 1828 1826 1824 1823 1823 1822 1820 1818 1817 1817 1816 1816 1815 1812 1811 1811 1810 1810 1809 1809 1809 1809 1810 1810 1810 1810 1810 1810 1810 1809 1808 1808 1808 1808 1808 1807 1806 1805 1802 1802 1800 1799 1798 1798 1798 1798 1798 1798 1799 1800 1804 1808 1808 1809 1817 1827 1848 1864 1871 1887 1894 1897 1897 1897 1894 1891 1891 1889 1887 1885 1882 1880 1877 1871 1867 1865 1865 1863 1861 1860 1859 1859 1860 1857 1856 1854 1844 1824 1813 0 0 0 0 0 0 0 0 0 0 0 0 0 0 0 0 0 0 0 0 0 0 0 0 0 0 0 0 0 0 0 0 0 0 0 0 0 0 0 0 0 0 0 0 0
2003 2014 2026 2050 2072 2086 2102 2114 2134 2152 2172 2191 2209 2226 2250 2257 2263 2279 2297 2314 2338 2365 2393 2414 2418 2431 2446 2453 2457 2461 2465 2472 2484 2492 2505 2525 2550 2564 2566 2572 2583 2595 2612 2629 2634 2646 2655 2666 2682 2694 2706 2718 2732 2747 2760 2769 2778 2785 2794 2798 2803 2804 2805 2807 2811 2811 2811 2809 2808 2797 2796 2796 2796 2822 2860 2893 2914 2934 2946 2957 2969 2985 2999 3006 3010 3018 3024 3030 3039 3050 3060 3066 3068 3068 3069 3069 3074 3085 3099 3108 3112 3116 3117 3123 3126 3131 3141 3148 3156 3161 3169 3178 3180 3181 3182 3187 3202 3211 3219 3228 3236 3242 3246 3250 3252 3259 3267 3275 3284 3287 3298 3304 3309 3311 3317 3317 3317 3319 3319 3321 3328 3331 3332 3333 3337 3340 3343 3346 3352 3360 3368 3379 3390 3391 3391 3393 3393 3393 3392 3392 3392 3393 3395 3403 3409 3416 3418 3418 3418 3416 3415 3414 3414 3415 3417 3422 3429 3438 3444 3446 3446 3446 3447 3447 3451 3456 3457 3457 3457 3457 3456 3455 3455 3455 3455 3456 3457 3457 3459 3459 3462 3468 3472 3472 3472 3466 3462 3449 3435 3423 3413 3413 3413 3425 3428 3428 3428 3425 3415 3407 3407 3407 3410 3418 3422 3422 3422 3420 3417 3417 3417 3418 3418 3418 3414 3401 3390 3382 3376 3375 3375 3375 3375 3373 3365 3357 3324 3286 3124 0 0 0 2125 2072 2064 2053 2040 2027 2026 2025 2025 2025 2024 2022 2022 2022 2021 2021 2020 2020 2020 2020 2020 2018 2017 2017 2016 2016 2013 2011 2003 1988 1964 1945 1929 1922 1902 1888 1877 1870 1868 1865 1864 1862 1860 1858 1858 1857 1857 1857 1858 1861 1864 1866 1867 1870 1873 1876 1879 1881 1883 1884 1884 1886 1888 1889 1890 1891 1891 1891 1892 1892 1892 1891 1891 1890 1888 1887 1885 1884 1882 1880 1879 1878 1877 1875 1874 1873 1871 1870 1868 1866 1866 1865 1864 1863 1861 1860 1860 1859 1858 1856 1855 1853 1851 1850 1849 1848 1847 1847 1846 1845 1844 1844 1843 1842 1842 1842 1842 1842 1843 1843 1843 1844 1844 1844 1844 1843 1843 1843 1843 1843 1843 1842 1842 1842 1842 1842 1841 1841 1840 1839 1839 1838 1837 1836 1834 1833 1832 1831 1830 1827 1825 1823 1820 1818 1816 1814 1811 1808 1806 1803 1801 1799 1796 1794 1791 1789 1788 1787 1786 1786 1785 1785 1786 1788 1790 1794 1798 1800 1802 1806 1809 1812 1813 1816 1819 1821 1824 1826 1827 1827 1830 1833 1834 1836 1836 1836 1837 1838 1839 1840 1840 1840 1840 1840 1840 1840 1840 1840 1840 1840 1840 1840 1840 1840 1840 1840 1840 1840 1840 1840 1840 1841 1841 1841 1841 1841 1841 1841 1841 1841 1841 1839 1839 1838 1838 1836 1836 1835 1835 1833 1832 1831 1831 1831 1831 1830 1829 1828 1826 1823 1822 1821 1820 1819 1817 1816 1815 1814 1813 1813 1812 1811 1810 1809 1809 1809 1809 1809 1809 1809 1809 1809 1809 1809 1809 1807 1807 1806 1806 1806 1806 1805 1805 1804 1802 1801 1800 1800 1798 1798 1798 1798 1798 1798 1798 1800 1801 1805 1809 1810 1811 1820 1831 1855 1865 1884 1895 1899 1899 1899 1897 1894 1893 1892 1892 1888 1886 1882 1880 1877 1873 1871 1869 1868 1866 1862 1861 1861 1860 1860 1857 1856 1856 1844 1825 1801 0 0 0 0 0 0 0 0 0 0 0 0 0 0 0 0 0 0 0 0 0 0 0 0 0 0 0 0 0 0 0 0 0 0 0 0 0 0 0 0 0 0 0 0 0
2003 2023 2031 2063 2089 2107 2114 2125 2145 2155 2172 2191 2209 2226 2250 2257 2263 2279 2297 2319 2346 2371 2402 2414 2433 2451 2460 2461 2463 2464 2467 2475 2485 2494 2506 2525 2550 2571 2583 2586 2594 2609 2629 2634 2645 2652 2661 2674 2692 2704 2713 2723 2733 2748 2760 2771 2779 2786 2796 2801 2806 2807 2807 2808 2811 2811 2811 2809 2809 2801 2796 2796 2796 2822 2860 2893 2914 2934 2946 2957 2969 2985 2999 3007 3012 3018 3024 3030 3040 3050 3060 3073 3073 3073 3075 3075 3079 3096 3113 3120 3124 3124 3125 3126 3126 3130 3140 3148 3158 3165 3176 3183 3187 3191 3194 3195 3203 3216 3224 3235 3244 3252 3259 3263 3266 3272 3276 3281 3285 3292 3299 3304 3309 3312 3318 3322 3326 3326 3327 3331 3334 3336 3337 3339 3342 3343 3344 3346 3352 3361 3375 3389 3394 3394 3395 3395 3396 3396 3396 3396 3396 3396 3401 3408 3418 3426 3429 3429 3429 3422 3422 3421 3421 3422 3423 3428 3436 3439 3444 3446 3446 3447 3448 3449 3456 3460 3463 3463 3463 3462 3462 3461 3457 3457 3457 3460 3463 3465 3466 3466 3466 3471 3475 3475 3478 3478 3478 3469 3449 3434 3422 3422 3422 3425 3435 3435 3435 3432 3430 3421 3407 3402 3402 3407 3411 3417 3422 3423 3425 3426 3430 3432 3433 3433 3433 3421 3413 3407 3404 3402 3398 3391 3386 3377 3367 3357 3324 3272 2999 0 0 0 2111 2072 2060 2044 2031 2024 2024 2024 2024 2024 2023 2022 2022 2021 2021 2020 2020 2020 2020 2020 2020 2018 2018 2018 2017 2016 2013 2011 2007 1995 1969 1950 1930 1925 1909 1895 1881 1873 1868 1866 1864 1862 1860 1858 1857 1856 1856 1856 1856 1857 1861 1862 1865 1867 1871 1874 1876 1879 1881 1881 1882 1884 1886 1888 1888 1889 1889 1890 1890 1890 1890 1890 1888 1887 1886 1885 1883 1881 1880 1879 1877 1877 1874 1873 1872 1870 1869 1868 1865 1864 1864 1863 1862 1861 1859 1857 1856 1856 1855 1854 1854 1851 1849 1848 1846 1846 1845 1844 1843 1842 1842 1841 1841 1841 1840 1840 1840 1840 1840 1841 1841 1841 1841 1841 1841 1841 1841 1841 1841 1841 1840 1840 1840 1840 1840 1840 1840 1839 1838 1838 1837 1837 1835 1834 1833 1832 1831 1830 1828 1827 1825 1823 1820 1818 1816 1813 1811 1808 1806 1803 1801 1799 1796 1793 1791 1789 1788 1787 1786 1785 1785 1785 1785 1785 1788 1792 1796 1799 1801 1803 1806 1810 1811 1814 1818 1820 1822 1824 1825 1826 1828 1830 1834 1835 1836 1836 1837 1838 1838 1839 1839 1840 1840 1840 1840 1840 1840 1840 1840 1840 1840 1840 1840 1840 1840 1840 1840 1840 1840 1840 1840 1840 1840 1840 1840 1840 1840 1840 1839 1839 1839 1838 1837 1837 1836 1835 1835 1834 1833 1832 1831 1831 1831 1830 1829 1829 1828 1826 1825 1823 1821 1819 1818 1818 1817 1816 1815 1813 1811 1811 1811 1810 1809 1809 1808 1808 1807 1807 1807 1808 1808 1808 1808 1808 1807 1806 1805 1805 1805 1804 1804 1804 1804 1802 1800 1800 1799 1798 1797 1797 1797 1798 1798 1799 1799 1802 1805 1807 1810 1811 1812 1821 1833 1860 1875 1892 1898 1899 1899 1899 1898 1895 1894 1894 1892 1890 1886 1883 1880 1878 1875 1874 1872 1870 1867 1863 1863 1862 1860 1860 1860 1856 1856 1844 1830 1816 0 0 0 0 0 0 0 0 0 0 0 0 0 0 0 0 0 0 0 0 0 0 0 0 0 0 0 0 0 0 0 0 0 0 0 0 0 0 0 0 0 0 0 0 0
2009 2028 2039 2070 2089 2107 2114 2128 2145 2155 2168 2184 2209 2230 2250 2259 2273 2286 2303 2329 2349 2371 2402 2414 2433 2451 2465 2467 2469 2469 2470 2477 2487 2495 2510 2536 2558 2580 2597 2606 2614 2626 2630 2635 2646 2657 2669 2682 2696 2704 2713 2725 2738 2749 2762 2774 2780 2789 2796 2803 2808 2809 2810 2810 2810 2810 2810 2809 2809 2804 2800 2800 2800 2822 2860 2897 2923 2941 2946 2960 2969 2985 2999 3007 3016 3022 3029 3033 3041 3050 3060 3073 3077 3077 3078 3080 3087 3105 3121 3124 3131 3131 3131 3130 3130 3130 3140 3149 3161 3173 3181 3190 3198 3203 3204 3209 3213 3223 3231 3239 3250 3258 3267 3271 3279 3281 3286 3287 3290 3293 3299 3305 3313 3317 3318 3323 3327 3330 3334 3337 3337 3337 3337 3343 3347 3348 3348 3349 3355 3368 3386 3396 3396 3396 3396 3396 3397 3400 3403 3403 3403 3405 3408 3416 3425 3432 3434 3436 3436 3436 3434 3434 3432 3431 3431 3431 3436 3442 3443 3444 3447 3448 3453 3457 3461 3463 3464 3464 3465 3464 3464 3463 3460 3460 3460 3465 3469 3476 3476 3476 3476 3476 3479 3482 3485 3485 3485 3476 3462 3445 3433 3432 3432 3432 3444 3444 3444 3439 3437 3435 3413 3407 3401 3401 3401 3417 3426 3428 3433 3434 3434 3438 3442 3442 3442 3438 3433 3427 3424 3416 3408 3400 3391 3378 3369 3357 3317 3208 2683 0 0 0 2104 2063 2048 2038 2027 2023 2023 2023 2023 2023 2021 2021 2021 2021 2020 2020 2020 2020 2020 2020 2020 2020 2019 2019 2018 2016 2014 2012 2007 2000 1978 1959 1932 1927 1916 1904 1888 1875 1869 1866 1864 1862 1860 1857 1855 1854 1853 1853 1853 1854 1857 1860 1862 1866 1868 1872 1874 1876 1877 1879 1880 1882 1885 1886 1887 1887 1887 1888 1888 1889 1889 1889 1887 1886 1884 1883 1881 1880 1878 1876 1875 1875 1873 1870 1868 1867 1867 1865 1863 1862 1860 1860 1859 1858 1855 1854 1852 1852 1851 1851 1850 1848 1845 1844 1843 1842 1841 1841 1840 1840 1840 1840 1840 1838 1838 1838 1838 1838 1839 1839 1839 1839 1838 1838 1838 1839 1839 1839 1839 1839 1838 1838 1838 1839 1839 1839 1839 1838 1837 1837 1836 1835 1834 1834 1832 1831 1830 1829 1828 1826 1825 1822 1820 1818 1816 1813 1811 1808 1806 1803 1801 1798 1796 1793 1791 1788 1788 1786 1786 1785 1784 1784 1784 1784 1786 1788 1793 1794 1797 1801 1804 1807 1808 1811 1815 1820 1820 1821 1823 1824 1827 1829 1831 1834 1835 1835 1836 1837 1838 1839 1839 1839 1840 1840 1840 1840 1840 1840 1840 1840 1840 1840 1840 1839 1839 1839 1839 1838 1839 1839 1839 1839 1839 1839 1839 1839 1839 1839 1838 1838 1837 1837 1836 1834 1834 1834 1834 1832 1831 1831 1830 1830 1830 1829 1828 1827 1826 1824 1823 1821 1819 1817 1817 1816 1816 1816 1814 1813 1810 1810 1810 1810 1808 1808 1807 1806 1806 1806 1806 1806 1807 1807 1807 1807 1806 1805 1804 1803 1803 1803 1802 1802 1802 1800 1799 1798 1797 1797 1797 1797 1797 1798 1799 1800 1800 1803 1806 1809 1811 1812 1813 1822 1852 1867 1884 1899 1900 1900 1900 1900 1899 1897 1896 1895 1892 1890 1886 1883 1880 1879 1878 1875 1873 1872 1870 1868 1865 1863 1861 1861 1860 1859 1856 1850 1831 1816 0 0 0 0 0 0 0 0 0 0 0 0 0 0 0 0 0 0 0 0 0 0 0 0 0 0 0 0 0 0 0 0 0 0 0 0 0 0 0 0 0 0 0 0 0
2009 2028 2045 2070 2089 2107 2114 2128 2145 2166 2168 2184 2209 2230 2251 2259 2286 2291 2307 2331 2349 2371 2402 2413 2433 2451 2466 2469 2469 2471 2472 2477 2489 2505 2522 2551 2572 2588 2605 2616 2619 2628 2633 2637 2648 2664 2678 2692 2699 2704 2713 2725 2739 2755 2765 2774 2780 2789 2797 2803 2810 2810 2813 2814 2813 2810 2812 2809 2809 2809 2812 2813 2814 2837 2864 2900 2923 2941 2967 2977 2982 2991 3005 3016 3026 3033 3037 3040 3041 3050 3059 3073 3077 3080 3085 3087 3100 3114 3124 3128 3132 3132 3132 3131 3131 3131 3142 3153 3170 3181 3191 3201 3210 3215 3221 3228 3232 3236 3240 3246 3252 3261 3268 3271 3279 3288 3292 3296 3298 3300 3301 3306 3314 3317 3318 3324 3331 3337 3337 3338 3339 3339 3339 3346 3351 3354 3355 3356 3363 3383 3397 3398 3398 3398 3398 3398 3398 3403 3408 3412 3416 3417 3418 3424 3431 3437 3440 3440 3441 3442 3443 3443 3443 3441 3439 3439 3439 3442 3443 3444 3447 3450 3457 3461 3464 3465 3465 3465 3465 3466 3466 3466 3466 3469 3469 3474 3481 3485 3487 3487 3487 3487 3487 3487 3489 3489 3489 3483 3470 3453 3441 3438 3438 3438 3446 3446 3447 3450 3447 3446 3427 3407 3401 3401 3401 3417 3427 3432 3435 3437 3438 3439 3442 3446 3447 3447 3447 3442 3437 3428 3414 3400 3391 3379 3369 3356 3317 3166 2599 0 0 0 2080 2049 2043 2038 2027 2021 2021 2021 2021 2021 2020 2020 2020 2020 2020 2020 2020 2020 2020 2020 2020 2020 2020 2019 2019 2019 2015 2012 2007 2000 1985 1965 1941 1931 1920 1908 1893 1878 1869 1866 1862 1858 1855 1854 1852 1852 1851 1851 1851 1851 1855 1857 1860 1863 1867 1868 1871 1873 1875 1876 1879 1880 1881 1883 1884 1885 1886 1886 1887 1887 1887 1886 1885 1884 1882 1880 1878 1877 1875 1875 1872 1871 1869 1867 1865 1864 1862 1861 1859 1857 1856 1856 1855 1853 1853 1847 1847 1847 1847 1846 1846 1844 1842 1840 1840 1840 1839 1839 1839 1838 1838 1838 1837 1837 1837 1837 1837 1837 1837 1837 1837 1837 1837 1837 1837 1837 1837 1837 1837 1837 1837 1837 1837 1837 1837 1837 1837 1837 1835 1835 1834 1834 1833 1833 1831 1830 1829 1829 1826 1825 1824 1822 1820 1818 1816 1813 1811 1808 1805 1803 1800 1798 1796 1793 1790 1788 1787 1786 1785 1784 1783 1783 1783 1783 1783 1787 1789 1789 1793 1796 1799 1803 1806 1808 1812 1817 1818 1819 1820 1822 1824 1827 1829 1832 1834 1835 1836 1836 1838 1838 1839 1839 1840 1840 1840 1840 1840 1840 1840 1840 1839 1839 1839 1839 1839 1838 1838 1838 1838 1838 1838 1838 1838 1838 1838 1838 1838 1837 1837 1837 1835 1835 1834 1833 1833 1832 1831 1830 1830 1829 1829 1828 1828 1828 1826 1826 1825 1823 1821 1819 1818 1817 1816 1816 1816 1815 1814 1812 1810 1810 1809 1809 1808 1806 1806 1806 1806 1805 1805 1805 1805 1805 1805 1804 1804 1803 1801 1800 1800 1800 1800 1800 1800 1799 1798 1797 1797 1797 1796 1796 1796 1798 1799 1801 1803 1805 1806 1809 1811 1813 1815 1830 1859 1875 1889 1901 1901 1901 1901 1901 1900 1899 1896 1895 1893 1890 1887 1884 1881 1879 1878 1877 1875 1873 1872 1871 1869 1867 1863 1862 1862 1861 1856 1850 1832 1816 0 0 0 0 0 0 0 0 0 0 0 0 0 0 0 0 0 0 0 0 0 0 0 0 0 0 0 0 0 0 0 0 0 0 0 0 0 0 0 0 0 0 0 0 0
2009 2027 2045 2070 2083 2095 2112 2128 2142 2168 2169 2184 2209 2236 2251 2270 2295 2302 2310 2333 2351 2374 2401 2408 2423 2449 2467 2470 2475 2476 2477 2485 2497 2514 2537 2560 2578 2594 2609 2616 2624 2628 2633 2638 2652 2670 2689 2696 2699 2704 2714 2726 2742 2761 2778 2789 2791 2797 2799 2805 2817 2817 2817 2816 2814 2813 2813 2814 2814 2814 2823 2837 2848 2857 2875 2909 2923 2946 2983 2994 3000 3005 3017 3026 3039 3045 3045 3046 3049 3050 3059 3070 3077 3081 3086 3096 3109 3114 3124 3129 3133 3133 3133 3132 3132 3132 3144 3161 3184 3196 3206 3213 3223 3236 3241 3241 3241 3245 3245 3253 3259 3263 3269 3276 3280 3288 3292 3299 3300 3303 3307 3312 3316 3318 3321 3324 3331 3338 3338 3339 3341 3341 3343 3349 3356 3358 3359 3363 3373 3386 3397 3400 3400 3400 3400 3401 3403 3407 3414 3420 3423 3423 3425 3428 3433 3438 3443 3443 3444 3444 3444 3444 3447 3447 3447 3447 3446 3446 3446 3447 3448 3452 3457 3462 3465 3467 3468 3468 3469 3470 3470 3470 3473 3475 3479 3485 3490 3493 3494 3494 3494 3489 3489 3489 3489 3489 3489 3484 3475 3463 3451 3442 3442 3442 3447 3451 3452 3452 3452 3452 3433 3416 3401 3401 3401 3423 3431 3436 3437 3442 3444 3445 3445 3446 3452 3453 3453 3452 3444 3431 3414 3400 3391 3381 3377 3355 3312 3063 2525 0 0 2097 2062 2049 2043 2038 2027 2021 2021 2021 2021 2021 2020 2020 2020 2020 2020 2020 2020 2020 2021 2021 2021 2021 2020 2020 2019 2019 2018 2012 2005 2000 1985 1968 1947 1934 1923 1914 1897 1880 1870 1866 1856 1851 1851 1851 1850 1850 1850 1850 1850 1850 1850 1854 1857 1860 1862 1865 1868 1870 1872 1874 1876 1877 1879 1881 1882 1883 1883 1884 1884 1884 1884 1884 1883 1882 1880 1878 1876 1874 1872 1871 1870 1868 1866 1864 1862 1862 1860 1858 1855 1854 1854 1853 1851 1850 1844 1842 1841 1841 1842 1841 1841 1840 1839 1838 1837 1837 1837 1837 1837 1837 1836 1836 1836 1836 1835 1835 1835 1835 1835 1835 1835 1835 1835 1835 1835 1835 1835 1835 1835 1835 1834 1834 1835 1835 1835 1835 1835 1835 1834 1834 1833 1833 1832 1831 1830 1829 1828 1827 1826 1825 1824 1822 1819 1818 1816 1813 1811 1808 1805 1803 1800 1798 1795 1793 1790 1788 1787 1785 1784 1783 1782 1782 1782 1782 1783 1784 1786 1787 1787 1790 1794 1799 1803 1807 1809 1813 1817 1817 1820 1821 1823 1825 1828 1830 1832 1834 1835 1836 1837 1838 1838 1839 1840 1840 1840 1840 1840 1840 1840 1839 1839 1839 1839 1839 1837 1837 1837 1837 1836 1836 1836 1836 1836 1836 1836 1836 1836 1836 1835 1835 1834 1834 1833 1831 1831 1830 1830 1829 1828 1828 1828 1827 1826 1826 1825 1825 1824 1822 1820 1818 1816 1815 1815 1815 1815 1814 1814 1812 1810 1810 1808 1807 1806 1806 1806 1805 1805 1804 1804 1803 1803 1803 1803 1802 1802 1801 1800 1798 1798 1798 1798 1798 1798 1797 1797 1797 1796 1796 1796 1796 1796 1797 1799 1801 1804 1805 1806 1809 1812 1813 1818 1842 1860 1877 1900 1901 1901 1901 1901 1901 1900 1899 1897 1896 1893 1890 1887 1885 1883 1880 1880 1878 1876 1875 1874 1874 1874 1871 1868 1865 1865 1862 1859 1853 1833 1816 0 0 0 0 0 0 0 0 0 0 0 0 0 0 0 0 0 0 0 0 0 0 0 0 0 0 0 0 0 0 0 0 0 0 0 0 0 0 0 0 0 0 0 0 0
2006 2027 2045 2059 2068 2080 2106 2123 2141 2160 2190 2208 2232 2247 2256 2277 2301 2305 2326 2340 2355 2378 2401 2408 2423 2449 2471 2476 2484 2485 2486 2494 2507 2518 2538 2560 2580 2600 2610 2619 2624 2629 2634 2640 2655 2679 2690 2696 2700 2704 2714 2728 2746 2767 2790 2799 2804 2810 2814 2819 2823 2823 2823 2823 2823 2822 2818 2818 2818 2819 2836 2858 2868 2874 2887 2909 2922 2946 2983 2994 3007 3014 3021 3036 3049 3054 3054 3054 3054 3054 3059 3070 3077 3081 3087 3097 3109 3114 3124 3129 3133 3134 3135 3136 3138 3142 3156 3174 3187 3201 3209 3220 3232 3236 3241 3245 3246 3247 3251 3260 3266 3268 3270 3277 3284 3288 3292 3302 3304 3306 3312 3319 3324 3324 3326 3327 3331 3339 3339 3340 3341 3341 3347 3355 3357 3358 3359 3363 3373 3386 3397 3400 3401 3401 3404 3409 3410 3411 3415 3421 3424 3425 3426 3430 3433 3438 3443 3443 3444 3444 3444 3444 3447 3449 3452 3452 3452 3451 3451 3451 3452 3454 3459 3463 3466 3470 3471 3472 3472 3472 3472 3472 3474 3482 3490 3496 3498 3499 3499 3499 3496 3494 3494 3494 3494 3494 3490 3487 3478 3470 3459 3450 3450 3450 3452 3454 3456 3456 3454 3454 3437 3416 3407 3407 3407 3433 3438 3439 3440 3447 3447 3449 3449 3451 3452 3453 3453 3452 3444 3431 3414 3399 3389 3381 3377 3352 3304 3062 0 0 2125 2097 2062 2049 2040 2034 2026 2021 2021 2021 2021 2021 2020 2019 2019 2019 2019 2020 2020 2020 2022 2022 2022 2021 2021 2020 2019 2019 2019 2012 2002 1995 1985 1970 1951 1942 1926 1914 1906 1892 1872 1866 1856 1851 1851 1850 1849 1848 1848 1847 1847 1847 1847 1849 1853 1856 1860 1863 1865 1868 1869 1872 1874 1875 1878 1879 1881 1881 1881 1882 1882 1882 1882 1882 1880 1879 1878 1877 1874 1870 1868 1867 1867 1866 1865 1861 1859 1857 1856 1855 1853 1851 1850 1850 1848 1844 1840 1840 1837 1837 1837 1838 1838 1838 1836 1835 1835 1835 1835 1835 1835 1835 1835 1835 1835 1834 1834 1833 1833 1833 1833 1833 1833 1833 1833 1833 1833 1833 1833 1833 1833 1833 1833 1833 1833 1833 1833 1833 1833 1833 1832 1832 1831 1831 1830 1830 1830 1829 1828 1826 1825 1824 1823 1821 1819 1817 1816 1813 1811 1808 1804 1802 1800 1797 1795 1792 1790 1788 1786 1785 1783 1782 1781 1780 1780 1780 1780 1782 1782 1784 1785 1786 1791 1794 1800 1804 1807 1809 1814 1816 1818 1820 1822 1824 1826 1828 1831 1833 1834 1835 1837 1837 1838 1839 1839 1840 1840 1840 1840 1839 1839 1839 1839 1838 1837 1837 1837 1837 1836 1836 1835 1835 1835 1835 1835 1835 1835 1834 1834 1834 1833 1833 1833 1832 1831 1830 1830 1829 1828 1827 1827 1826 1826 1826 1825 1825 1824 1824 1822 1821 1819 1818 1816 1815 1814 1814 1814 1813 1812 1811 1810 1810 1808 1807 1806 1805 1805 1805 1804 1804 1803 1803 1802 1802 1801 1800 1800 1799 1798 1796 1796 1796 1796 1796 1796 1796 1796 1795 1794 1794 1794 1794 1795 1797 1799 1801 1804 1805 1805 1810 1812 1814 1821 1846 1861 1889 1903 1903 1903 1902 1901 1901 1900 1899 1898 1896 1893 1890 1887 1886 1884 1884 1882 1880 1879 1878 1876 1876 1875 1875 1873 1870 1867 1864 1863 1856 1837 1816 1788 0 0 0 0 0 0 0 0 0 0 0 0 0 0 0 0 0 0 0 0 0 0 0 0 0 0 0 0 0 0 0 0 0 0 0 0 0 0 0 0 0 0 0 0
1996 2015 2038 2055 2062 2069 2078 2106 2140 2160 2191 2220 2241 2247 2262 2279 2304 2329 2345 2361 2368 2382 2401 2408 2423 2449 2471 2476 2484 2485 2495 2509 2519 2524 2539 2561 2584 2600 2611 2619 2628 2631 2636 2647 2664 2682 2692 2697 2701 2704 2717 2734 2755 2772 2790 2804 2812 2816 2822 2822 2824 2828 2829 2829 2829 2828 2825 2825 2825 2827 2857 2869 2879 2885 2894 2909 2922 2946 2983 2994 3007 3017 3027 3038 3049 3058 3058 3058 3059 3059 3064 3070 3077 3081 3091 3099 3109 3114 3123 3128 3132 3133 3135 3143 3149 3154 3160 3174 3187 3203 3211 3220 3234 3240 3241 3246 3247 3249 3257 3265 3271 3273 3274 3277 3285 3289 3298 3308 3309 3312 3320 3328 3333 3333 3334 3334 3334 3342 3342 3342 3343 3343 3353 3357 3358 3358 3359 3363 3373 3386 3392 3397 3398 3402 3408 3415 3416 3417 3418 3422 3424 3426 3430 3430 3433 3438 3443 3443 3443 3445 3445 3445 3447 3451 3452 3454 3455 3457 3457 3458 3458 3458 3461 3463 3467 3474 3478 3479 3480 3480 3480 3480 3482 3488 3495 3496 3498 3500 3500 3500 3498 3498 3498 3499 3499 3499 3494 3490 3482 3474 3464 3458 3458 3458 3458 3458 3458 3458 3457 3455 3446 3430 3409 3409 3409 3433 3439 3441 3441 3447 3450 3451 3452 3452 3452 3453 3453 3450 3447 3431 3409 3392 3382 3381 3377 3352 3248 2935 0 0 2126 2120 2062 2048 2040 2034 2026 2023 2022 2020 2020 2020 2019 2019 2019 2019 2019 2019 2020 2021 2022 2022 2022 2022 2021 2021 2020 2019 2019 2011 2000 1995 1985 1970 1956 1945 1928 1917 1907 1898 1882 1866 1856 1851 1851 1850 1849 1848 1846 1845 1843 1843 1843 1845 1848 1851 1854 1859 1862 1864 1866 1869 1871 1873 1875 1878 1878 1879 1880 1880 1880 1880 1879 1879 1878 1876 1876 1874 1871 1868 1866 1866 1865 1864 1862 1860 1857 1855 1854 1853 1851 1849 1849 1846 1842 1839 1837 1837 1830 1828 1828 1828 1833 1834 1834 1834 1833 1833 1833 1833 1833 1833 1833 1833 1833 1833 1833 1833 1832 1832 1832 1831 1831 1831 1831 1831 1831 1831 1831 1832 1832 1831 1831 1831 1831 1831 1831 1831 1831 1831 1831 1830 1830 1829 1829 1829 1829 1828 1826 1826 1825 1824 1822 1821 1819 1817 1816 1813 1811 1808 1804 1802 1800 1797 1795 1792 1789 1787 1786 1784 1783 1781 1781 1779 1778 1778 1778 1778 1779 1780 1781 1784 1788 1793 1797 1802 1804 1807 1812 1814 1817 1819 1821 1823 1825 1827 1828 1831 1833 1834 1836 1836 1837 1837 1838 1839 1839 1839 1839 1839 1838 1838 1838 1838 1837 1837 1836 1835 1835 1835 1834 1834 1834 1834 1834 1834 1833 1833 1832 1832 1832 1831 1831 1830 1829 1829 1828 1827 1827 1826 1826 1825 1824 1824 1824 1824 1823 1822 1821 1819 1819 1817 1816 1815 1813 1813 1812 1812 1812 1810 1809 1809 1807 1806 1805 1804 1804 1804 1804 1803 1803 1802 1801 1801 1800 1799 1799 1798 1796 1796 1795 1795 1795 1795 1795 1794 1794 1794 1794 1794 1794 1794 1795 1796 1799 1801 1804 1804 1805 1811 1812 1816 1830 1850 1869 1892 1903 1903 1903 1903 1901 1901 1900 1899 1898 1896 1893 1890 1889 1888 1887 1886 1884 1883 1881 1881 1878 1877 1877 1877 1877 1873 1868 1864 1864 1859 1837 1807 1788 0 0 0 0 0 0 0 0 0 0 0 0 0 0 0 0 0 0 0 0 0 0 0 0 0 0 0 0 0 0 0 0 0 0 0 0 0 0 0 0 0 0 0 0
1981 2006 2033 2055 2062 2069 2075 2083 2116 2160 2191 2222 2241 2247 2262 2279 2304 2331 2354 2375 2388 2400 2410 2413 2425 2448 2471 2476 2484 2485 2495 2509 2522 2532 2540 2562 2585 2601 2614 2627 2636 2643 2647 2657 2669 2685 2692 2698 2701 2714 2737 2748 2758 2772 2790 2804 2812 2816 2822 2825 2826 2830 2832 2833 2833 2833 2830 2830 2830 2846 2868 2877 2883 2888 2896 2910 2918 2941 2968 2991 3007 3017 3027 3038 3049 3060 3060 3063 3063 3068 3072 3077 3080 3087 3091 3103 3110 3113 3119 3124 3126 3130 3135 3143 3149 3154 3163 3176 3194 3205 3211 3221 3235 3244 3244 3247 3249 3255 3264 3269 3276 3279 3280 3287 3294 3298 3304 3312 3315 3319 3329 3340 3347 3347 3347 3347 3347 3347 3347 3347 3347 3347 3355 3359 3359 3359 3359 3363 3367 3374 3386 3392 3398 3402 3410 3417 3422 3423 3424 3425 3426 3429 3430 3431 3435 3438 3442 3442 3442 3442 3442 3445 3449 3451 3454 3454 3456 3457 3458 3459 3460 3463 3465 3468 3472 3478 3484 3488 3489 3490 3491 3491 3492 3492 3495 3496 3498 3500 3500 3500 3499 3499 3499 3501 3501 3501 3499 3494 3486 3479 3472 3467 3466 3464 3464 3464 3462 3462 3461 3460 3451 3439 3414 3414 3414 3434 3439 3442 3442 3450 3456 3456 3456 3453 3453 3453 3453 3450 3447 3431 3409 3392 3382 3378 3364 3312 3169 2647 0 0 2115 2107 2062 2048 2040 2030 2023 2023 2022 2020 2020 2019 2018 2018 2018 2018 2018 2019 2020 2021 2022 2022 2022 2022 2021 2021 2020 2019 2019 2011 2000 1995 1987 1972 1962 1947 1931 1919 1908 1901 1890 1873 1861 1853 1852 1850 1849 1847 1845 1844 1842 1842 1842 1842 1844 1846 1849 1854 1857 1860 1863 1866 1870 1871 1873 1875 1876 1877 1878 1878 1878 1878 1878 1877 1875 1875 1874 1872 1869 1866 1863 1862 1861 1860 1860 1856 1855 1854 1850 1849 1848 1847 1847 1845 1841 1833 1829 1826 1825 1821 1821 1821 1823 1827 1828 1829 1829 1830 1831 1832 1832 1832 1831 1831 1831 1831 1830 1830 1830 1830 1830 1830 1829 1829 1829 1829 1829 1829 1830 1830 1830 1830 1830 1830 1830 1830 1830 1829 1829 1829 1829 1829 1828 1828 1828 1827 1827 1826 1825 1825 1824 1823 1821 1821 1819 1817 1815 1813 1811 1808 1804 1802 1799 1797 1794 1791 1789 1787 1785 1783 1782 1780 1779 1777 1777 1776 1776 1776 1776 1778 1780 1783 1786 1790 1793 1798 1803 1806 1809 1812 1814 1817 1821 1823 1824 1825 1828 1829 1831 1833 1835 1836 1836 1837 1837 1837 1838 1838 1838 1838 1837 1837 1837 1837 1836 1836 1835 1835 1834 1834 1833 1833 1832 1832 1832 1832 1832 1832 1831 1830 1830 1830 1830 1829 1828 1828 1826 1826 1825 1825 1824 1824 1823 1823 1823 1822 1822 1821 1821 1819 1818 1817 1816 1814 1813 1812 1812 1812 1810 1810 1809 1808 1807 1805 1804 1804 1803 1803 1802 1802 1802 1801 1801 1800 1799 1799 1798 1797 1796 1795 1795 1794 1794 1794 1794 1793 1793 1793 1793 1793 1794 1794 1795 1796 1799 1800 1803 1804 1805 1812 1818 1835 1841 1868 1883 1902 1904 1904 1904 1903 1901 1901 1900 1899 1898 1897 1894 1892 1890 1890 1889 1887 1885 1885 1883 1882 1881 1879 1878 1878 1878 1874 1868 1865 1864 1859 1837 1807 1788 0 0 0 0 0 0 0 0 0 0 0 0 0 0 0 0 0 0 0 0 0 0 0 0 0 0 0 0 0 0 0 0 0 0 0 0 0 0 0 0 0 0 0 0
1981 2005 2033 2055 2062 2069 2075 2083 2116 2145 2191 2222 2241 2247 2262 2279 2305 2333 2354 2375 2388 2400 2410 2417 2425 2446 2450 2468 2478 2483 2495 2509 2523 2533 2544 2562 2588 2603 2617 2634 2647 2654 2670 2681 2685 2690 2694 2698 2708 2727 2743 2755 2761 2773 2787 2799 2812 2816 2822 2827 2829 2833 2836 2836 2836 2834 2834 2834 2846 2871 2887 2892 2892 2894 2899 2910 2914 2934 2962 2986 3003 3017 3027 3038 3050 3062 3064 3065 3067 3073 3082 3089 3097 3107 3108 3109 3110 3113 3119 3124 3125 3128 3134 3143 3149 3154 3163 3178 3194 3208 3215 3224 3237 3244 3244 3247 3255 3263 3269 3275 3279 3282 3285 3291 3295 3304 3314 3318 3323 3325 3335 3346 3355 3359 3359 3359 3359 3359 3357 3357 3357 3357 3359 3359 3359 3359 3359 3363 3367 3374 3386 3392 3396 3404 3411 3420 3430 3430 3430 3429 3429 3429 3432 3434 3435 3438 3442 3442 3442 3442 3442 3447 3450 3451 3454 3455 3457 3458 3459 3459 3461 3466 3472 3474 3476 3483 3484 3488 3489 3490 3494 3495 3495 3496 3497 3497 3497 3500 3500 3500 3500 3500 3502 3502 3502 3502 3501 3496 3490 3484 3479 3472 3469 3467 3466 3466 3464 3464 3461 3460 3457 3443 3420 3420 3420 3435 3446 3447 3447 3451 3463 3463 3463 3462 3454 3454 3453 3450 3447 3431 3409 3392 3382 3368 3349 3308 3153 0 0 0 2115 2087 2062 2048 2030 2025 2023 2023 2022 2022 2022 2019 2018 2017 2017 2017 2018 2019 2020 2021 2022 2022 2022 2022 2022 2021 2020 2019 2018 2010 2000 1996 1989 1976 1965 1948 1933 1920 1909 1902 1897 1880 1863 1858 1853 1851 1848 1845 1844 1840 1840 1840 1840 1840 1842 1843 1845 1850 1853 1857 1860 1864 1866 1868 1869 1871 1873 1875 1876 1876 1876 1875 1875 1874 1873 1872 1870 1868 1866 1863 1860 1858 1855 1854 1846 1843 1842 1842 1843 1843 1843 1843 1842 1839 1835 1828 1821 1820 1820 1816 1816 1816 1821 1822 1822 1823 1825 1827 1829 1829 1829 1830 1830 1830 1830 1829 1829 1829 1828 1828 1828 1828 1828 1828 1828 1828 1828 1828 1828 1828 1828 1828 1829 1829 1829 1829 1829 1829 1828 1828 1828 1827 1827 1826 1826 1826 1826 1825 1825 1824 1824 1823 1821 1821 1819 1817 1815 1813 1811 1808 1805 1802 1799 1797 1794 1791 1789 1787 1785 1783 1781 1779 1777 1776 1774 1774 1774 1774 1774 1774 1777 1780 1786 1789 1792 1796 1800 1803 1807 1809 1812 1814 1818 1821 1823 1823 1825 1828 1830 1832 1834 1835 1836 1836 1836 1836 1836 1837 1837 1837 1836 1836 1836 1836 1836 1836 1835 1835 1834 1833 1833 1833 1832 1831 1831 1831 1830 1830 1829 1829 1829 1829 1828 1828 1827 1826 1826 1825 1824 1824 1823 1823 1822 1822 1821 1821 1821 1821 1820 1818 1817 1815 1815 1814 1813 1812 1812 1810 1810 1808 1808 1807 1805 1805 1803 1803 1802 1801 1801 1801 1801 1801 1800 1799 1798 1798 1798 1797 1796 1795 1794 1794 1793 1793 1792 1792 1792 1792 1793 1793 1794 1794 1795 1796 1798 1800 1800 1802 1805 1812 1822 1856 1861 1871 1895 1902 1904 1904 1904 1903 1902 1901 1900 1899 1899 1897 1896 1894 1893 1891 1890 1889 1888 1886 1885 1884 1882 1881 1880 1880 1879 1876 1870 1865 1863 1859 1838 1807 1788 0 0 0 0 0 0 0 0 0 0 0 0 0 0 0 0 0 0 0 0 0 0 0 0 0 0 0 0 0 0 0 0 0 0 0 0 0 0 0 0 0 0 0 0
1981 2005 2033 2060 2072 2072 2075 2083 2116 2145 2189 2220 2227 2238 2259 2280 2309 2336 2362 2375 2388 2400 2410 2417 2425 2439 2442 2451 2464 2481 2495 2509 2526 2533 2546 2566 2592 2614 2631 2650 2655 2685 2695 2696 2696 2697 2699 2708 2720 2733 2747 2756 2762 2774 2787 2796 2801 2813 2822 2828 2833 2836 2836 2836 2836 2836 2837 2840 2859 2899 2906 2906 2908 2908 2909 2910 2914 2931 2961 2986 3003 3019 3028 3038 3050 3062 3068 3072 3075 3082 3091 3101 3109 3113 3116 3116 3116 3116 3123 3124 3125 3128 3134 3138 3144 3153 3164 3178 3194 3208 3219 3231 3239 3245 3245 3251 3259 3270 3274 3279 3282 3284 3289 3293 3300 3314 3323 3326 3330 3334 3341 3349 3355 3361 3367 3367 3367 3367 3367 3367 3368 3369 3371 3371 3371 3364 3364 3364 3367 3374 3386 3392 3398 3405 3413 3426 3436 3436 3436 3434 3434 3434 3436 3439 3440 3442 3442 3442 3443 3443 3446 3450 3451 3452 3452 3455 3460 3461 3461 3461 3461 3466 3473 3477 3480 3483 3484 3488 3489 3490 3494 3495 3496 3496 3497 3497 3497 3499 3501 3502 3502 3503 3505 3505 3505 3503 3502 3497 3495 3492 3488 3482 3475 3472 3470 3469 3465 3464 3461 3460 3460 3446 3421 3421 3421 3434 3448 3451 3451 3455 3463 3464 3464 3464 3456 3455 3454 3449 3444 3430 3417 3398 3384 3362 3330 3261 2959 0 0 2142 2115 2068 2051 2036 2030 2025 2025 2025 2023 2023 2021 2018 2018 2017 2017 2017 2018 2019 2020 2021 2022 2022 2022 2022 2022 2021 2020 2019 2018 2009 2000 1996 1989 1976 1965 1952 1938 1925 1911 1905 1898 1887 1868 1860 1854 1851 1848 1844 1841 1839 1837 1837 1837 1838 1839 1840 1842 1845 1848 1853 1857 1862 1864 1866 1867 1870 1871 1873 1874 1874 1874 1874 1873 1873 1871 1869 1868 1864 1863 1859 1856 1854 1850 1845 1838 1832 1832 1832 1837 1838 1838 1838 1833 1832 1831 1826 1821 1818 1814 1814 1814 1814 1818 1819 1819 1821 1822 1823 1825 1827 1828 1828 1828 1828 1828 1828 1827 1827 1827 1827 1827 1827 1827 1826 1826 1826 1827 1827 1827 1827 1827 1827 1828 1828 1827 1827 1827 1827 1826 1826 1825 1825 1825 1825 1825 1825 1825 1824 1824 1824 1823 1822 1821 1820 1819 1817 1815 1813 1811 1808 1805 1802 1799 1796 1793 1791 1788 1786 1784 1783 1780 1778 1776 1774 1773 1772 1772 1772 1772 1773 1774 1776 1781 1786 1789 1792 1796 1800 1803 1806 1808 1810 1813 1817 1820 1820 1823 1826 1827 1829 1831 1833 1833 1834 1835 1835 1836 1836 1836 1836 1836 1835 1835 1835 1834 1834 1834 1833 1833 1833 1832 1831 1831 1830 1830 1830 1828 1828 1828 1828 1828 1828 1828 1827 1825 1825 1824 1823 1823 1822 1822 1822 1822 1821 1820 1820 1820 1820 1819 1818 1816 1815 1814 1813 1813 1811 1811 1810 1809 1808 1807 1806 1805 1804 1803 1802 1802 1800 1800 1800 1800 1800 1799 1799 1798 1798 1797 1796 1796 1794 1794 1792 1792 1792 1791 1791 1791 1791 1792 1793 1793 1794 1795 1795 1796 1797 1797 1797 1805 1814 1824 1860 1868 1872 1896 1902 1904 1904 1904 1904 1904 1904 1901 1900 1899 1899 1897 1895 1894 1893 1892 1891 1889 1888 1886 1885 1882 1881 1881 1880 1880 1878 1873 1867 1863 1858 1840 1817 1788 0 0 0 0 0 0 0 0 0 0 0 0 0 0 0 0 0 0 0 0 0 0 0 0 0 0 0 0 0 0 0 0 0 0 0 0 0 0 0 0 0 0 0 0
1988 2005 2034 2060 2078 2091 2099 2114 2133 2145 2189 2209 2212 2224 2250 2280 2311 2336 2362 2371 2382 2393 2402 2417 2428 2433 2442 2451 2464 2481 2495 2509 2528 2539 2553 2576 2608 2629 2648 2660 2676 2685 2696 2696 2697 2701 2706 2716 2730 2736 2755 2764 2768 2774 2787 2796 2801 2812 2821 2828 2833 2836 2836 2838 2838 2838 2838 2847 2873 2899 2914 2916 2919 2919 2919 2919 2925 2931 2958 2986 3003 3020 3029 3038 3054 3068 3074 3077 3085 3093 3103 3110 3117 3122 3126 3126 3126 3126 3125 3125 3126 3128 3134 3138 3144 3153 3169 3187 3204 3221 3229 3239 3245 3251 3257 3266 3269 3270 3274 3280 3284 3287 3290 3296 3303 3315 3327 3334 3336 3343 3345 3351 3356 3362 3367 3371 3375 3376 3377 3379 3380 3383 3386 3386 3386 3382 3381 3381 3381 3384 3390 3392 3399 3410 3417 3429 3441 3445 3445 3445 3441 3441 3441 3442 3448 3448 3448 3447 3447 3447 3451 3451 3453 3453 3453 3455 3460 3462 3462 3463 3463 3467 3473 3477 3480 3482 3483 3488 3488 3489 3494 3495 3496 3496 3497 3497 3497 3499 3501 3503 3506 3506 3506 3506 3505 3503 3502 3499 3498 3497 3497 3492 3485 3478 3476 3475 3468 3464 3461 3460 3459 3446 3422 3422 3422 3432 3451 3452 3454 3455 3463 3464 3464 3464 3456 3449 3446 3446 3442 3431 3417 3407 3386 3360 3312 3226 2720 0 0 2137 2117 2065 2047 2036 2030 2027 2026 2025 2023 2023 2020 2018 2017 2017 2017 2017 2017 2018 2020 2020 2021 2022 2022 2022 2021 2021 2020 2019 2017 2009 2000 1996 1989 1976 1965 1954 1944 1932 1924 1911 1899 1892 1881 1863 1855 1853 1847 1843 1838 1837 1835 1833 1833 1833 1835 1838 1840 1841 1844 1849 1854 1858 1862 1864 1865 1868 1868 1870 1872 1872 1872 1871 1870 1869 1867 1865 1861 1859 1857 1855 1854 1850 1845 1840 1832 1828 1828 1828 1832 1835 1835 1835 1833 1827 1824 1821 1817 1812 1808 1808 1808 1814 1815 1817 1818 1818 1819 1820 1823 1825 1827 1827 1827 1827 1826 1826 1826 1826 1825 1825 1825 1825 1825 1825 1825 1825 1826 1826 1826 1826 1826 1826 1826 1826 1826 1826 1825 1825 1825 1824 1824 1824 1824 1824 1824 1823 1823 1823 1823 1822 1822 1822 1821 1820 1818 1817 1815 1812 1811 1807 1805 1802 1799 1796 1793 1790 1787 1785 1783 1781 1779 1777 1776 1773 1772 1771 1771 1771 1771 1772 1772 1772 1777 1782 1786 1789 1792 1796 1800 1803 1805 1806 1810 1814 1817 1819 1821 1824 1826 1827 1828 1830 1832 1833 1833 1834 1834 1834 1834 1834 1835 1834 1834 1834 1833 1833 1833 1832 1832 1831 1831 1831 1830 1830 1829 1828 1828 1827 1827 1827 1827 1826 1825 1825 1823 1823 1823 1822 1822 1822 1821 1821 1821 1820 1820 1820 1820 1819 1818 1817 1815 1814 1813 1812 1812 1811 1810 1809 1807 1807 1805 1805 1803 1803 1803 1801 1801 1800 1799 1799 1799 1799 1798 1798 1798 1797 1796 1795 1795 1793 1793 1792 1791 1791 1791 1790 1790 1790 1791 1792 1793 1793 1793 1794 1794 1797 1797 1797 1806 1814 1835 1862 1869 1874 1896 1902 1904 1904 1905 1905 1905 1905 1903 1901 1900 1899 1898 1897 1895 1894 1892 1892 1891 1889 1888 1886 1883 1882 1881 1881 1880 1880 1878 1871 1863 1855 1840 1820 1796 0 0 0 0 0 0 0 0 0 0 0 0 0 0 0 0 0 0 0 0 0 0 0 0 0 0 0 0 0 0 0 0 0 0 0 0 0 0 0 0 0 0 0 0
1991 2007 2036 2063 2081 2094 2114 2116 2136 2155 2189 2209 2212 2224 2250 2283 2319 2337 2360 2371 2378 2380 2389 2409 2424 2433 2442 2451 2464 2481 2505 2524 2535 2546 2561 2586 2612 2629 2653 2660 2676 2688 2696 2697 2700 2704 2714 2730 2732 2747 2760 2772 2782 2785 2787 2796 2801 2811 2820 2828 2833 2836 2836 2838 2839 2839 2841 2850 2877 2899 2914 2920 2929 2930 2930 2931 2931 2931 2958 2991 3014 3023 3032 3041 3056 3069 3081 3088 3095 3109 3118 3119 3121 3125 3132 3134 3138 3139 3139 3139 3138 3138 3138 3138 3144 3153 3171 3196 3213 3226 3238 3246 3252 3259 3266 3269 3269 3270 3275 3280 3285 3287 3291 3296 3304 3317 3327 3336 3340 3343 3350 3352 3356 3363 3368 3375 3380 3380 3383 3386 3388 3391 3396 3396 3396 3396 3397 3397 3397 3397 3403 3408 3414 3416 3421 3433 3441 3445 3449 3450 3450 3450 3450 3450 3450 3451 3453 3453 3453 3453 3454 3454 3454 3455 3455 3456 3460 3465 3466 3467 3468 3469 3473 3477 3479 3480 3480 3480 3485 3488 3492 3495 3496 3496 3497 3497 3497 3499 3501 3503 3508 3510 3510 3510 3507 3506 3503 3501 3501 3499 3498 3498 3493 3489 3484 3478 3472 3464 3460 3459 3458 3454 3422 3422 3422 3426 3451 3452 3454 3455 3459 3464 3464 3464 3456 3446 3439 3438 3435 3432 3420 3414 3393 3359 3280 3212 2703 0 0 2119 2116 2061 2044 2036 2032 2027 2027 2026 2023 2023 2019 2018 2017 2017 2017 2017 2017 2018 2019 2020 2021 2021 2021 2021 2021 2021 2020 2019 2017 2009 1999 1996 1987 1976 1965 1956 1944 1937 1926 1920 1910 1897 1888 1866 1857 1854 1848 1841 1837 1836 1834 1832 1832 1832 1832 1834 1837 1839 1842 1846 1851 1856 1859 1862 1864 1866 1867 1868 1868 1868 1868 1867 1866 1864 1864 1861 1858 1854 1851 1848 1847 1845 1841 1836 1831 1823 1822 1822 1822 1826 1831 1831 1831 1822 1814 1810 1808 1808 1808 1808 1808 1812 1815 1817 1818 1818 1818 1820 1822 1824 1825 1825 1825 1825 1825 1825 1825 1825 1823 1823 1823 1823 1823 1823 1823 1823 1824 1824 1824 1824 1824 1824 1824 1824 1824 1824 1824 1823 1823 1823 1823 1823 1823 1823 1822 1822 1822 1822 1822 1822 1821 1821 1820 1819 1817 1816 1813 1812 1810 1807 1804 1802 1799 1795 1792 1790 1787 1785 1782 1780 1778 1776 1774 1772 1771 1768 1768 1768 1768 1770 1770 1771 1773 1778 1782 1785 1787 1793 1796 1801 1803 1804 1807 1812 1815 1817 1820 1823 1824 1825 1826 1828 1830 1830 1831 1833 1833 1833 1834 1834 1834 1833 1833 1832 1832 1832 1832 1831 1831 1830 1830 1830 1829 1829 1828 1828 1827 1826 1826 1826 1825 1825 1824 1824 1822 1822 1822 1822 1822 1821 1820 1820 1819 1819 1819 1819 1818 1818 1817 1815 1814 1813 1812 1812 1811 1810 1810 1807 1806 1805 1804 1803 1803 1801 1801 1800 1799 1799 1799 1799 1798 1798 1798 1798 1797 1796 1795 1794 1793 1792 1791 1791 1791 1791 1790 1790 1790 1790 1790 1790 1792 1792 1792 1792 1794 1797 1797 1797 1807 1820 1843 1864 1871 1887 1897 1902 1904 1905 1906 1906 1906 1906 1904 1902 1901 1900 1899 1898 1897 1896 1894 1893 1892 1891 1890 1888 1885 1883 1882 1882 1881 1880 1878 1871 1863 1855 1840 1820 1803 0 0 0 0 0 0 0 0 0 0 0 0 0 0 0 0 0 0 0 0 0 0 0 0 0 0 0 0 0 0 0 0 0 0 0 0 0 0 0 0 0 0 0 0
2004 2015 2037 2065 2081 2094 2115 2154 2186 2204 2207 2209 2212 2224 2250 2285 2319 2337 2360 2370 2375 2378 2388 2408 2421 2433 2451 2464 2478 2504 2527 2543 2551 2561 2573 2592 2612 2629 2653 2660 2676 2690 2701 2702 2702 2707 2717 2734 2745 2754 2767 2779 2792 2793 2794 2797 2801 2811 2820 2826 2832 2835 2835 2836 2836 2839 2843 2851 2881 2903 2913 2920 2931 2938 2938 2938 2941 2941 2961 2991 3016 3026 3038 3046 3058 3072 3084 3095 3109 3120 3124 3127 3127 3129 3132 3136 3141 3144 3147 3147 3147 3145 3145 3145 3151 3159 3178 3199 3213 3226 3238 3246 3252 3259 3266 3269 3269 3271 3275 3282 3285 3288 3291 3298 3307 3318 3328 3336 3341 3346 3355 3358 3362 3364 3369 3375 3380 3382 3386 3389 3390 3394 3397 3397 3398 3398 3403 3407 3407 3407 3409 3413 3417 3418 3427 3436 3444 3446 3450 3454 3459 3461 3462 3462 3461 3459 3458 3458 3458 3458 3457 3457 3457 3456 3456 3456 3464 3470 3474 3474 3474 3474 3474 3474 3475 3476 3478 3480 3483 3488 3491 3495 3496 3497 3497 3497 3497 3499 3501 3504 3508 3510 3511 3511 3511 3507 3503 3502 3502 3502 3502 3502 3498 3493 3484 3480 3473 3465 3458 3458 3456 3455 3443 3403 3403 3403 3429 3452 3452 3452 3449 3444 3444 3444 3443 3441 3439 3435 3435 3432 3424 3415 3394 3348 3276 3153 2702 0 0 2087 2078 2052 2044 2036 2032 2027 2027 2023 2023 2021 2019 2018 2017 2016 2016 2017 2017 2018 2019 2020 2021 2021 2021 2021 2021 2019 2019 2019 2017 2009 1999 1993 1987 1976 1965 1958 1946 1938 1930 1922 1920 1905 1896 1880 1863 1855 1848 1841 1837 1835 1834 1831 1830 1830 1830 1831 1834 1838 1841 1844 1848 1852 1856 1859 1861 1864 1866 1866 1866 1866 1865 1865 1863 1861 1859 1858 1856 1852 1847 1844 1840 1840 1838 1835 1824 1820 1818 1818 1818 1819 1819 1819 1815 1810 1808 1808 1807 1806 1807 1808 1808 1812 1815 1816 1816 1817 1818 1819 1820 1822 1822 1822 1822 1822 1823 1823 1823 1823 1822 1822 1821 1821 1821 1821 1821 1821 1822 1822 1822 1822 1822 1822 1822 1822 1822 1822 1822 1822 1822 1822 1822 1822 1822 1822 1822 1822 1822 1822 1821 1821 1821 1820 1819 1818 1817 1815 1813 1811 1809 1807 1804 1801 1798 1795 1792 1790 1787 1785 1781 1780 1777 1775 1773 1771 1770 1768 1767 1767 1767 1768 1769 1771 1772 1774 1777 1781 1784 1788 1796 1799 1801 1802 1805 1810 1813 1815 1818 1820 1821 1824 1825 1826 1828 1829 1829 1831 1831 1832 1832 1832 1832 1832 1832 1832 1832 1831 1830 1830 1829 1829 1828 1828 1828 1828 1827 1827 1826 1826 1825 1824 1824 1824 1824 1823 1822 1821 1821 1821 1820 1820 1820 1820 1819 1818 1818 1817 1817 1817 1815 1814 1813 1813 1812 1810 1810 1809 1808 1806 1805 1803 1803 1802 1801 1800 1800 1799 1799 1798 1798 1798 1797 1797 1796 1796 1796 1795 1794 1793 1792 1791 1791 1790 1790 1790 1789 1789 1789 1789 1789 1790 1790 1791 1791 1792 1794 1799 1800 1800 1808 1821 1854 1864 1885 1897 1900 1902 1904 1906 1907 1907 1907 1907 1905 1903 1902 1900 1899 1898 1898 1897 1895 1895 1894 1893 1891 1890 1888 1885 1883 1882 1881 1880 1878 1871 1863 1853 1838 1820 1803 0 0 0 0 0 0 0 0 0 0 0 0 0 0 0 0 0 0 0 0 0 0 0 0 0 0 0 0 0 0 0 0 0 0 0 0 0 0 0 0 0 0 0 0
2029 2038 2051 2065 2081 2096 2130 2177 2211 2229 2229 2232 2233 2235 2254 2285 2319 2337 2360 2366 2374 2377 2387 2408 2415 2436 2459 2476 2494 2512 2532 2548 2561 2573 2585 2598 2613 2627 2653 2659 2676 2690 2702 2702 2703 2711 2726 2742 2754 2763 2772 2783 2793 2795 2797 2801 2802 2811 2820 2826 2832 2832 2833 2834 2834 2839 2843 2858 2881 2903 2913 2921 2934 2938 2939 2941 2943 2943 2958 2994 3019 3032 3042 3054 3062 3073 3085 3098 3112 3121 3127 3127 3130 3131 3133 3137 3141 3145 3147 3153 3153 3153 3158 3158 3158 3170 3185 3201 3215 3226 3238 3248 3255 3259 3266 3269 3269 3271 3275 3282 3285 3288 3291 3298 3307 3318 3327 3336 3345 3347 3358 3365 3367 3367 3373 3376 3380 3383 3386 3389 3390 3394 3397 3397 3398 3398 3403 3407 3409 3413 3414 3416 3421 3426 3431 3437 3445 3449 3450 3456 3462 3463 3464 3464 3464 3464 3464 3465 3465 3465 3463 3463 3463 3463 3464 3466 3471 3480 3483 3483 3483 3478 3475 3475 3475 3476 3478 3480 3483 3488 3491 3495 3496 3497 3498 3498 3499 3500 3501 3504 3508 3510 3511 3511 3511 3510 3506 3504 3504 3503 3502 3502 3499 3493 3488 3480 3473 3465 3458 3458 3458 3457 3457 3441 3400 3400 3400 3428 3434 3434 3437 3437 3442 3442 3442 3441 3437 3435 3435 3434 3425 3415 3394 3347 3274 2998 2581 0 0 2087 2076 2051 2041 2037 2032 2027 2022 2020 2019 2019 2018 2018 2016 2016 2016 2016 2017 2018 2019 2020 2020 2020 2020 2020 2020 2019 2019 2017 2016 2009 1999 1993 1987 1977 1970 1964 1951 1944 1932 1923 1923 1923 1903 1894 1873 1855 1849 1841 1837 1834 1831 1831 1829 1828 1828 1828 1831 1835 1839 1842 1845 1848 1852 1855 1858 1860 1863 1865 1865 1865 1862 1862 1860 1858 1855 1853 1852 1850 1847 1844 1839 1834 1832 1825 1824 1820 1815 1815 1815 1815 1815 1815 1814 1807 1806 1806 1806 1808 1808 1809 1810 1812 1814 1814 1815 1815 1816 1817 1818 1819 1819 1820 1820 1820 1820 1821 1821 1821 1821 1820 1820 1819 1819 1820 1820 1820 1821 1821 1821 1821 1821 1821 1821 1821 1821 1821 1821 1821 1821 1821 1821 1821 1821 1821 1821 1821 1821 1821 1821 1821 1820 1819 1819 1818 1816 1814 1813 1811 1809 1806 1804 1801 1798 1795 1792 1790 1787 1784 1781 1779 1776 1774 1772 1770 1769 1767 1766 1766 1766 1766 1767 1769 1771 1772 1775 1777 1780 1785 1794 1797 1799 1800 1802 1806 1810 1813 1816 1820 1821 1821 1822 1825 1826 1827 1828 1829 1830 1830 1830 1830 1830 1830 1830 1830 1830 1830 1829 1829 1828 1828 1827 1827 1827 1826 1826 1826 1825 1824 1824 1823 1823 1823 1823 1822 1821 1821 1820 1820 1820 1819 1818 1818 1817 1817 1817 1816 1816 1815 1813 1812 1811 1810 1809 1808 1808 1807 1806 1804 1803 1801 1800 1800 1799 1799 1799 1799 1798 1798 1797 1797 1797 1797 1796 1796 1796 1794 1794 1793 1792 1791 1790 1790 1789 1789 1788 1788 1788 1788 1788 1788 1790 1791 1791 1791 1796 1801 1801 1802 1808 1822 1855 1873 1894 1901 1902 1903 1904 1906 1907 1907 1907 1907 1906 1903 1903 1901 1901 1899 1899 1898 1897 1896 1895 1894 1893 1891 1890 1887 1884 1882 1881 1880 1876 1867 1859 1852 1836 1818 1803 0 0 0 0 0 0 0 0 0 0 0 0 0 0 0 0 0 0 0 0 0 0 0 0 0 0 0 0 0 0 0 0 0 0 0 0 0 0 0 0 0 0 0 0
2058 2066 2069 2081 2082 2097 2133 2178 2211 2231 2232 2238 2238 2249 2268 2285 2317 2335 2350 2353 2359 2367 2382 2406 2411 2436 2459 2476 2494 2512 2532 2553 2565 2582 2592 2601 2613 2625 2645 2651 2675 2694 2706 2706 2711 2725 2739 2758 2767 2773 2780 2787 2797 2798 2802 2804 2807 2813 2820 2826 2832 2832 2833 2833 2834 2840 2848 2879 2897 2903 2913 2927 2935 2945 2948 2948 2952 2952 2958 2991 3025 3037 3049 3057 3063 3074 3086 3099 3112 3121 3127 3127 3130 3131 3133 3138 3142 3145 3147 3153 3160 3169 3173 3173 3176 3193 3200 3206 3216 3230 3239 3248 3255 3259 3263 3265 3269 3271 3276 3282 3284 3288 3292 3298 3307 3318 3327 3336 3345 3353 3358 3365 3367 3373 3374 3376 3380 3383 3386 3389 3390 3394 3396 3396 3397 3398 3403 3407 3410 3414 3417 3421 3427 3434 3440 3443 3445 3449 3450 3457 3464 3467 3467 3467 3467 3467 3469 3472 3472 3472 3470 3470 3470 3474 3477 3480 3483 3486 3487 3487 3487 3484 3479 3478 3476 3476 3478 3480 3483 3488 3491 3493 3496 3497 3498 3499 3499 3500 3502 3504 3508 3510 3511 3511 3511 3511 3509 3507 3506 3505 3505 3503 3499 3494 3490 3482 3478 3472 3465 3465 3465 3465 3465 3465 3413 3392 3392 3392 3396 3408 3426 3428 3437 3441 3441 3441 3437 3435 3435 3434 3425 3415 3393 3347 3265 2684 0 0 2116 2087 2065 2049 2041 2038 2032 2022 2022 2019 2018 2017 2017 2017 2016 2016 2016 2016 2017 2018 2019 2020 2020 2020 2020 2020 2020 2018 2017 2017 2016 2009 1999 1993 1987 1978 1972 1968 1961 1953 1941 1928 1925 1923 1916 1898 1886 1861 1849 1844 1840 1834 1830 1827 1827 1827 1827 1827 1828 1832 1837 1839 1842 1844 1847 1851 1853 1857 1861 1863 1863 1863 1862 1861 1859 1856 1854 1853 1851 1849 1846 1842 1838 1833 1826 1824 1824 1820 1815 1811 1811 1811 1813 1813 1813 1807 1806 1806 1806 1808 1810 1810 1811 1814 1814 1814 1814 1814 1814 1816 1817 1818 1818 1818 1818 1818 1819 1819 1819 1818 1817 1817 1817 1818 1818 1818 1818 1819 1819 1819 1819 1820 1820 1820 1820 1820 1820 1820 1820 1820 1820 1820 1820 1820 1820 1820 1820 1820 1820 1820 1820 1820 1819 1819 1819 1817 1816 1814 1812 1810 1808 1806 1804 1801 1798 1795 1792 1790 1787 1784 1781 1778 1775 1773 1771 1769 1767 1766 1765 1765 1765 1765 1766 1768 1769 1771 1773 1775 1778 1781 1789 1794 1796 1797 1799 1802 1805 1810 1813 1817 1819 1819 1820 1822 1824 1824 1826 1827 1828 1829 1829 1829 1829 1829 1829 1829 1829 1829 1829 1828 1828 1827 1827 1825 1825 1825 1825 1824 1824 1824 1822 1822 1822 1822 1821 1821 1820 1820 1819 1819 1819 1818 1817 1817 1817 1816 1816 1815 1815 1814 1812 1810 1809 1808 1808 1807 1806 1805 1804 1803 1801 1800 1799 1798 1798 1798 1798 1797 1797 1797 1797 1796 1796 1795 1795 1795 1794 1794 1794 1792 1791 1791 1790 1790 1789 1788 1788 1788 1788 1788 1788 1788 1789 1790 1790 1791 1796 1801 1802 1804 1809 1829 1856 1877 1899 1904 1904 1905 1906 1906 1908 1908 1908 1907 1906 1904 1904 1903 1902 1902 1900 1899 1898 1897 1896 1895 1894 1892 1890 1888 1884 1882 1880 1879 1874 1866 1859 1852 1835 1818 1802 0 0 0 0 0 0 0 0 0 0 0 0 0 0 0 0 0 0 0 0 0 0 0 0 0 0 0 0 0 0 0 0 0 0 0 0 0 0 0 0 0 0 0 0
2063 2071 2083 2098 2114 2115 2143 2180 2211 2231 2232 2240 2243 2253 2268 2285 2317 2322 2336 2342 2345 2355 2374 2402 2406 2436 2459 2476 2494 2517 2539 2553 2568 2586 2599 2605 2613 2625 2634 2644 2674 2697 2708 2713 2719 2738 2758 2776 2782 2786 2792 2797 2801 2806 2810 2812 2814 2822 2829 2833 2833 2833 2833 2833 2834 2840 2867 2905 2917 2923 2927 2943 2946 2957 2957 2957 2955 2955 2955 2991 3025 3042 3050 3057 3066 3076 3091 3101 3112 3121 3124 3127 3130 3131 3133 3138 3141 3145 3146 3153 3160 3171 3181 3188 3195 3199 3203 3212 3216 3231 3239 3248 3255 3259 3261 3263 3268 3271 3276 3282 3284 3288 3293 3298 3307 3318 3327 3333 3345 3353 3358 3365 3367 3373 3374 3377 3381 3384 3386 3388 3389 3392 3394 3395 3396 3398 3401 3407 3410 3414 3417 3421 3427 3435 3443 3448 3451 3451 3456 3462 3468 3468 3468 3468 3468 3468 3470 3475 3475 3476 3477 3477 3479 3483 3484 3486 3486 3489 3492 3492 3492 3492 3489 3485 3484 3484 3484 3485 3488 3489 3490 3491 3493 3498 3499 3499 3500 3501 3503 3504 3508 3509 3511 3511 3511 3511 3509 3509 3509 3508 3506 3503 3500 3498 3493 3491 3490 3489 3477 3470 3469 3469 3465 3465 3460 3430 3396 3387 3387 3396 3416 3424 3435 3444 3444 3444 3438 3437 3436 3434 3425 3408 3384 3338 3248 2671 0 0 2109 2106 2059 2047 2043 2039 2030 2022 2022 2018 2017 2017 2016 2016 2016 2016 2016 2016 2017 2018 2019 2020 2020 2020 2020 2020 2019 2018 2017 2016 2016 2009 2001 1993 1988 1979 1972 1968 1966 1960 1951 1937 1929 1927 1920 1902 1889 1876 1855 1846 1840 1834 1829 1825 1824 1824 1824 1825 1826 1828 1833 1838 1838 1840 1842 1847 1850 1853 1858 1860 1860 1860 1860 1858 1857 1855 1854 1852 1849 1847 1842 1838 1833 1830 1826 1824 1824 1819 1815 1811 1811 1811 1812 1812 1812 1807 1806 1806 1806 1811 1812 1812 1813 1815 1815 1815 1814 1814 1814 1815 1816 1816 1816 1817 1817 1817 1818 1818 1818 1817 1816 1816 1816 1816 1816 1817 1817 1817 1817 1818 1818 1818 1818 1819 1819 1819 1819 1819 1819 1820 1820 1820 1820 1820 1820 1819 1819 1819 1819 1819 1819 1819 1819 1818 1818 1817 1815 1814 1812 1810 1808 1806 1804 1801 1798 1795 1792 1790 1787 1784 1781 1778 1775 1772 1770 1767 1766 1765 1763 1763 1763 1763 1764 1766 1767 1769 1771 1773 1774 1777 1780 1789 1793 1795 1797 1800 1802 1807 1812 1815 1816 1817 1818 1820 1822 1824 1825 1826 1827 1827 1827 1827 1827 1827 1827 1827 1828 1828 1828 1827 1827 1826 1826 1825 1825 1824 1823 1823 1822 1822 1822 1821 1821 1821 1820 1820 1819 1819 1819 1818 1818 1818 1816 1816 1816 1815 1815 1814 1813 1812 1810 1809 1808 1807 1807 1806 1804 1804 1803 1801 1800 1799 1799 1797 1797 1797 1796 1796 1796 1795 1795 1795 1794 1794 1794 1794 1793 1793 1792 1792 1791 1790 1790 1789 1788 1788 1788 1788 1788 1788 1788 1788 1789 1789 1790 1791 1796 1801 1804 1808 1815 1834 1858 1892 1905 1906 1906 1907 1907 1907 1908 1908 1908 1907 1906 1905 1904 1904 1903 1903 1901 1900 1899 1898 1897 1896 1895 1893 1891 1888 1884 1882 1880 1879 1874 1866 1859 1852 1835 1818 1802 0 0 0 0 0 0 0 0 0 0 0 0 0 0 0 0 0 0 0 0 0 0 0 0 0 0 0 0 0 0 0 0 0 0 0 0 0 0 0 0 0 0 0 0
2063 2086 2106 2125 2129 2136 2155 2180 2211 2225 2233 2241 2248 2253 2268 2282 2298 2322 2336 2342 2345 2355 2374 2386 2399 2431 2452 2469 2495 2517 2539 2554 2570 2590 2613 2617 2617 2625 2634 2644 2670 2697 2718 2724 2731 2750 2771 2788 2796 2799 2800 2801 2806 2810 2817 2823 2827 2836 2840 2842 2842 2842 2837 2837 2837 2848 2889 2918 2932 2941 2942 2947 2954 2964 2964 2964 2961 2961 2961 2980 3025 3046 3056 3058 3066 3076 3092 3102 3110 3114 3117 3120 3126 3129 3133 3138 3141 3144 3145 3152 3161 3173 3186 3194 3196 3201 3210 3218 3227 3234 3244 3250 3258 3259 3261 3263 3268 3272 3276 3279 3282 3288 3293 3298 3306 3313 3320 3333 3345 3353 3357 3362 3367 3373 3375 3379 3381 3384 3385 3385 3386 3390 3394 3395 3396 3398 3401 3406 3409 3414 3417 3421 3427 3435 3443 3448 3455 3460 3464 3467 3471 3471 3471 3471 3471 3471 3471 3475 3477 3477 3479 3479 3486 3488 3488 3490 3492 3494 3498 3499 3500 3500 3500 3499 3495 3494 3492 3491 3491 3491 3491 3491 3493 3498 3499 3500 3500 3501 3503 3505 3508 3509 3510 3511 3511 3511 3511 3511 3510 3510 3507 3504 3502 3499 3499 3499 3497 3495 3487 3475 3469 3469 3469 3475 3475 3475 3438 3396 3396 3396 3407 3411 3435 3444 3445 3445 3445 3440 3432 3423 3418 3392 3360 3311 3182 2585 0 0 2112 2091 2054 2047 2043 2039 2030 2022 2020 2018 2016 2016 2016 2015 2015 2016 2016 2016 2017 2018 2019 2019 2020 2020 2020 2020 2019 2018 2017 2016 2015 2009 2001 1993 1988 1979 1974 1969 1967 1964 1958 1945 1933 1927 1922 1908 1897 1885 1864 1850 1844 1836 1829 1825 1823 1822 1822 1823 1823 1824 1827 1832 1835 1836 1839 1842 1847 1850 1853 1856 1858 1858 1858 1854 1853 1852 1851 1851 1849 1845 1842 1838 1832 1829 1826 1824 1824 1819 1815 1810 1809 1809 1809 1810 1810 1810 1809 1809 1809 1811 1812 1813 1814 1815 1815 1815 1814 1814 1814 1815 1815 1816 1816 1816 1816 1816 1816 1816 1815 1815 1815 1815 1815 1815 1816 1816 1816 1816 1817 1817 1817 1818 1818 1818 1818 1818 1818 1818 1818 1819 1819 1819 1819 1819 1819 1819 1819 1819 1819 1819 1819 1819 1818 1817 1817 1816 1815 1814 1812 1810 1808 1806 1804 1801 1798 1795 1793 1790 1787 1784 1781 1778 1775 1772 1769 1767 1765 1763 1762 1762 1762 1762 1763 1763 1764 1767 1769 1770 1771 1775 1777 1784 1790 1793 1795 1798 1801 1806 1809 1812 1814 1816 1816 1818 1820 1822 1823 1824 1825 1826 1826 1826 1826 1826 1826 1827 1826 1826 1826 1826 1826 1825 1825 1824 1823 1823 1823 1822 1821 1821 1821 1821 1821 1820 1820 1819 1818 1817 1817 1817 1816 1816 1815 1815 1814 1814 1814 1812 1812 1811 1809 1808 1807 1806 1805 1805 1804 1803 1801 1801 1799 1798 1797 1797 1796 1795 1795 1795 1794 1794 1794 1793 1793 1793 1793 1793 1792 1792 1791 1791 1790 1790 1789 1788 1787 1787 1787 1787 1787 1787 1787 1787 1788 1788 1789 1791 1794 1798 1804 1812 1826 1844 1868 1897 1906 1907 1907 1907 1907 1908 1908 1908 1908 1908 1907 1906 1905 1905 1905 1904 1903 1902 1901 1899 1899 1898 1896 1895 1892 1888 1885 1882 1880 1879 1874 1866 1859 1848 1834 1823 1802 1772 0 0 0 0 0 0 0 0 0 0 0 0 0 0 0 0 0 0 0 0 0 0 0 0 0 0 0 0 0 0 0 0 0 0 0 0 0 0 0 0 0 0 0
2070 2091 2125 2144 2154 2163 2174 2190 2210 2222 2231 2241 2250 2257 2260 2270 2298 2322 2336 2342 2345 2355 2374 2386 2399 2429 2449 2469 2495 2517 2539 2561 2585 2610 2621 2623 2623 2629 2634 2644 2670 2698 2718 2726 2738 2759 2781 2795 2800 2801 2801 2802 2806 2811 2821 2834 2847 2848 2849 2849 2849 2849 2849 2858 2859 2867 2901 2926 2943 2954 2955 2959 2959 2968 2968 2968 2964 2964 2964 2967 3010 3046 3061 3065 3068 3078 3095 3104 3107 3108 3111 3115 3118 3124 3130 3138 3142 3144 3145 3152 3161 3174 3188 3195 3200 3208 3214 3226 3238 3247 3255 3259 3261 3262 3263 3263 3269 3274 3276 3279 3282 3287 3293 3298 3304 3313 3320 3330 3337 3345 3349 3353 3361 3369 3376 3380 3383 3384 3385 3385 3385 3390 3394 3395 3396 3399 3401 3406 3409 3410 3416 3427 3431 3437 3444 3450 3455 3460 3465 3469 3472 3472 3472 3472 3472 3472 3472 3475 3477 3479 3480 3483 3486 3488 3488 3490 3495 3500 3500 3500 3501 3501 3502 3502 3502 3499 3498 3498 3498 3496 3493 3493 3493 3498 3501 3501 3501 3501 3504 3506 3508 3509 3510 3513 3513 3513 3513 3512 3512 3511 3509 3507 3503 3502 3502 3500 3500 3495 3487 3475 3469 3469 3469 3479 3490 3490 3490 3467 3410 3407 3407 3407 3417 3437 3452 3452 3452 3447 3431 3414 3395 3372 3342 3286 3066 0 0 0 2112 2080 2053 2045 2041 2038 2030 2022 2020 2018 2016 2016 2016 2015 2015 2015 2015 2015 2017 2018 2018 2019 2020 2020 2020 2020 2018 2018 2016 2015 2014 2009 2002 1994 1989 1980 1977 1973 1970 1964 1959 1948 1939 1931 1925 1919 1905 1894 1872 1858 1847 1837 1829 1824 1822 1821 1821 1821 1822 1822 1822 1826 1830 1832 1836 1838 1842 1847 1850 1852 1854 1854 1854 1852 1851 1850 1850 1850 1847 1844 1841 1835 1832 1828 1824 1824 1822 1819 1815 1810 1808 1808 1808 1810 1810 1810 1809 1809 1809 1811 1812 1813 1814 1815 1815 1815 1814 1814 1814 1814 1814 1814 1815 1815 1815 1815 1815 1814 1813 1813 1813 1814 1814 1814 1815 1815 1815 1815 1815 1816 1816 1816 1816 1816 1816 1817 1817 1817 1817 1817 1818 1818 1818 1818 1818 1818 1818 1818 1818 1818 1818 1818 1818 1817 1816 1815 1815 1814 1812 1810 1808 1806 1804 1801 1798 1796 1793 1790 1787 1784 1781 1778 1775 1772 1769 1767 1765 1763 1762 1761 1761 1761 1761 1761 1762 1764 1766 1767 1770 1772 1775 1779 1785 1791 1793 1796 1801 1805 1807 1809 1811 1814 1815 1817 1819 1820 1821 1823 1824 1824 1825 1825 1826 1826 1826 1826 1826 1826 1826 1825 1824 1823 1823 1823 1821 1821 1821 1820 1820 1820 1820 1819 1819 1819 1818 1817 1817 1816 1816 1815 1815 1814 1814 1813 1813 1812 1812 1811 1811 1810 1808 1806 1806 1805 1804 1803 1802 1801 1800 1798 1798 1797 1796 1796 1795 1795 1793 1793 1793 1793 1793 1793 1792 1792 1791 1791 1791 1791 1790 1790 1790 1789 1788 1788 1787 1786 1786 1786 1786 1786 1786 1786 1786 1787 1788 1789 1794 1798 1806 1814 1833 1854 1875 1898 1907 1907 1907 1907 1907 1909 1909 1909 1909 1908 1907 1907 1906 1905 1905 1905 1903 1903 1902 1900 1900 1899 1898 1896 1893 1890 1885 1883 1882 1880 1880 1870 1860 1844 1834 1825 1806 1790 0 0 0 0 0 0 0 0 0 0 0 0 0 0 0 0 0 0 0 0 0 0 0 0 0 0 0 0 0 0 0 0 0 0 0 0 0 0 0 0 0 0 0
2072 2097 2138 2164 2180 2186 2189 2190 2210 2215 2229 2245 2256 2257 2260 2270 2298 2322 2344 2365 2368 2372 2382 2386 2399 2429 2449 2469 2498 2524 2550 2573 2599 2615 2623 2624 2624 2631 2635 2651 2670 2698 2718 2726 2741 2765 2787 2796 2800 2801 2802 2803 2807 2813 2827 2845 2855 2855 2855 2853 2853 2853 2878 2880 2881 2887 2911 2943 2960 2963 2963 2964 2964 2970 2970 2970 2964 2955 2955 2955 2996 3046 3064 3066 3072 3086 3097 3104 3105 3105 3108 3111 3116 3123 3130 3138 3142 3144 3145 3152 3163 3175 3188 3200 3208 3215 3221 3235 3247 3251 3258 3261 3261 3264 3264 3267 3270 3274 3276 3279 3282 3287 3293 3298 3304 3313 3320 3330 3337 3345 3349 3353 3361 3369 3377 3382 3384 3384 3385 3385 3385 3390 3396 3398 3401 3402 3404 3408 3409 3410 3416 3427 3431 3437 3444 3450 3457 3462 3466 3469 3472 3472 3472 3472 3472 3472 3472 3475 3477 3479 3480 3483 3486 3488 3488 3490 3495 3500 3500 3501 3501 3501 3502 3502 3502 3502 3502 3502 3500 3499 3499 3499 3500 3503 3503 3503 3503 3503 3504 3507 3508 3509 3510 3513 3513 3513 3513 3513 3513 3512 3511 3508 3506 3504 3503 3502 3500 3495 3487 3475 3469 3469 3469 3479 3494 3494 3494 3479 3458 3431 3407 3407 3407 3407 3446 3447 3447 3447 3430 3412 3395 3372 3330 3272 3010 0 0 2114 2109 2069 2048 2042 2039 2038 2030 2022 2018 2018 2016 2015 2015 2015 2015 2015 2015 2015 2016 2017 2018 2019 2020 2020 2020 2020 2018 2017 2016 2014 2013 2009 2003 1996 1990 1982 1979 1977 1971 1967 1960 1950 1939 1936 1931 1927 1914 1897 1884 1863 1849 1837 1829 1824 1821 1820 1819 1819 1819 1820 1821 1823 1826 1829 1832 1836 1838 1842 1845 1847 1849 1850 1850 1850 1850 1849 1849 1848 1847 1844 1839 1835 1832 1827 1824 1822 1821 1818 1812 1810 1808 1808 1808 1810 1810 1810 1809 1809 1809 1809 1810 1812 1814 1814 1814 1814 1814 1814 1814 1813 1813 1813 1813 1813 1813 1813 1813 1813 1813 1812 1812 1812 1813 1813 1814 1814 1814 1814 1814 1815 1814 1815 1815 1815 1815 1816 1816 1816 1816 1817 1817 1818 1818 1818 1818 1818 1817 1818 1818 1818 1817 1817 1817 1816 1816 1815 1814 1813 1812 1810 1808 1806 1804 1801 1799 1796 1793 1790 1787 1784 1781 1778 1775 1772 1769 1767 1765 1763 1762 1761 1760 1760 1760 1760 1761 1762 1764 1766 1767 1768 1771 1776 1778 1783 1790 1794 1799 1801 1805 1808 1810 1811 1814 1815 1817 1818 1819 1821 1822 1823 1824 1825 1825 1825 1825 1825 1825 1825 1825 1824 1823 1822 1822 1821 1821 1820 1820 1819 1819 1819 1819 1817 1817 1817 1817 1817 1816 1815 1815 1814 1814 1813 1812 1812 1812 1811 1811 1810 1809 1807 1807 1805 1804 1803 1803 1801 1801 1799 1798 1797 1796 1795 1795 1794 1794 1793 1793 1792 1792 1792 1792 1792 1791 1791 1790 1790 1790 1790 1790 1790 1789 1788 1788 1786 1786 1785 1785 1785 1785 1785 1786 1786 1786 1787 1788 1789 1794 1798 1808 1817 1842 1860 1882 1902 1909 1909 1909 1909 1910 1910 1910 1910 1909 1908 1908 1908 1907 1907 1906 1905 1904 1904 1902 1902 1901 1899 1898 1896 1893 1890 1887 1883 1882 1882 1880 1876 1863 1844 1834 1826 1812 1790 0 0 0 0 0 0 0 0 0 0 0 0 0 0 0 0 0 0 0 0 0 0 0 0 0 0 0 0 0 0 0 0 0 0 0 0 0 0 0 0 0 0 0
2075 2112 2148 2175 2186 2189 2190 2193 2210 2215 2227 2257 2258 2260 2263 2270 2304 2341 2370 2384 2388 2393 2398 2405 2416 2429 2449 2469 2498 2524 2553 2578 2605 2617 2623 2624 2624 2631 2635 2658 2680 2698 2719 2730 2744 2768 2789 2796 2800 2803 2803 2806 2810 2821 2835 2853 2864 2864 2864 2865 2865 2871 2894 2894 2897 2917 2933 2951 2963 2967 2969 2971 2974 2974 2974 2974 2964 2955 2955 2955 2995 3039 3064 3070 3082 3092 3100 3105 3105 3105 3108 3111 3116 3123 3130 3139 3144 3147 3152 3159 3166 3176 3188 3202 3215 3223 3230 3240 3248 3254 3258 3261 3265 3267 3270 3277 3282 3282 3284 3284 3285 3288 3294 3298 3304 3313 3324 3330 3337 3345 3349 3353 3361 3369 3377 3384 3384 3385 3386 3386 3386 3393 3402 3404 3405 3406 3407 3408 3409 3410 3416 3427 3437 3443 3448 3452 3457 3463 3466 3469 3472 3472 3472 3472 3472 3472 3472 3475 3477 3479 3480 3483 3486 3488 3488 3491 3496 3502 3502 3502 3504 3504 3505 3506 3506 3506 3505 3503 3503 3503 3503 3505 3510 3510 3510 3510 3509 3507 3507 3507 3508 3509 3511 3513 3513 3513 3514 3514 3514 3514 3514 3513 3510 3507 3506 3503 3502 3494 3487 3475 3473 3473 3473 3484 3494 3494 3494 3482 3468 3459 3438 3407 3407 3407 3443 3447 3447 3447 3430 3406 3390 3369 3330 3166 2636 0 0 2142 2101 2054 2042 2039 2039 2038 2031 2023 2018 2017 2016 2015 2015 2015 2014 2014 2014 2015 2016 2017 2018 2019 2019 2019 2019 2019 2018 2017 2016 2014 2013 2009 2003 1997 1992 1984 1981 1977 1972 1968 1961 1953 1943 1939 1934 1929 1921 1904 1889 1873 1852 1840 1829 1824 1821 1820 1819 1819 1819 1819 1819 1820 1823 1826 1830 1834 1835 1838 1843 1844 1846 1846 1848 1848 1848 1848 1848 1846 1844 1843 1839 1834 1832 1827 1822 1821 1820 1817 1808 1802 1802 1802 1808 1808 1808 1808 1808 1805 1805 1805 1806 1810 1812 1814 1814 1814 1813 1813 1812 1812 1812 1812 1813 1813 1813 1813 1813 1812 1812 1812 1812 1812 1812 1812 1812 1812 1812 1813 1813 1813 1813 1813 1813 1813 1813 1814 1815 1815 1815 1816 1816 1816 1817 1817 1817 1817 1817 1817 1817 1817 1817 1817 1816 1816 1815 1815 1814 1812 1811 1810 1808 1806 1804 1801 1799 1796 1793 1790 1787 1784 1781 1778 1775 1772 1769 1767 1765 1763 1762 1761 1760 1760 1760 1760 1760 1761 1762 1763 1765 1766 1767 1772 1776 1779 1785 1791 1795 1799 1802 1805 1807 1809 1810 1813 1815 1817 1817 1819 1821 1822 1822 1822 1824 1825 1825 1825 1825 1824 1823 1823 1823 1821 1821 1821 1820 1820 1819 1819 1818 1818 1817 1817 1816 1816 1816 1816 1815 1815 1814 1813 1813 1812 1812 1812 1810 1810 1809 1808 1807 1806 1805 1803 1803 1802 1801 1800 1800 1798 1797 1795 1795 1794 1793 1793 1792 1792 1791 1791 1791 1791 1791 1790 1790 1790 1790 1789 1789 1789 1789 1789 1788 1788 1786 1786 1785 1784 1783 1783 1783 1783 1784 1785 1785 1786 1787 1789 1794 1798 1814 1825 1848 1862 1892 1911 1911 1911 1910 1910 1910 1910 1910 1910 1910 1909 1908 1908 1908 1907 1906 1906 1905 1905 1902 1902 1902 1901 1899 1896 1893 1890 1887 1883 1882 1882 1880 1876 1868 1844 1838 1832 1813 1790 1775 0 0 0 0 0 0 0 0 0 0 0 0 0 0 0 0 0 0 0 0 0 0 0 0 0 0 0 0 0 0 0 0 0 0 0 0 0 0 0 0 0 0
2098 2133 2155 2180 2186 2186 2192 2193 2195 2200 2220 2258 2271 2278 2280 2290 2313 2341 2370 2388 2397 2408 2412 2425 2434 2445 2456 2478 2498 2524 2553 2578 2608 2618 2622 2624 2627 2631 2636 2658 2681 2700 2719 2730 2747 2769 2789 2796 2799 2803 2810 2819 2822 2831 2847 2854 2864 2865 2867 2872 2883 2887 2894 2898 2913 2932 2942 2954 2964 2968 2975 2976 2976 2976 2976 2973 2964 2955 2955 2955 2988 3037 3064 3074 3092 3102 3105 3105 3105 3105 3108 3111 3116 3123 3134 3144 3151 3154 3159 3164 3171 3178 3189 3205 3218 3229 3239 3247 3251 3257 3259 3263 3265 3267 3273 3282 3291 3294 3294 3294 3294 3294 3294 3300 3306 3314 3324 3332 3342 3349 3353 3357 3366 3375 3382 3389 3389 3389 3389 3389 3389 3395 3405 3408 3409 3410 3410 3413 3415 3420 3425 3433 3441 3448 3452 3458 3461 3462 3466 3469 3470 3471 3472 3472 3473 3473 3474 3476 3477 3479 3481 3483 3486 3488 3488 3491 3496 3502 3502 3502 3504 3504 3505 3510 3510 3510 3510 3510 3510 3510 3511 3515 3518 3518 3518 3516 3515 3511 3511 3509 3509 3509 3511 3512 3513 3513 3514 3514 3515 3515 3515 3515 3513 3512 3510 3504 3502 3494 3487 3475 3474 3474 3474 3487 3494 3494 3494 3482 3472 3459 3451 3431 3431 3431 3443 3443 3443 3433 3419 3406 3390 3367 3322 3080 0 0 0 2142 2077 2048 2041 2039 2038 2038 2031 2023 2018 2017 2016 2015 2014 2014 2014 2014 2014 2015 2016 2017 2018 2018 2019 2019 2019 2019 2019 2017 2016 2014 2013 2009 2003 1998 1992 1986 1981 1978 1973 1970 1966 1959 1952 1941 1937 1932 1931 1915 1896 1882 1861 1844 1829 1824 1821 1820 1818 1817 1817 1817 1817 1817 1818 1823 1828 1831 1833 1835 1839 1842 1843 1844 1845 1846 1846 1846 1846 1844 1843 1841 1837 1834 1830 1826 1822 1818 1815 1814 1806 1794 1792 1792 1792 1803 1803 1804 1805 1805 1805 1805 1806 1808 1811 1811 1812 1812 1812 1812 1812 1812 1812 1812 1811 1812 1812 1811 1811 1811 1811 1811 1811 1811 1811 1811 1811 1811 1812 1812 1812 1812 1812 1812 1812 1812 1812 1813 1813 1814 1815 1815 1815 1816 1816 1816 1816 1816 1816 1816 1816 1816 1816 1816 1815 1815 1814 1813 1812 1812 1811 1809 1808 1806 1804 1801 1799 1796 1793 1790 1787 1784 1782 1778 1775 1772 1769 1768 1765 1763 1762 1760 1759 1759 1759 1759 1759 1759 1761 1762 1763 1763 1764 1769 1774 1778 1783 1788 1793 1796 1801 1803 1806 1806 1808 1811 1813 1815 1816 1818 1820 1820 1820 1822 1823 1823 1824 1824 1824 1823 1823 1822 1822 1821 1821 1820 1820 1819 1818 1818 1818 1818 1817 1816 1816 1815 1815 1815 1814 1814 1814 1813 1813 1812 1811 1811 1809 1808 1807 1806 1805 1804 1803 1802 1801 1799 1799 1798 1798 1797 1796 1794 1794 1792 1792 1792 1791 1790 1790 1790 1790 1790 1790 1790 1789 1788 1788 1788 1788 1788 1788 1788 1787 1787 1785 1784 1784 1783 1783 1783 1783 1783 1783 1783 1783 1785 1788 1790 1796 1804 1819 1833 1856 1869 1898 1911 1911 1911 1911 1911 1912 1912 1912 1911 1910 1909 1909 1909 1909 1907 1907 1907 1905 1905 1904 1903 1902 1901 1899 1896 1893 1890 1887 1882 1882 1880 1878 1876 1868 1854 1844 1834 1819 1797 1777 1755 0 0 0 0 0 0 0 0 0 0 0 0 0 0 0 0 0 0 0 0 0 0 0 0 0 0 0 0 0 0 0 0 0 0 0 0 0 0 0 0 0
2118 2142 2165 2183 2184 2184 2186 2186 2186 2189 2220 2258 2280 2302 2306 2310 2319 2346 2371 2391 2397 2412 2416 2442 2451 2456 2469 2480 2498 2518 2553 2578 2609 2618 2622 2624 2628 2631 2636 2658 2681 2700 2719 2737 2755 2773 2789 2796 2799 2803 2817 2824 2829 2840 2847 2855 2864 2865 2867 2872 2884 2890 2896 2900 2921 2936 2944 2956 2967 2970 2976 2979 2979 2979 2979 2973 2964 2956 2956 2956 2987 3027 3059 3074 3098 3110 3110 3110 3110 3110 3110 3113 3121 3130 3140 3147 3152 3156 3161 3168 3180 3191 3200 3211 3221 3231 3239 3250 3251 3258 3259 3263 3265 3272 3278 3286 3297 3300 3302 3302 3303 3304 3305 3306 3308 3314 3324 3334 3344 3349 3353 3363 3372 3381 3390 3394 3394 3395 3395 3395 3396 3398 3405 3409 3413 3414 3416 3419 3424 3426 3432 3439 3444 3448 3452 3458 3461 3462 3466 3467 3468 3469 3472 3473 3474 3475 3476 3477 3477 3479 3481 3483 3486 3489 3490 3495 3500 3504 3507 3507 3508 3509 3511 3513 3513 3513 3513 3517 3519 3521 3524 3525 3525 3525 3522 3519 3516 3513 3511 3510 3510 3510 3511 3512 3513 3513 3513 3513 3516 3516 3516 3516 3513 3513 3512 3509 3502 3494 3487 3479 3479 3479 3480 3489 3489 3489 3489 3482 3472 3459 3451 3431 3431 3431 3443 3443 3443 3433 3419 3412 3390 3365 3320 2899 0 0 2150 2142 2070 2048 2040 2038 2037 2037 2031 2025 2019 2016 2016 2015 2014 2014 2014 2014 2014 2014 2015 2016 2017 2018 2019 2019 2019 2019 2019 2017 2016 2015 2013 2009 2004 2000 1993 1986 1983 1981 1974 1971 1968 1966 1958 1945 1942 1938 1938 1925 1904 1889 1871 1848 1831 1825 1822 1820 1818 1814 1814 1814 1815 1815 1816 1821 1824 1826 1830 1832 1836 1838 1839 1841 1842 1843 1844 1844 1844 1842 1840 1839 1835 1830 1830 1826 1822 1816 1810 1800 1791 1765 1765 1765 1771 1775 1790 1800 1804 1804 1805 1805 1805 1808 1810 1811 1811 1811 1811 1811 1811 1811 1811 1811 1811 1811 1810 1810 1810 1810 1810 1810 1810 1810 1810 1810 1810 1810 1810 1810 1811 1811 1811 1811 1811 1811 1811 1812 1813 1813 1813 1813 1815 1815 1815 1815 1815 1815 1815 1815 1815 1815 1815 1815 1815 1815 1814 1812 1812 1811 1810 1809 1808 1806 1804 1801 1799 1796 1793 1790 1788 1785 1782 1778 1775 1772 1769 1768 1766 1764 1762 1761 1759 1758 1758 1758 1758 1758 1758 1760 1762 1762 1764 1767 1771 1777 1781 1786 1790 1795 1798 1801 1804 1804 1807 1809 1811 1814 1815 1817 1818 1819 1820 1821 1821 1821 1821 1822 1822 1821 1821 1821 1821 1821 1820 1819 1819 1818 1818 1818 1816 1816 1815 1815 1815 1815 1814 1814 1814 1813 1813 1812 1812 1811 1810 1809 1807 1806 1805 1804 1803 1803 1801 1800 1798 1798 1797 1797 1796 1795 1795 1793 1792 1792 1791 1791 1790 1789 1789 1789 1789 1789 1788 1788 1788 1787 1787 1787 1787 1787 1787 1787 1786 1785 1785 1784 1783 1783 1783 1783 1782 1782 1782 1782 1783 1785 1788 1791 1797 1808 1825 1844 1862 1880 1906 1911 1911 1911 1911 1911 1912 1912 1912 1911 1910 1910 1910 1910 1909 1909 1908 1907 1907 1905 1904 1904 1904 1902 1899 1896 1893 1890 1887 1882 1876 1876 1873 1873 1868 1854 1844 1834 1819 1797 1777 1756 0 0 0 0 0 0 0 0 0 0 0 0 0 0 0 0 0 0 0 0 0 0 0 0 0 0 0 0 0 0 0 0 0 0 0 0 0 0 0 0 0
2118 2142 2165 2183 2183 2183 2182 2182 2182 2188 2216 2255 2280 2311 2322 2329 2335 2347 2372 2392 2411 2415 2437 2452 2470 2475 2479 2480 2496 2504 2533 2576 2609 2617 2622 2624 2629 2630 2635 2655 2681 2697 2719 2748 2763 2779 2790 2796 2799 2808 2819 2824 2832 2842 2848 2856 2861 2864 2866 2874 2885 2892 2896 2907 2927 2940 2947 2956 2967 2970 2976 2983 2983 2983 2979 2973 2964 2960 2960 2960 2982 3017 3047 3074 3098 3110 3115 3116 3117 3118 3121 3124 3129 3137 3145 3149 3152 3156 3164 3181 3191 3198 3207 3217 3228 3238 3246 3254 3259 3259 3261 3265 3271 3281 3289 3297 3300 3303 3305 3306 3308 3311 3312 3313 3313 3314 3324 3335 3345 3350 3357 3368 3377 3386 3394 3396 3398 3398 3399 3399 3400 3401 3405 3410 3416 3422 3427 3432 3437 3439 3441 3442 3444 3448 3452 3458 3461 3462 3464 3466 3468 3469 3472 3474 3476 3477 3477 3479 3480 3482 3482 3487 3488 3494 3496 3499 3503 3507 3511 3514 3514 3515 3515 3515 3515 3516 3516 3519 3527 3530 3531 3531 3531 3530 3526 3522 3516 3513 3512 3510 3509 3509 3509 3511 3513 3513 3514 3514 3516 3516 3516 3516 3513 3513 3512 3512 3507 3503 3494 3485 3485 3485 3485 3486 3486 3486 3483 3477 3472 3459 3451 3432 3432 3432 3448 3448 3448 3433 3419 3412 3394 3362 3299 2697 0 0 2140 2113 2068 2046 2040 2038 2036 2036 2030 2025 2019 2016 2014 2014 2014 2013 2013 2013 2014 2014 2014 2016 2017 2018 2019 2019 2019 2019 2019 2018 2018 2015 2013 2008 2004 2000 1995 1987 1984 1982 1977 1972 1969 1969 1961 1950 1946 1945 1939 1934 1919 1899 1883 1859 1838 1826 1823 1820 1817 1813 1813 1813 1813 1813 1814 1817 1821 1823 1826 1828 1830 1833 1836 1837 1839 1841 1841 1841 1841 1839 1838 1836 1832 1827 1826 1826 1822 1816 1802 1768 1738 1726 1722 1722 1726 1730 1752 1787 1799 1802 1803 1805 1805 1808 1810 1810 1810 1810 1810 1810 1810 1810 1810 1810 1810 1810 1810 1810 1810 1810 1809 1809 1809 1809 1809 1809 1809 1809 1809 1810 1810 1810 1810 1811 1811 1811 1811 1811 1812 1812 1813 1813 1814 1814 1815 1815 1815 1815 1815 1815 1815 1815 1815 1814 1814 1814 1813 1812 1812 1811 1810 1809 1807 1806 1804 1801 1799 1796 1793 1790 1788 1785 1782 1779 1775 1772 1770 1768 1766 1764 1762 1761 1759 1758 1756 1756 1756 1756 1757 1758 1759 1760 1762 1765 1769 1773 1778 1783 1788 1793 1796 1799 1803 1803 1805 1807 1810 1812 1813 1815 1816 1817 1817 1819 1819 1820 1820 1821 1821 1821 1820 1820 1820 1820 1819 1819 1818 1817 1817 1816 1816 1815 1814 1814 1814 1814 1813 1813 1812 1812 1811 1811 1811 1809 1808 1807 1806 1805 1804 1803 1802 1801 1800 1799 1797 1797 1796 1795 1795 1795 1794 1793 1792 1792 1790 1790 1789 1788 1788 1788 1787 1787 1787 1787 1786 1786 1786 1786 1786 1786 1785 1785 1785 1784 1784 1783 1783 1783 1782 1782 1782 1782 1782 1782 1783 1785 1789 1793 1799 1814 1831 1852 1866 1888 1907 1910 1910 1911 1911 1911 1912 1912 1912 1911 1910 1910 1910 1910 1910 1909 1909 1908 1907 1906 1905 1905 1904 1902 1899 1896 1893 1889 1886 1882 1876 1872 1871 1868 1867 1854 1844 1834 1819 1798 1783 1783 1778 0 0 0 0 0 0 0 0 0 0 0 0 0 0 0 0 0 0 0 0 0 0 0 0 0 0 0 0 0 0 0 0 0 0 0 0 0 0 0 0
2118 2142 2165 2183 2183 2183 2182 2182 2182 2187 2214 2250 2280 2316 2339 2349 2351 2353 2372 2404 2429 2445 2466 2470 2475 2476 2479 2480 2480 2486 2513 2574 2608 2617 2622 2624 2629 2630 2635 2639 2665 2696 2719 2748 2768 2785 2794 2796 2800 2810 2820 2826 2833 2842 2849 2856 2861 2864 2866 2874 2886 2893 2897 2912 2928 2943 2955 2963 2966 2970 2977 2991 2992 2992 2992 2974 2965 2962 2962 2962 2981 3008 3039 3068 3098 3110 3115 3116 3117 3119 3127 3132 3133 3138 3146 3151 3159 3162 3178 3193 3197 3202 3214 3225 3240 3248 3255 3260 3263 3263 3266 3271 3282 3294 3295 3298 3301 3304 3305 3308 3311 3316 3318 3321 3323 3323 3329 3336 3347 3356 3359 3373 3383 3387 3394 3397 3399 3399 3403 3403 3405 3405 3407 3413 3423 3430 3434 3438 3441 3442 3442 3442 3445 3449 3452 3456 3460 3461 3464 3465 3468 3469 3473 3476 3478 3479 3479 3479 3480 3482 3484 3487 3491 3494 3499 3503 3506 3509 3512 3517 3518 3518 3518 3516 3516 3516 3517 3524 3531 3532 3532 3532 3531 3530 3528 3523 3517 3515 3512 3511 3508 3508 3508 3509 3513 3513 3513 3514 3516 3516 3516 3516 3513 3513 3513 3512 3510 3505 3500 3494 3492 3492 3491 3491 3491 3482 3479 3473 3466 3439 3428 3428 3428 3432 3455 3455 3455 3443 3433 3423 3390 3351 3193 2507 0 0 2100 2097 2059 2043 2040 2038 2035 2034 2029 2025 2019 2015 2013 2013 2013 2013 2013 2013 2013 2013 2014 2015 2017 2018 2019 2019 2020 2020 2019 2019 2018 2016 2013 2008 2004 2000 1995 1988 1985 1984 1979 1975 1973 1969 1965 1959 1951 1945 1942 1937 1925 1907 1890 1871 1847 1832 1825 1821 1817 1813 1811 1811 1810 1810 1811 1812 1817 1820 1822 1826 1827 1828 1832 1835 1836 1838 1839 1839 1839 1837 1836 1834 1832 1827 1826 1824 1822 1816 1802 1768 1715 1688 1674 1674 1674 1699 1735 1768 1793 1802 1803 1803 1805 1807 1808 1808 1809 1810 1810 1810 1810 1810 1810 1809 1809 1809 1809 1809 1809 1809 1809 1809 1809 1809 1809 1809 1809 1809 1809 1809 1809 1809 1810 1810 1810 1810 1810 1811 1811 1811 1811 1812 1813 1813 1813 1813 1814 1814 1814 1814 1814 1814 1814 1814 1813 1813 1812 1812 1811 1810 1809 1808 1807 1806 1804 1801 1799 1796 1793 1790 1788 1785 1782 1779 1776 1773 1771 1768 1766 1764 1762 1760 1758 1757 1755 1755 1755 1755 1755 1756 1758 1758 1759 1763 1767 1771 1774 1780 1785 1789 1793 1797 1801 1801 1803 1805 1808 1810 1811 1812 1815 1815 1816 1816 1817 1818 1819 1819 1819 1819 1819 1819 1818 1818 1818 1818 1816 1816 1816 1815 1815 1814 1813 1813 1813 1812 1812 1812 1811 1811 1811 1809 1808 1807 1807 1806 1805 1805 1803 1802 1801 1799 1799 1798 1797 1796 1796 1795 1794 1793 1793 1793 1791 1790 1790 1789 1788 1787 1786 1786 1786 1786 1786 1785 1785 1785 1785 1785 1784 1784 1784 1784 1784 1784 1783 1782 1782 1782 1782 1782 1782 1782 1782 1783 1783 1786 1793 1798 1806 1819 1834 1860 1875 1903 1907 1910 1910 1910 1911 1911 1912 1912 1912 1912 1911 1911 1910 1910 1910 1910 1910 1909 1907 1906 1905 1905 1904 1902 1899 1895 1892 1889 1885 1882 1876 1871 1870 1868 1867 1850 1839 1826 1812 1800 1800 1800 1804 1804 0 0 0 0 0 0 0 0 0 0 0 0 0 0 0 0 0 0 0 0 0 0 0 0 0 0 0 0 0 0 0 0 0 0 0 0 0 0 0
2107 2118 2145 2169 2180 2180 2181 2182 2182 2183 2206 2241 2276 2316 2358 2358 2368 2368 2386 2419 2436 2456 2470 2472 2475 2475 2470 2473 2473 2473 2513 2550 2591 2617 2622 2624 2626 2629 2630 2633 2656 2686 2715 2748 2768 2785 2800 2805 2809 2817 2825 2829 2836 2842 2849 2855 2860 2864 2866 2877 2892 2898 2904 2915 2928 2947 2957 2963 2967 2970 2978 2992 3005 3005 3005 2978 2966 2963 2963 2963 2976 3006 3036 3064 3089 3102 3109 3116 3117 3119 3127 3132 3133 3138 3146 3151 3165 3179 3191 3198 3203 3208 3217 3225 3240 3248 3260 3267 3267 3268 3270 3271 3288 3295 3296 3298 3301 3304 3306 3308 3312 3316 3318 3321 3326 3331 3337 3341 3347 3356 3366 3376 3385 3388 3394 3397 3399 3400 3405 3407 3408 3408 3413 3419 3429 3438 3441 3442 3443 3444 3444 3444 3445 3449 3452 3456 3460 3461 3463 3465 3468 3470 3473 3476 3478 3479 3479 3479 3481 3482 3484 3487 3491 3494 3499 3504 3507 3510 3513 3517 3518 3518 3518 3517 3517 3517 3518 3525 3532 3532 3532 3532 3531 3530 3528 3523 3519 3515 3512 3511 3508 3508 3508 3508 3512 3513 3513 3513 3515 3515 3515 3514 3513 3513 3513 3512 3511 3509 3503 3500 3497 3497 3495 3494 3490 3481 3475 3467 3462 3427 3423 3423 3423 3432 3455 3455 3455 3445 3434 3423 3390 3318 2835 0 0 2120 2080 2069 2051 2043 2039 2037 2034 2032 2029 2024 2018 2015 2013 2013 2012 2012 2012 2013 2013 2013 2014 2015 2016 2018 2019 2019 2020 2020 2020 2019 2018 2016 2013 2008 2004 1999 1995 1990 1986 1985 1982 1981 1980 1974 1973 1965 1953 1947 1944 1941 1937 1917 1897 1877 1856 1835 1827 1821 1816 1813 1811 1810 1810 1809 1809 1809 1810 1814 1817 1822 1825 1826 1828 1831 1833 1834 1835 1835 1835 1835 1834 1832 1830 1827 1825 1823 1822 1816 1799 1767 1708 1655 1650 1650 1650 1681 1727 1767 1791 1802 1802 1802 1805 1805 1806 1806 1808 1809 1809 1809 1809 1809 1809 1809 1809 1809 1809 1809 1809 1808 1808 1808 1808 1808 1808 1808 1809 1808 1809 1809 1809 1809 1809 1809 1809 1809 1810 1810 1810 1811 1811 1812 1812 1812 1812 1812 1813 1813 1813 1813 1813 1813 1813 1813 1813 1812 1811 1811 1811 1810 1809 1808 1807 1805 1804 1801 1799 1796 1793 1790 1788 1785 1782 1779 1777 1774 1772 1769 1766 1764 1762 1760 1758 1757 1755 1755 1754 1754 1754 1754 1754 1755 1758 1761 1764 1767 1769 1776 1781 1785 1790 1794 1797 1799 1801 1803 1805 1807 1809 1810 1813 1814 1814 1815 1816 1816 1817 1817 1817 1817 1817 1817 1817 1817 1817 1816 1815 1815 1815 1814 1814 1814 1813 1812 1812 1812 1811 1811 1810 1810 1809 1808 1807 1806 1806 1805 1803 1803 1802 1801 1800 1798 1798 1797 1796 1795 1794 1794 1793 1793 1792 1792 1790 1789 1789 1788 1787 1787 1785 1785 1784 1784 1784 1784 1784 1784 1784 1784 1783 1783 1783 1783 1783 1783 1783 1782 1782 1782 1782 1782 1782 1783 1783 1783 1784 1787 1793 1799 1807 1819 1834 1862 1884 1903 1907 1909 1910 1910 1911 1911 1912 1912 1912 1912 1911 1911 1911 1911 1910 1910 1910 1909 1908 1907 1905 1905 1905 1902 1899 1894 1892 1888 1884 1881 1876 1871 1869 1867 1865 1844 1832 1825 1812 1808 1808 1808 1810 1810 1810 1803 0 0 0 0 0 0 0 0 0 0 0 0 0 0 0 0 0 0 0 0 0 0 0 0 0 0 0 0 0 0 0 0 0 0 0 0 0
2107 2118 2140 2157 2175 2177 2179 2180 2182 2183 2205 2237 2265 2316 2358 2370 2382 2384 2403 2425 2438 2456 2472 2472 2474 2474 2470 2470 2473 2473 2498 2543 2577 2602 2615 2621 2623 2625 2626 2631 2656 2664 2692 2740 2768 2785 2800 2805 2809 2817 2825 2829 2836 2842 2849 2855 2859 2865 2874 2885 2896 2902 2911 2921 2932 2950 2958 2963 2967 2971 2979 2993 3006 3006 3006 2985 2973 2968 2968 2968 2976 2988 3020 3056 3084 3095 3099 3104 3115 3119 3127 3132 3133 3138 3145 3151 3165 3179 3191 3198 3203 3211 3217 3225 3240 3248 3260 3269 3269 3270 3272 3272 3289 3295 3296 3298 3301 3305 3306 3308 3313 3316 3319 3321 3327 3333 3338 3343 3347 3356 3366 3377 3385 3389 3393 3397 3400 3401 3406 3408 3411 3412 3418 3425 3432 3440 3443 3443 3444 3445 3446 3447 3448 3449 3452 3456 3458 3461 3463 3465 3468 3470 3473 3476 3478 3479 3479 3479 3481 3482 3486 3488 3491 3495 3499 3504 3508 3511 3515 3518 3518 3518 3518 3517 3517 3517 3520 3526 3532 3532 3532 3531 3531 3530 3529 3526 3522 3518 3514 3511 3508 3507 3507 3507 3511 3512 3513 3513 3513 3512 3512 3512 3512 3512 3513 3513 3513 3513 3509 3506 3500 3497 3495 3494 3490 3479 3469 3466 3462 3427 3415 3415 3415 3430 3455 3455 3455 3445 3434 3423 3372 3229 2756 0 0 2116 2073 2069 2046 2043 2039 2037 2033 2032 2029 2022 2017 2014 2013 2013 2012 2012 2012 2012 2012 2013 2013 2015 2016 2018 2019 2019 2020 2020 2020 2019 2018 2016 2013 2008 2004 1999 1995 1990 1988 1985 1985 1984 1983 1981 1976 1970 1958 1952 1949 1944 1943 1926 1903 1886 1865 1845 1832 1821 1815 1811 1809 1809 1809 1809 1808 1808 1808 1809 1812 1817 1822 1824 1825 1827 1830 1832 1833 1833 1833 1833 1832 1830 1828 1827 1825 1823 1822 1816 1799 1764 0 1655 1650 1650 1650 1681 1724 1767 1789 1796 1801 1802 1804 1804 1805 1806 1808 1809 1809 1809 1809 1809 1809 1809 1809 1808 1808 1808 1808 1808 1808 1808 1808 1808 1808 1808 1808 1808 1808 1808 1808 1809 1809 1809 1809 1809 1810 1810 1810 1810 1810 1811 1811 1811 1812 1812 1812 1813 1813 1813 1813 1813 1812 1812 1812 1811 1810 1810 1809 1809 1808 1808 1807 1805 1803 1801 1799 1796 1794 1791 1789 1786 1783 1780 1778 1775 1772 1769 1767 1764 1762 1760 1758 1757 1755 1754 1753 1753 1752 1752 1752 1752 1755 1759 1761 1764 1766 1772 1777 1782 1787 1792 1795 1796 1798 1802 1803 1804 1807 1809 1810 1812 1813 1814 1814 1815 1815 1815 1815 1815 1816 1816 1816 1816 1815 1815 1815 1813 1813 1813 1813 1813 1812 1812 1811 1811 1810 1810 1809 1808 1808 1807 1806 1805 1804 1804 1802 1802 1800 1799 1799 1798 1797 1796 1794 1794 1793 1793 1792 1792 1791 1790 1789 1789 1788 1787 1787 1785 1785 1783 1783 1783 1783 1783 1783 1783 1783 1783 1783 1783 1782 1782 1782 1782 1781 1781 1781 1781 1781 1781 1782 1783 1784 1784 1785 1788 1793 1799 1807 1820 1839 1865 1888 1905 1908 1909 1911 1913 1913 1913 1913 1913 1913 1913 1912 1912 1911 1911 1910 1910 1910 1909 1908 1907 1905 1905 1904 1902 1898 1894 1891 1886 1882 1879 1876 1871 1868 1867 1860 1843 1832 1825 1812 1812 1812 1822 1829 1829 1829 1828 1779 0 0 0 0 0 0 0 0 0 0 0 0 0 0 0 0 0 0 0 0 0 0 0 0 0 0 0 0 0 0 0 0 0 0 0 0
