784 763 763 747 743 743 742 742 742 759 759 759 746 746 745 746 751 759 760 782 805 826 835 848 865 878 885 885 885 881 881 881 896 909 917 0 0 0 0 0 0 0 0 0 0 0 0 1038 1060 1097 1117 1123 1123 1123 1117 1117 1117 1130 1137 1141 1141 1142 1142 1146 1152 1165 1165 1165 0 0 0 0 0 0 1208 1236 1244 1246 1246 0 0 0 0 0 0 0 0 0 0 0 0 0 0 0 0 0 0 0 0 0 0 0 0 0 0 0 0 0 0 2000 2008 2018 2028 2065 2113 2167 2214 2249 0 0 0 0 0 0 0 0 0 0 0 0 0 0 0 0 0 0 0 2326 2328 2329 2329 2329 0 0 0 0 0 0 0 0 0 0 0 0 0 0 0 0 1687 1687 1687 1689 1689 1689 1683 1683 1683 1684 1689 1718 0 0 0 0 0 0 0 0 0 0 0 0 0 0 0 0 0 0 0 0 0 0 0 0 0 0 0 0 0 0 0 0 0 0 0 0 0 0 0 0 0 0 2591 2702 2722 2722 2722 2718 2714 2711 2704 2696 2695 2683 2646 2560 0 0 0 0 0 0 0 0 0 0 0 0 0 0 0 0 2614 2642 2642 2642 2542 0 0 0 0 2707 2773 2773 2773 2758 2727 2716 2700 2684 2609 0 0 0 0 0 0 0 0 0 0 0 0 0 2513 2688 2688 2688 0 0 0 0 0 0 0 0 0 0 0 0 1335 1335 1339 1339 1339 1333 1319 1319 1319 1328 1366 0 0 0 0 0 0 0 0 0 0 0 0 0 1784 1784 1768 1760 1746 1740 1736 1730 1724 1723 1717 1713 1708 1704 1699 1693 1688 1682 1678 1675 1671 1667 1664 1661 1658 1655 1652 1650 1648 1646 1644 1641 1638 1636 1634 1632 1630 1628 1626 1624 1623 1621 1620 1619 1617 1616 1614 1613 1611 1611 1609 1607 1606 1605 1604 1603 1602 1601 1600 1599 1598 1597 1596 1595 1594 1592 1592 1592 1591 1590 1590 1589 1588 1587 1587 1586 1585 1584 1583 1581 1580 1580 1580 1579 1578 1578 1578 1578 1577 1576 1576 1575 1575 1574 1573 1573 1573 1573 1573 1572 1572 1571 1571 1571 1571 1571 1571 1570 1570 1570 1570 1570 1570 1570 1569 1569 1569 1568 1568 1568 1567 1566 1566 1567 1567 1567 1567 1567 1567 1567 1567 1567 1567 1567 1567 1567 1567 1566 1566 1564 1564 1563 1563 1563 1562 1562 1561 1561 1561 1561 1560 1560 1560 1559 1559 1558 1558 1558 1558 1557 1556 1556 1555 1553 1552 1552 1552 1552 1551 1551 1550 1550 1548 1548 1548 1547 1547 1547 1545 1544 1544 1542 1541 1538 1537 1535 1532 1529 1529 1529 1529 1527 1527 1527 1528 1528 1528 1528 1532 1538 1540 1541 1541 1541 0 0 0 0 0 0 0 1233 1229 1219 1204 1196 1193 1184 1179 1177 1176 1176 1176 1176 1175 1175 1175 1175 1173 1172 1171 1171 1171 1171 1171 1170 1170 1170 1172 1174 1176 1182 1188 1217 0 0 0 0 0 1566 1590 1590 1590 1594 1597 1600 1600 1600 1601 1601 1602 1602 1603 1604 1604 1604 1602 1602 1602 1603 1603 1603 1603 1602 1600 1599 1599 1599 1599 1599 1598 1598 1598 1595 1585 1571 1551 1526 0 0 0 0 1345 1345 1347 0 0 0 0 1439 1440 1440 1440 1438 1422 1404 0 0 0 0 0 0 0 0 0 0 0 0 0 0 0 0 0 0 0
784 760 760 731 731 731 734 740 741 759 759 759 742 742 742 744 751 751 760 782 805 818 821 846 865 878 883 883 883 881 881 881 896 909 917 0 0 0 0 0 0 0 0 0 0 0 0 0 1086 1100 1121 1130 1130 1130 1119 1119 1119 1134 1153 1157 1159 1159 1157 1157 1159 0 0 0 0 0 0 0 0 0 0 0 0 0 0 0 0 0 0 0 0 0 0 0 0 0 0 0 0 0 0 0 0 0 0 0 0 0 0 0 0 0 0 0 0 2000 2008 2009 2023 2063 2113 0 0 0 0 0 0 0 0 0 0 0 0 0 0 0 0 0 0 0 0 0 0 2287 2297 2312 2312 2312 0 0 0 0 0 0 0 0 0 0 0 0 0 0 0 0 1677 1677 1677 1677 1677 1677 1677 1666 1666 1666 1683 0 0 0 0 0 0 0 0 0 0 0 0 0 0 0 0 0 1996 1995 1995 1996 1996 0 0 0 0 0 0 0 0 0 0 0 0 0 0 0 0 0 0 0 2610 2728 2731 2731 2731 2726 2725 2721 2715 2714 2710 2710 2705 2703 2703 2702 2698 2697 2684 2577 0 0 0 0 0 0 0 0 0 0 2663 2832 2905 2905 2905 2837 2739 2716 2716 2716 2889 2945 2974 2974 2974 2972 2964 2953 2944 2877 2736 2655 0 0 0 0 0 0 0 0 0 0 0 2638 2900 2915 2915 2915 2777 2598 0 0 0 0 0 0 0 0 0 0 1330 1328 1328 1328 1327 1327 1319 1319 1319 1328 1366 1387 1427 1445 1447 1462 1464 1469 0 0 0 0 0 1779 1779 1779 1767 1759 1746 1740 1736 1730 1722 1720 1716 1712 1707 1703 1698 1693 1687 1682 1678 1675 1671 1668 1665 1660 1658 1655 1652 1649 1647 1646 1644 1641 1638 1635 1633 1631 1629 1628 1626 1623 1622 1620 1619 1618 1617 1616 1614 1612 1611 1610 1609 1606 1606 1605 1603 1602 1601 1600 1599 1598 1597 1596 1595 1595 1593 1592 1591 1591 1590 1589 1588 1587 1587 1586 1585 1585 1584 1582 1582 1580 1580 1579 1578 1578 1577 1577 1577 1576 1576 1576 1575 1575 1574 1573 1573 1573 1573 1572 1572 1572 1571 1571 1571 1570 1570 1570 1570 1570 1570 1570 1570 1569 1569 1569 1569 1568 1568 1568 1567 1567 1567 1566 1566 1566 1566 1567 1567 1567 1567 1567 1567 1567 1567 1567 1567 1567 1566 1566 1565 1564 1564 1563 1563 1563 1563 1562 1561 1561 1561 1561 1560 1560 1560 1559 1559 1559 1558 1558 1558 1557 1556 1556 1555 1553 1553 1552 1552 1552 1552 1552 1550 1550 1548 1548 1548 1547 1547 1547 1545 1545 1544 1544 1543 1539 1538 1535 1533 1530 1530 1529 1528 1528 1528 1528 1528 1528 1529 1529 1533 1539 1540 1541 1544 1544 1544 0 0 0 0 0 0 0 0 0 1230 1211 1198 1189 1181 1177 1176 1176 1176 1177 1177 1177 1177 1176 1175 1174 1173 1173 1173 1172 1171 1170 1170 1170 1172 1174 1181 1182 1197 0 0 0 0 0 0 1585 1593 1594 1594 1595 1597 1598 1599 1599 1600 1600 1600 1601 1601 1601 1601 1600 1600 1599 1599 1599 1600 1600 1600 1599 1597 1595 1595 1593 1593 1593 1593 1593 1593 1592 1583 1570 1549 1535 1532 0 0 0 0 0 0 0 0 0 0 1412 1413 1416 1416 1413 1405 1386 0 0 0 0 0 0 0 0 0 0 0 0 0 0 0 0 0 0 0
784 760 760 730 730 729 730 732 740 757 757 757 742 742 742 744 751 775 777 800 818 820 821 846 865 875 883 883 883 881 881 881 896 909 0 0 0 0 0 0 0 0 0 0 0 0 0 0 0 0 0 0 0 0 0 0 0 0 0 0 0 0 0 0 0 0 0 0 0 0 0 0 0 0 0 0 0 0 0 0 0 0 0 0 0 0 0 0 0 0 0 0 0 0 0 0 0 0 0 0 0 0 0 0 0 0 0 0 0 1995 2003 2007 2008 2034 2061 0 0 0 0 0 0 0 0 0 0 0 0 0 0 0 0 0 0 0 0 0 0 2240 2297 2311 2311 2311 0 0 0 0 0 0 0 0 0 0 0 0 0 0 0 0 1660 1659 1659 1658 1656 1652 1642 1632 0 0 0 0 0 0 0 0 0 0 0 0 0 0 0 0 0 0 0 2031 1996 1995 1995 1996 1996 0 0 0 0 0 0 0 0 0 0 0 0 0 0 0 0 0 0 2699 2781 2781 2781 2755 2739 2734 2732 2723 2716 2715 2713 2713 2713 2716 2725 2757 2791 2791 2791 2769 2666 0 0 0 0 0 0 0 0 2755 2886 2932 2932 2932 2907 2837 2816 2816 2816 2900 2953 3000 3015 3021 3021 3021 3016 3011 3002 2930 2802 2788 0 0 0 0 0 0 0 0 0 0 0 2638 2900 2987 2987 2987 2859 2660 2504 0 0 0 0 0 0 0 0 0 1330 1302 1302 1302 1312 1313 1313 1317 1319 1328 1366 1387 1427 1445 1447 1462 1464 1470 1484 0 0 0 1764 1776 1776 1776 1765 1755 1743 1739 1736 1730 1721 1718 1715 1711 1706 1701 1697 1691 1686 1681 1678 1674 1671 1668 1665 1660 1658 1654 1652 1649 1647 1645 1643 1640 1637 1635 1633 1631 1629 1627 1625 1623 1621 1620 1619 1617 1616 1615 1614 1612 1610 1610 1607 1606 1606 1604 1602 1601 1600 1599 1599 1598 1596 1596 1595 1593 1592 1591 1590 1589 1588 1588 1587 1586 1586 1585 1584 1584 1583 1582 1581 1580 1579 1579 1578 1578 1577 1577 1577 1576 1575 1575 1575 1574 1574 1573 1573 1573 1572 1572 1571 1571 1570 1570 1570 1570 1570 1569 1569 1569 1569 1569 1569 1568 1568 1568 1568 1567 1567 1567 1567 1566 1566 1566 1566 1566 1566 1566 1566 1566 1567 1567 1567 1567 1567 1567 1567 1567 1566 1566 1565 1564 1564 1563 1563 1563 1563 1562 1561 1561 1561 1561 1560 1560 1560 1559 1559 1559 1559 1558 1558 1557 1556 1556 1555 1554 1553 1553 1552 1552 1552 1552 1550 1550 1549 1548 1548 1547 1547 1546 1545 1544 1544 1544 1543 1539 1538 1536 1533 1530 1530 1530 1528 1528 1528 1528 1528 1529 1529 1531 1534 1539 1540 1541 1544 1544 1544 1544 1539 0 0 0 0 0 0 0 0 1218 1205 1195 1192 1190 1188 1184 1184 1182 1178 1178 1178 1178 1177 1176 1174 1174 1174 1174 1172 1172 1172 1175 1175 1181 1185 1190 1208 0 0 0 0 0 0 1591 1594 1595 1595 1595 1597 1597 1598 1598 1598 1598 1598 1599 1599 1599 1599 1598 1598 1598 1598 1598 1598 1598 1598 1595 1594 1593 1592 1590 1588 1588 1588 1591 1591 1591 1582 1570 1549 1541 1538 1536 0 0 0 0 0 0 0 0 0 1372 1378 1379 1379 1378 1378 1372 0 0 0 0 0 0 0 0 0 0 0 0 0 0 0 0 0 0 0
0 747 747 727 723 722 719 719 719 735 744 744 744 744 744 745 751 788 791 815 818 821 821 846 866 874 883 888 893 893 0 0 0 0 0 0 0 0 0 0 0 0 0 0 0 0 0 0 0 0 0 0 0 0 0 0 0 0 0 0 0 0 0 0 0 0 0 0 0 0 0 0 0 0 0 0 0 0 0 0 0 0 0 0 0 0 0 0 0 0 0 0 0 0 0 0 0 0 0 0 0 0 0 0 0 0 0 0 0 1985 1990 1997 2006 2011 2032 0 0 0 0 0 0 0 0 0 0 0 0 0 0 0 0 0 0 0 0 0 0 2240 2297 2310 2310 2310 0 0 0 0 0 0 0 0 0 0 0 0 0 0 0 0 1654 1642 1636 1628 1619 0 0 0 0 0 0 0 0 0 0 0 0 0 0 0 0 0 0 0 0 0 0 2031 1996 1995 1992 1995 1996 0 0 0 0 0 0 0 0 0 0 0 0 0 0 0 0 0 2677 2811 2811 2811 2788 2757 2748 2743 2733 2723 2720 2719 2713 2713 2713 2716 2738 2783 2816 2816 2816 2776 2758 0 0 0 0 0 0 0 2835 2924 2951 2951 2951 2943 2907 2837 2818 2818 2818 2926 3000 3014 3018 3023 3023 3023 3021 3018 3006 2930 2803 2788 0 0 0 0 0 0 0 0 0 0 0 2638 2900 2996 2996 2996 2932 2907 2667 0 0 0 0 0 0 0 0 0 0 1275 1259 1259 1259 1300 1311 1313 1314 1319 1346 1387 1427 1445 1446 1447 1459 1470 1484 0 0 0 1764 1774 1774 1774 1763 1754 1742 1736 1731 1727 1721 1718 1713 1710 1706 1700 1695 1689 1685 1680 1676 1674 1671 1668 1665 1660 1658 1654 1652 1649 1647 1644 1641 1639 1637 1635 1632 1630 1629 1627 1625 1623 1621 1620 1618 1616 1616 1614 1613 1611 1610 1608 1607 1605 1604 1603 1602 1600 1600 1599 1598 1596 1596 1595 1594 1593 1592 1591 1589 1589 1588 1587 1587 1586 1585 1584 1584 1583 1582 1582 1580 1580 1579 1578 1578 1577 1577 1576 1576 1575 1575 1574 1574 1574 1573 1573 1573 1572 1572 1571 1571 1570 1570 1570 1570 1569 1569 1569 1569 1569 1569 1568 1568 1568 1567 1567 1567 1567 1567 1567 1566 1566 1566 1566 1566 1566 1566 1566 1566 1567 1567 1567 1567 1567 1567 1567 1567 1566 1566 1565 1565 1564 1564 1563 1563 1563 1562 1562 1561 1561 1561 1561 1560 1560 1560 1559 1559 1559 1558 1558 1558 1557 1556 1555 1555 1554 1553 1553 1552 1552 1552 1552 1550 1549 1549 1548 1548 1547 1546 1545 1545 1544 1543 1542 1541 1539 1538 1536 1533 1530 1530 1530 1528 1528 1528 1528 1530 1530 1531 1531 1536 1538 1539 1539 1543 1544 1544 1544 1543 1538 0 0 0 0 0 0 0 0 0 1222 1210 1199 1191 1185 1184 1182 1179 1179 1179 1178 1177 1176 1175 1175 1175 1175 1176 1176 1177 1178 1182 1184 1187 1194 0 0 0 0 0 0 0 1591 1594 1595 1595 1595 1597 1597 1597 1597 1597 1597 1597 1597 1597 1597 1597 1597 1597 1596 1595 1595 1595 1594 1594 1592 1592 1591 1589 1587 1585 1585 1585 1584 1584 1584 1567 1555 1548 1541 1540 1537 0 0 0 0 0 0 0 0 0 1350 1352 1362 1362 1362 1362 1362 0 0 0 0 0 0 0 0 0 0 0 0 0 0 0 0 0 0 0
723 717 717 717 717 717 717 719 719 735 744 744 750 750 750 758 781 801 819 821 823 823 834 853 871 874 876 886 887 894 0 0 0 0 0 0 0 0 0 0 0 0 0 0 0 0 0 0 0 0 0 0 0 0 0 0 0 0 0 0 0 0 0 0 0 0 0 0 0 0 0 0 0 1565 1565 1565 1565 1565 0 0 0 0 0 0 0 0 0 0 0 0 0 0 0 0 0 0 0 0 0 0 0 0 0 0 0 0 0 0 0 0 1969 1972 1976 1990 0 0 0 0 0 0 0 0 0 0 0 0 0 0 0 0 0 0 0 0 0 0 0 2240 2293 2293 2293 2291 0 0 0 0 0 0 0 0 0 0 0 0 0 0 0 0 0 1618 1605 1592 0 0 0 0 0 0 0 0 0 0 0 0 0 0 0 0 0 0 0 0 0 0 0 2031 1989 1979 1978 1977 1974 0 0 0 0 0 0 0 0 0 0 0 0 0 0 0 0 2595 2755 2825 2825 2825 2799 2765 2752 2743 2733 2723 2716 2715 2713 2713 2713 2716 2738 2783 2816 2816 2816 2776 2758 0 0 0 0 0 2764 2935 2963 2963 2963 2961 2959 2946 2902 2828 2822 2822 2822 2966 3020 3023 3023 3024 3025 3025 3025 3025 3006 2930 2882 2788 0 0 0 0 0 0 0 0 0 0 0 2637 2860 2996 2996 2996 2940 2930 2672 0 0 0 0 1430 1424 1410 0 0 0 1232 1232 1232 1259 1288 1309 1311 1311 1319 1346 1384 1416 1429 1435 1437 1455 1469 1484 0 0 0 1771 1771 1771 1768 1763 1750 1741 1734 1728 1726 1721 1718 1713 1709 1704 1699 1694 1688 1685 1680 1676 1674 1671 1668 1665 1660 1657 1654 1652 1649 1646 1644 1641 1638 1637 1635 1632 1630 1628 1626 1624 1622 1621 1619 1618 1616 1614 1613 1611 1610 1610 1608 1607 1605 1604 1603 1601 1600 1600 1599 1597 1596 1596 1594 1594 1592 1591 1590 1589 1588 1587 1586 1586 1585 1584 1583 1582 1582 1581 1580 1580 1578 1578 1578 1577 1577 1576 1575 1575 1575 1574 1574 1573 1573 1573 1572 1572 1571 1571 1571 1570 1570 1570 1569 1569 1569 1569 1568 1568 1568 1568 1568 1567 1567 1567 1567 1566 1566 1566 1566 1566 1566 1566 1566 1566 1566 1566 1566 1566 1567 1567 1567 1567 1567 1567 1567 1567 1566 1566 1565 1565 1564 1564 1563 1563 1563 1562 1562 1561 1561 1561 1561 1560 1560 1560 1559 1559 1558 1558 1557 1557 1556 1556 1555 1554 1554 1553 1553 1552 1552 1551 1550 1550 1549 1548 1548 1548 1547 1545 1545 1545 1544 1543 1542 1541 1539 1538 1536 1533 1532 1530 1530 1528 1528 1528 1529 1531 1532 1532 1534 1536 1538 1538 1539 1541 1541 1542 1545 1545 1548 1549 0 0 0 0 0 0 0 0 0 1229 1211 1193 1185 1185 1184 1182 1182 1182 1182 1181 1176 1176 1176 1176 1178 1182 1182 1182 1182 1184 1186 1192 1207 0 0 0 0 0 0 1580 1592 1594 1594 1595 1595 1595 1596 1596 1596 1596 1596 1596 1595 1595 1595 1595 1595 1595 1595 1594 1593 1592 1592 1591 1591 1590 1589 1588 1586 1582 1581 1581 1579 1579 1573 1555 1553 1548 1542 1541 1537 0 0 0 0 0 0 0 0 0 0 1337 1347 1347 1347 1350 1350 1350 0 0 0 0 0 0 0 0 0 0 0 0 0 0 0 0 0 0
709 713 717 717 717 717 717 719 719 735 748 748 753 757 758 770 792 810 829 831 832 839 853 873 874 874 874 874 889 0 0 0 0 0 0 0 0 0 0 0 1361 1361 1365 1365 0 0 0 0 0 0 0 0 0 0 0 0 0 0 0 0 0 1526 1533 1533 1533 1530 1530 1530 1535 1537 1538 1546 1562 1565 1565 1565 1565 1565 1565 0 0 0 0 0 0 0 0 0 0 0 0 0 0 0 0 0 0 0 0 0 0 0 0 0 0 0 0 0 0 0 0 0 0 0 0 0 0 0 0 0 0 0 0 0 0 0 0 0 0 0 0 0 0 0 0 0 0 0 2290 2290 2290 0 0 0 0 0 1864 1851 1851 0 0 0 0 0 0 0 0 0 0 0 0 0 0 0 0 0 0 0 0 0 0 0 0 0 0 0 0 0 2504 2504 2504 0 0 0 0 0 1989 1979 1963 1958 1949 0 0 0 0 0 0 0 0 0 0 0 0 0 0 0 0 2634 2766 2826 2826 2826 2799 2765 2752 2743 2733 2722 2715 2714 2713 2713 2713 2715 2738 2783 2783 2783 2776 2775 2758 0 0 0 0 2831 2955 2979 2979 2979 2970 2965 2963 2946 2878 2813 2813 2813 2837 2975 3028 3028 3028 3027 3027 3027 3027 3027 3006 2975 2921 2788 0 0 0 0 0 0 0 0 0 0 0 2632 2760 2944 2944 2944 2941 2932 2679 0 0 0 1400 1392 1392 1390 1366 0 0 1229 1229 1229 1250 1284 1304 1311 1311 1319 1346 1384 1407 1422 1435 1437 1450 1457 1482 0 0 0 1769 1769 1769 1764 1759 1749 1741 1734 1728 1725 1721 1718 1712 1709 1704 1698 1693 1688 1684 1679 1676 1672 1670 1667 1664 1660 1657 1654 1651 1649 1646 1643 1641 1638 1636 1633 1631 1629 1628 1626 1624 1622 1620 1619 1617 1615 1614 1613 1611 1610 1609 1608 1606 1605 1603 1602 1601 1600 1599 1598 1597 1596 1595 1594 1593 1592 1590 1590 1589 1587 1586 1585 1584 1584 1583 1583 1582 1581 1580 1579 1578 1578 1577 1577 1577 1576 1576 1575 1575 1575 1574 1573 1573 1572 1572 1572 1571 1571 1571 1570 1570 1570 1570 1569 1569 1568 1568 1568 1568 1568 1568 1567 1567 1567 1567 1566 1566 1566 1566 1566 1566 1566 1566 1566 1566 1566 1566 1566 1566 1566 1567 1567 1567 1567 1567 1567 1566 1566 1566 1565 1565 1564 1564 1563 1563 1562 1562 1561 1561 1561 1561 1560 1560 1560 1560 1559 1559 1558 1558 1557 1556 1556 1556 1555 1554 1554 1553 1553 1552 1551 1551 1550 1550 1549 1548 1547 1547 1546 1545 1545 1544 1544 1542 1541 1540 1538 1537 1536 1533 1532 1531 1531 1529 1529 1529 1530 1531 1532 1533 1534 1536 1538 1538 1539 1541 1541 1542 1545 1546 1550 1555 1555 1555 0 0 0 0 0 0 0 0 0 1194 1186 1186 1186 1186 1186 1185 1182 1182 1179 1179 1179 1183 1183 1183 1183 1183 1183 1186 1193 1201 0 0 0 0 0 0 1574 1586 1592 1593 1593 1594 1594 1594 1595 1595 1595 1595 1594 1594 1594 1594 1594 1594 1594 1594 1594 1592 1592 1591 1590 1590 1590 1589 1587 1586 1584 1582 1581 1578 1576 1571 1563 1555 1553 1548 1544 1541 1537 0 0 0 0 0 0 0 0 0 0 1291 1296 1316 1346 1348 1348 1348 0 0 0 0 0 0 0 0 0 0 0 0 0 0 0 0 0 0
709 713 717 717 717 720 721 726 731 742 753 755 759 764 774 785 806 827 852 854 864 865 866 873 874 874 874 874 0 0 0 0 0 0 0 0 1336 1349 1353 1355 1361 1361 1365 1368 1370 0 0 0 0 0 0 0 0 0 0 0 0 0 0 0 1520 1526 1533 1533 1533 1530 1530 1530 1535 1537 1538 1546 1562 1565 1565 1565 1565 1565 1565 0 0 0 0 0 0 0 0 0 0 0 0 0 0 0 0 0 0 0 0 0 0 0 0 0 0 0 0 0 0 0 0 0 0 0 0 0 0 0 0 0 0 0 0 0 0 0 0 0 0 0 0 0 0 0 0 0 0 0 0 0 0 0 0 0 0 1871 1849 1849 1849 1851 0 0 0 0 0 0 0 0 0 0 0 0 0 0 0 0 0 0 0 0 0 0 0 0 0 0 0 2789 2795 2842 2842 2842 0 0 0 0 0 1977 1961 1935 1905 0 0 0 0 0 0 0 0 0 0 0 0 0 0 0 0 2635 2774 2826 2826 2826 2799 2765 2752 2738 2724 2712 2711 2711 2707 2700 2700 2700 2720 2730 2745 2745 2730 2549 0 0 0 2771 2904 2973 2978 2981 2981 2981 2980 2973 2967 2946 2878 2810 2810 2810 2850 2996 3033 3033 3033 3030 3030 3030 3030 3030 2998 2980 2913 2768 0 0 0 0 0 0 0 0 0 0 0 2622 2758 2894 2944 2944 2944 2940 2688 0 0 0 1400 1392 1392 1390 1366 0 0 1229 1229 1229 1243 1281 1304 1315 1318 1332 1353 1384 1407 1422 1435 1437 1450 1457 1482 0 0 0 1766 1766 1766 1763 1756 1746 1741 1733 1728 1725 1721 1718 1712 1708 1703 1697 1693 1688 1684 1679 1676 1672 1669 1667 1664 1660 1657 1654 1651 1649 1646 1643 1641 1638 1636 1633 1631 1629 1627 1626 1623 1622 1620 1618 1617 1614 1613 1612 1611 1610 1608 1607 1606 1604 1603 1602 1600 1600 1599 1597 1596 1595 1594 1593 1592 1591 1590 1589 1588 1587 1586 1585 1584 1583 1582 1582 1581 1581 1579 1579 1578 1578 1577 1577 1576 1576 1575 1575 1574 1574 1573 1573 1572 1572 1572 1572 1571 1570 1570 1569 1569 1569 1569 1569 1569 1568 1568 1568 1568 1568 1567 1567 1567 1566 1566 1566 1566 1566 1566 1566 1566 1566 1566 1566 1566 1566 1566 1566 1566 1566 1567 1567 1567 1567 1567 1567 1566 1566 1565 1565 1564 1564 1564 1563 1563 1562 1562 1561 1561 1561 1560 1560 1560 1560 1560 1559 1558 1558 1558 1557 1556 1556 1555 1555 1554 1553 1553 1553 1552 1551 1550 1550 1549 1548 1548 1547 1546 1546 1545 1544 1544 1544 1541 1540 1539 1538 1537 1535 1533 1532 1532 1531 1530 1530 1530 1530 1531 1532 1533 1534 1535 1538 1539 1541 1541 1541 1542 1546 1547 1554 1559 1559 1559 1555 1544 0 0 0 0 0 0 0 1220 1202 1192 1192 1189 1189 1185 1184 1182 1182 1182 1182 1185 1185 1185 1185 1185 1185 1193 1204 0 0 0 0 0 0 0 1582 1592 1592 1592 1592 1592 1593 1594 1595 1595 1595 1595 1594 1593 1593 1593 1592 1592 1593 1593 1592 1591 1590 1589 1589 1589 1588 1588 1587 1584 1583 1582 1580 1578 1574 1570 1563 1555 1554 1553 1548 1541 1537 0 0 0 0 0 0 0 0 0 0 1285 1289 1297 1309 1309 1309 1305 0 0 0 0 0 0 0 0 0 0 0 0 0 0 0 0 0 0
709 722 733 733 734 737 747 749 758 773 779 781 783 789 804 805 812 832 852 854 864 865 866 871 873 873 874 0 0 0 0 0 0 0 0 1335 1353 1355 1355 1358 1361 1361 1365 1368 1372 0 0 0 0 0 0 0 0 0 0 0 0 0 0 0 1520 1526 1533 1533 1533 1530 1530 1530 1535 1535 1538 1543 1543 1543 1535 1535 1535 1541 1552 0 0 0 0 0 0 0 0 0 0 0 0 0 0 0 0 0 0 0 0 0 0 0 0 0 0 0 0 0 0 0 0 0 0 0 0 0 0 0 0 0 0 0 0 0 0 0 0 0 0 0 0 0 0 0 0 0 0 0 0 0 0 0 0 0 0 1871 1849 1849 1849 1867 0 0 0 0 0 0 0 0 0 0 0 0 0 0 0 0 0 0 0 0 0 0 0 0 0 0 2748 2986 2986 2986 2982 2960 2917 0 0 0 0 0 0 1934 1903 0 0 0 0 0 0 0 0 0 0 0 0 0 0 0 2505 2637 2780 2818 2818 2818 2788 2760 2742 2721 2702 2702 2698 2698 2698 2686 2674 2658 2651 2632 2585 2549 2539 0 0 2549 2842 2939 2973 2973 2978 2981 2984 2984 2984 2982 2976 2959 2878 2817 2817 2817 2913 2996 3033 3037 3037 3037 3034 3034 3033 3031 2993 2980 2907 2765 0 0 0 0 0 0 0 0 0 0 0 2617 2749 2891 2949 2979 2979 2949 2718 0 0 0 1400 1392 1392 1389 1366 0 0 1229 1229 1229 1243 1281 1304 1319 1350 1362 1376 1387 1407 1422 1435 1445 1450 1457 0 0 0 0 1763 1763 1763 1757 1751 1746 1740 1733 1728 1724 1718 1716 1712 1707 1701 1695 1692 1688 1684 1679 1675 1672 1669 1666 1663 1660 1657 1654 1651 1647 1645 1643 1640 1638 1636 1633 1631 1629 1627 1625 1623 1622 1620 1618 1616 1614 1613 1612 1610 1609 1608 1607 1605 1604 1603 1602 1600 1599 1597 1596 1595 1594 1594 1592 1592 1590 1590 1589 1588 1586 1585 1585 1584 1583 1582 1581 1580 1580 1579 1579 1578 1578 1577 1577 1576 1575 1575 1574 1574 1573 1572 1572 1571 1571 1571 1571 1570 1570 1570 1569 1569 1569 1569 1569 1568 1568 1568 1568 1568 1568 1567 1567 1567 1566 1566 1566 1566 1566 1566 1566 1566 1566 1566 1566 1566 1566 1566 1566 1566 1566 1566 1566 1566 1566 1566 1566 1566 1566 1564 1564 1564 1563 1563 1563 1562 1562 1562 1561 1561 1560 1560 1560 1560 1560 1559 1559 1558 1558 1557 1557 1556 1555 1555 1555 1554 1553 1553 1553 1551 1550 1550 1549 1548 1547 1546 1546 1545 1545 1545 1543 1543 1542 1541 1540 1539 1538 1536 1535 1533 1532 1532 1531 1530 1530 1530 1530 1531 1531 1532 1533 1534 1538 1539 1541 1543 1544 1546 1548 1550 1558 1561 1561 1561 1559 1552 1546 0 0 0 0 0 0 1237 1216 1205 1195 1193 1190 1187 1186 1186 1185 1185 1185 1186 1186 1186 1187 1188 1189 1195 1214 0 0 0 0 0 0 1565 1589 1591 1592 1592 1592 1592 1593 1593 1594 1594 1594 1594 1593 1592 1592 1591 1591 1591 1591 1591 1590 1590 1589 1587 1587 1587 1587 1587 1585 1583 1581 1580 1579 1578 1574 1570 1563 1557 1556 1555 1548 1543 1526 0 0 0 0 0 0 0 0 0 0 0 1287 1289 1291 1291 1293 1291 0 0 0 0 0 0 0 0 0 0 0 0 0 0 0 0 0 0
720 722 733 734 746 747 749 749 758 773 785 787 788 795 812 828 831 832 852 854 864 865 866 872 880 881 0 0 0 0 0 0 0 0 0 1335 1353 1355 1355 1358 1355 1357 1361 1363 1376 0 0 0 0 0 0 0 0 0 0 0 0 0 0 0 1514 1514 1509 1511 1509 1509 1509 1509 1509 1509 1510 1524 1533 1533 1533 1512 1512 1505 0 0 0 0 0 0 0 0 0 0 0 0 0 0 0 0 0 0 0 0 0 0 0 0 0 0 0 0 0 0 0 0 0 0 0 0 0 0 0 0 0 0 0 0 0 0 0 0 0 0 0 0 0 0 0 0 0 0 0 0 0 0 0 0 0 0 0 1871 1855 1855 1855 1869 0 0 0 0 0 0 0 0 0 0 0 0 0 0 0 0 0 0 0 0 0 0 0 0 0 0 3008 3060 3060 3060 2982 2960 2917 0 0 0 0 0 0 0 0 0 0 0 0 0 0 0 0 0 0 0 0 0 0 0 2505 2644 2783 2793 2793 2793 2772 2754 2731 2705 2693 2693 2693 2693 2692 2677 2644 2583 2536 0 0 0 0 0 2549 2845 2929 2960 2973 2973 2975 2978 2979 2985 2987 2987 2987 2962 2888 2817 2817 2817 2916 2996 3030 3037 3040 3040 3040 3036 3035 3032 2993 2980 2900 2762 0 0 0 0 0 0 0 0 0 0 0 2583 2742 2891 2952 3012 3012 2952 2718 0 0 0 1403 1400 1393 1384 1361 1340 0 0 1229 1229 1234 1275 1304 1338 1399 1409 1415 1421 1422 1430 1444 1463 1474 1478 0 0 0 1758 1758 1758 1758 1752 1747 1744 1740 1733 1726 1722 1717 1715 1711 1705 1700 1695 1691 1688 1683 1679 1675 1672 1669 1666 1663 1660 1656 1653 1650 1647 1644 1642 1640 1637 1636 1633 1630 1629 1626 1624 1622 1621 1619 1618 1616 1614 1613 1612 1610 1609 1608 1607 1605 1604 1603 1601 1600 1598 1597 1596 1595 1594 1593 1592 1591 1590 1589 1588 1587 1586 1585 1585 1583 1583 1582 1581 1580 1580 1579 1579 1578 1578 1577 1577 1576 1575 1575 1574 1574 1573 1572 1571 1571 1571 1571 1570 1570 1570 1570 1569 1569 1569 1569 1569 1568 1568 1567 1567 1567 1567 1567 1566 1566 1566 1566 1566 1566 1566 1566 1566 1566 1566 1566 1566 1565 1565 1565 1566 1566 1566 1566 1566 1566 1566 1566 1566 1566 1565 1564 1564 1563 1563 1563 1563 1562 1562 1562 1561 1560 1560 1560 1560 1560 1559 1559 1558 1558 1558 1557 1556 1556 1555 1554 1554 1554 1553 1552 1552 1551 1550 1549 1547 1547 1547 1545 1545 1544 1544 1543 1543 1542 1541 1541 1539 1539 1538 1536 1535 1533 1532 1532 1531 1530 1530 1530 1530 1531 1531 1532 1533 1534 1537 1539 1541 1543 1545 1547 1550 1553 1558 1561 1561 1561 1559 1556 1551 1545 0 0 0 0 0 0 1229 1216 1208 1203 1199 1194 1193 1193 1193 1192 1192 1192 1191 1191 1191 1191 1191 1195 0 0 0 0 0 0 1540 1568 1590 1591 1591 1591 1591 1591 1592 1593 1593 1593 1593 1593 1592 1591 1591 1590 1590 1589 1589 1589 1589 1588 1587 1585 1585 1585 1585 1584 1583 1581 1580 1580 1578 1578 1574 1570 1564 1559 1557 1557 1550 1539 1526 1501 0 0 0 0 0 0 0 0 0 0 1289 1290 1291 1291 1291 1286 0 0 0 0 0 0 0 0 0 0 0 0 0 0 0 0 0 0
720 722 734 734 747 749 753 753 758 775 791 792 795 795 819 832 833 837 837 837 841 841 846 849 874 881 0 0 0 0 0 0 0 0 1332 1341 1343 1344 1344 1343 1343 1344 1345 1357 0 0 0 0 0 0 0 0 0 0 0 0 0 0 0 0 1485 1473 1472 1470 1470 1470 1482 1485 1487 1494 1501 1514 1514 1514 1500 1500 1494 1494 0 0 0 0 0 0 0 0 0 0 0 0 0 0 0 0 0 0 0 0 0 0 0 0 0 0 0 0 0 0 0 0 0 0 0 0 0 0 0 0 0 0 0 0 0 0 0 0 0 0 0 0 0 0 0 0 0 0 0 0 0 0 0 0 0 0 0 1863 1848 1848 1848 1867 0 0 0 0 0 0 0 0 0 0 0 0 0 0 0 0 0 0 0 0 0 0 0 0 0 2579 3008 3060 3060 3060 2982 2960 2917 0 0 0 0 0 0 0 0 0 0 0 0 0 0 0 0 0 2156 0 0 0 0 0 2505 2650 2783 2783 2783 2775 2756 2729 2708 2696 2691 2691 2690 2690 2684 2650 2569 2510 0 0 0 0 0 2647 2893 2939 2945 2960 2969 2969 2973 2974 2974 2985 2994 2994 2994 2962 2895 2835 2835 2835 2918 2996 3026 3036 3041 3041 3041 3041 3040 3037 2993 2940 2896 2709 0 0 0 0 0 0 0 0 0 0 0 2583 2742 2891 2952 3012 3012 2952 2718 0 0 0 1403 1400 1393 1384 1361 1340 0 0 1224 1224 1224 1262 1304 0 0 1409 1455 1455 1457 1464 1465 1473 1475 1487 0 0 0 1758 1758 1758 1752 1749 1745 1739 1734 1730 1725 1721 1717 1714 1708 1704 1699 1695 1691 1687 1683 1678 1674 1671 1668 1665 1661 1659 1655 1652 1650 1647 1644 1641 1639 1637 1635 1633 1630 1628 1625 1623 1621 1620 1619 1617 1615 1614 1612 1611 1610 1608 1607 1606 1604 1603 1602 1601 1599 1598 1596 1595 1595 1593 1593 1592 1591 1590 1589 1588 1587 1586 1585 1584 1583 1582 1582 1581 1580 1580 1579 1579 1578 1577 1577 1577 1576 1575 1575 1574 1574 1573 1572 1571 1571 1571 1570 1570 1570 1570 1570 1569 1569 1569 1569 1569 1568 1567 1567 1567 1567 1567 1566 1566 1566 1566 1566 1566 1566 1566 1566 1566 1565 1565 1565 1565 1565 1565 1565 1565 1566 1566 1566 1566 1566 1566 1565 1565 1565 1565 1564 1564 1563 1562 1562 1562 1561 1561 1561 1561 1560 1560 1560 1559 1559 1559 1558 1558 1558 1557 1557 1556 1555 1555 1554 1554 1553 1553 1551 1551 1550 1549 1548 1547 1546 1546 1544 1544 1543 1543 1543 1542 1541 1540 1539 1539 1538 1536 1536 1534 1533 1532 1531 1531 1530 1530 1530 1530 1531 1531 1532 1533 1534 1536 1539 1541 1543 1545 1548 1550 1553 1558 1559 1559 1559 1559 1556 1554 1550 1529 0 0 0 0 0 0 1238 1225 1222 1218 1213 1207 1201 1196 1194 1193 1193 1193 1193 1193 1193 1194 0 0 0 0 0 0 1512 1568 1577 1590 1591 1591 1591 1591 1591 1592 1593 1593 1592 1592 1592 1592 1591 1591 1590 1589 1587 1587 1587 1587 1587 1586 1585 1584 1584 1583 1582 1581 1580 1579 1578 1578 1576 1574 1570 1565 1562 1559 1557 1550 1538 1526 1520 1499 0 0 0 0 0 0 0 0 0 0 1290 1290 1290 1290 0 0 0 0 0 0 0 0 0 0 0 0 0 0 0 0 0 0 0
720 722 733 734 755 758 761 763 773 784 793 794 798 804 819 832 833 837 837 837 841 841 846 849 874 0 0 0 0 0 0 0 0 1353 1354 1355 1355 1355 1341 1315 1315 1315 1345 0 0 0 0 0 0 0 0 0 0 0 0 0 0 0 0 0 1485 1473 1470 1470 1470 1470 1482 1485 1487 1494 1501 1514 1514 1514 1500 1500 1494 1494 0 0 0 0 0 0 0 0 0 0 0 0 0 0 0 0 0 0 0 0 0 0 0 0 0 0 0 0 0 0 0 0 0 0 0 0 0 0 0 0 0 0 0 0 0 0 0 0 0 0 0 0 0 0 0 0 0 0 0 0 0 0 0 0 0 0 0 0 1848 1844 1844 0 0 0 0 0 0 0 0 0 0 0 0 0 0 0 0 0 0 0 0 0 0 0 0 0 0 2598 2979 2986 2986 2979 2976 2764 0 0 0 0 0 0 0 0 0 0 0 0 0 0 0 0 0 2120 2156 2182 0 0 0 0 0 2650 2777 2777 2777 2753 2719 2699 2689 2689 2689 2687 2687 2680 2640 2566 2564 0 0 0 0 0 2702 2909 2945 2948 2951 2962 2969 2969 2971 2971 2974 2985 2995 2995 2995 2962 2896 2835 2835 2835 2918 2996 3026 3036 3042 3047 3048 3048 3048 3045 2995 2914 2896 2665 0 0 0 0 0 0 0 0 0 0 0 2583 2742 2913 2952 3012 3012 2952 2712 0 0 0 1403 1395 1393 1369 1360 1340 0 0 1224 1224 1224 1258 1282 0 0 0 1477 1501 1505 1505 1505 1489 1489 1489 0 0 0 1753 1753 1753 1748 1746 1743 1735 1731 1728 1725 1720 1716 1711 1707 1702 1698 1694 1690 1687 1682 1677 1673 1669 1666 1664 1660 1658 1655 1652 1649 1646 1644 1641 1639 1636 1634 1632 1630 1627 1624 1623 1620 1619 1618 1616 1615 1613 1612 1611 1609 1608 1607 1606 1604 1603 1602 1599 1598 1598 1596 1595 1594 1593 1592 1591 1591 1590 1589 1588 1587 1586 1585 1584 1583 1582 1582 1581 1580 1580 1579 1579 1578 1577 1577 1577 1576 1575 1575 1574 1574 1573 1572 1571 1571 1570 1570 1570 1570 1570 1570 1569 1569 1569 1569 1569 1568 1567 1567 1567 1566 1566 1566 1566 1566 1566 1566 1566 1566 1566 1566 1565 1565 1565 1565 1564 1564 1564 1564 1564 1565 1565 1565 1565 1565 1565 1565 1565 1565 1564 1564 1563 1562 1562 1561 1561 1561 1561 1561 1560 1560 1559 1559 1559 1558 1558 1558 1558 1557 1556 1556 1556 1555 1554 1554 1553 1553 1551 1551 1550 1549 1549 1547 1546 1546 1545 1544 1543 1543 1542 1541 1541 1540 1539 1538 1537 1536 1536 1534 1533 1532 1531 1530 1530 1529 1529 1529 1529 1530 1531 1531 1533 1534 1536 1539 1541 1542 1545 1548 1550 1553 1555 1557 1557 1557 1557 1556 1554 1550 1540 1526 0 0 0 0 0 1264 1241 1233 1231 1227 1219 1210 1198 1196 1196 1196 1201 1202 1203 1211 1228 0 0 0 0 0 1513 1538 1569 1582 1589 1589 1589 1589 1589 1591 1592 1592 1592 1592 1592 1592 1591 1591 1590 1589 1587 1587 1587 1587 1586 1586 1584 1583 1583 1582 1582 1581 1580 1579 1578 1578 1577 1576 1574 1570 1565 1562 1560 1557 1550 1536 1527 1523 1506 0 0 0 0 0 0 0 0 0 0 0 0 0 0 0 0 0 0 0 0 0 0 0 0 0 0 0 0 0 0 0 0 0
694 697 711 733 755 762 763 769 773 0 0 0 0 0 0 0 0 0 0 0 0 0 0 0 0 0 0 0 0 0 0 0 0 1398 1373 1356 1347 1341 1320 1312 1312 1312 0 0 0 0 0 0 0 0 0 0 0 0 0 0 0 0 0 0 1485 1473 1470 1470 1470 1470 1482 1485 1487 1494 1501 1514 1514 1514 1500 1500 1494 1494 0 0 0 0 0 0 0 0 0 0 0 0 0 0 0 0 0 0 0 0 0 0 0 0 0 0 0 0 0 0 0 0 0 0 0 0 0 0 0 0 0 0 0 0 0 0 0 0 0 0 0 0 0 0 0 0 0 0 0 0 0 0 0 0 0 0 0 0 0 0 0 0 0 0 0 0 0 0 0 0 0 0 0 0 0 0 0 0 0 0 0 0 0 0 0 0 0 0 2807 2855 2855 2807 2560 0 0 0 0 0 0 0 0 0 0 0 0 0 0 0 0 0 0 2091 2125 2156 0 0 0 0 0 2650 2758 2758 2758 2714 2686 2673 2673 2673 2673 2673 2653 2603 2562 2541 0 0 0 0 2671 2859 2952 2953 2956 2956 2956 2962 2969 2969 2969 2969 2974 2988 2995 2995 2995 2965 2898 2835 2835 2835 2925 2998 3026 3036 3042 3050 3051 3051 3051 3045 2995 2914 2895 2665 0 0 0 0 0 0 0 0 0 0 2525 2598 2721 2913 2937 2982 2982 2937 2635 0 0 1393 1392 1381 1364 1341 1326 1312 1284 1235 1224 1224 1224 1258 1282 0 0 0 0 1501 1534 1539 1539 1539 1538 1538 0 0 0 1752 1752 1752 1744 1744 1741 1734 1729 1727 1723 1719 1712 1709 1705 1701 1697 1692 1689 1685 1679 1676 1672 1668 1666 1663 1660 1657 1654 1651 1648 1646 1643 1640 1637 1635 1633 1631 1629 1626 1624 1622 1619 1618 1617 1615 1614 1612 1612 1610 1608 1608 1607 1606 1604 1602 1601 1599 1598 1597 1596 1595 1594 1593 1592 1591 1591 1590 1589 1588 1587 1586 1585 1584 1583 1583 1582 1581 1580 1580 1579 1579 1578 1577 1577 1577 1576 1575 1575 1574 1574 1573 1572 1571 1571 1571 1570 1570 1570 1570 1569 1569 1569 1569 1569 1568 1568 1567 1567 1567 1566 1566 1566 1566 1566 1566 1566 1566 1566 1566 1566 1565 1565 1565 1564 1564 1564 1564 1564 1564 1564 1564 1564 1565 1564 1564 1564 1564 1564 1564 1564 1563 1562 1562 1561 1560 1560 1560 1560 1559 1559 1559 1559 1558 1558 1558 1557 1557 1557 1556 1555 1555 1554 1554 1553 1553 1551 1551 1551 1549 1549 1548 1547 1545 1545 1545 1544 1542 1542 1541 1540 1540 1539 1538 1537 1536 1535 1534 1533 1532 1531 1530 1530 1529 1528 1528 1529 1529 1530 1530 1531 1532 1534 1536 1538 1541 1542 1545 1548 1550 1551 1553 1554 1555 1555 1555 1555 1555 1554 1553 1543 1529 0 0 0 0 0 1276 1250 1242 1242 1241 1238 1229 1224 1223 1223 1224 1224 1229 1246 0 0 0 0 0 0 1527 1558 1573 1587 1588 1588 1589 1589 1589 1590 1591 1592 1592 1592 1591 1591 1591 1590 1590 1589 1587 1587 1586 1586 1585 1585 1584 1583 1582 1581 1580 1579 1578 1577 1577 1576 1576 1575 1574 1569 1565 1562 1560 1557 1550 1536 1528 1524 1510 0 0 0 0 0 0 0 0 0 0 0 0 0 0 0 0 0 0 0 0 0 0 0 0 0 0 0 0 0 0 0 0 0
659 697 711 733 755 772 0 0 0 0 0 0 0 0 0 0 0 0 0 0 0 0 0 0 0 0 0 0 0 0 0 0 0 1398 1373 1356 1346 1323 1310 1264 1264 0 0 0 0 0 0 0 0 0 0 0 0 0 0 0 0 0 0 0 1530 1530 1530 0 0 1528 1528 1528 1537 1540 1548 1567 1567 1567 1552 1534 1529 1527 0 0 0 0 0 0 0 0 0 0 0 0 0 0 0 0 0 0 0 0 0 0 0 0 0 0 0 0 0 0 0 0 0 0 0 0 0 0 0 0 0 0 0 0 0 0 0 0 0 0 0 0 0 0 0 0 0 0 0 0 0 0 0 0 0 0 0 0 0 0 0 0 0 0 0 0 0 0 0 0 0 0 0 0 0 0 0 0 0 0 0 0 0 0 0 0 0 0 0 0 0 0 0 0 0 0 0 0 0 0 0 0 0 0 0 0 0 0 0 0 0 0 2086 0 0 0 0 0 0 2633 2693 2693 2693 2657 2657 2653 2653 2653 2643 2595 2544 2503 0 0 0 0 0 2690 2866 2946 2958 2958 2958 2958 2958 2964 2969 2970 2972 2973 2982 2993 2996 2996 2996 2965 2898 2835 2835 2835 2930 2998 3026 3039 3048 3053 3053 3053 3052 3045 2995 2914 2896 2646 0 0 0 0 0 0 0 0 0 0 2564 2605 2721 2913 2913 2913 2910 2879 2562 0 0 1393 1392 1381 1364 1341 1326 1304 1284 1235 1235 1235 1243 1258 1282 1314 0 0 0 0 1534 1566 1566 1566 1549 1549 0 0 0 1751 1751 1751 1744 1741 1737 1732 1728 1725 1721 1715 1710 1708 1704 1700 1695 1691 1686 1683 1678 1674 1671 1668 1666 1662 1659 1656 1653 1650 1647 1645 1642 1640 1637 1634 1632 1630 1629 1626 1624 1620 1618 1618 1616 1614 1613 1612 1611 1609 1608 1607 1606 1604 1603 1602 1600 1599 1597 1596 1596 1594 1594 1593 1592 1591 1590 1590 1589 1588 1587 1586 1585 1584 1583 1583 1582 1581 1581 1580 1579 1579 1578 1577 1577 1577 1576 1575 1575 1574 1574 1573 1572 1571 1570 1570 1570 1570 1570 1570 1569 1569 1569 1568 1568 1568 1568 1567 1567 1567 1566 1566 1566 1566 1566 1566 1566 1566 1566 1566 1565 1565 1565 1565 1564 1564 1564 1564 1564 1564 1564 1564 1564 1564 1564 1564 1564 1564 1564 1564 1563 1563 1562 1561 1561 1560 1560 1560 1559 1559 1559 1559 1559 1558 1558 1557 1557 1556 1556 1555 1554 1554 1554 1554 1553 1552 1551 1550 1549 1548 1547 1547 1546 1545 1544 1543 1542 1541 1541 1540 1540 1539 1538 1538 1536 1535 1534 1533 1532 1531 1530 1529 1528 1528 1528 1528 1528 1529 1529 1530 1530 1532 1534 1536 1538 1540 1542 1544 1546 1547 1549 1551 1554 1555 1555 1555 1555 1556 1556 1555 1553 1547 1532 0 0 0 0 0 0 0 0 1259 1259 1259 1259 1259 1257 1257 1257 1267 1271 0 0 0 0 0 1511 1549 1565 1578 1587 1588 1588 1589 1589 1589 1590 1591 1591 1591 1591 1591 1591 1591 1590 1590 1588 1587 1586 1586 1585 1584 1583 1582 1581 1581 1581 1580 1578 1577 1577 1576 1574 1573 1573 1570 1565 1561 1561 1560 1555 1545 1534 1528 1526 1518 0 0 0 0 0 0 0 0 0 0 0 0 0 0 0 0 0 0 0 0 0 0 0 0 0 0 0 0 0 0 0 0 0
0 0 0 0 0 0 0 0 0 0 0 0 0 0 0 0 0 0 0 0 0 0 0 0 0 0 0 0 0 0 0 0 0 1398 1373 1340 1340 1310 1275 1275 0 0 0 0 0 0 0 0 0 0 0 0 0 0 0 0 0 0 0 0 1528 1528 1552 1552 1553 1554 1554 1555 1570 1576 1578 1588 1593 1593 1593 1580 1570 1560 0 0 0 0 0 0 0 0 0 0 0 0 0 0 0 0 0 0 0 0 0 0 0 0 0 0 0 0 0 0 0 0 0 0 0 0 0 0 0 0 0 0 0 0 0 0 0 0 0 0 0 0 1103 1103 1102 1104 1105 0 0 0 0 0 0 0 0 0 0 0 0 0 0 0 0 0 0 0 0 0 0 0 0 0 0 0 0 0 0 0 0 0 0 0 0 0 0 0 0 0 0 0 0 0 0 0 0 0 0 0 0 0 0 0 0 0 0 0 0 0 0 0 0 0 0 0 0 0 0 0 0 0 2552 2560 2568 2576 2600 2600 2600 2590 2540 0 0 0 0 0 0 0 2703 2867 2932 2964 2964 2964 2958 2958 2958 2964 2969 2970 2976 2983 2991 2996 2996 2996 2996 2965 2921 2842 2842 2842 2930 2998 3026 3039 3048 3058 3058 3058 3054 3043 2979 2914 2899 2644 0 0 0 0 0 0 0 0 0 2511 2580 2605 2707 2826 2910 2910 2910 2861 2539 0 0 1393 1392 1381 1364 1341 1326 1304 1284 1269 1269 1269 1283 1293 1296 1314 1321 0 0 0 0 1566 1566 1566 1566 1566 0 0 1767 1767 1767 1750 1742 1738 1736 1729 1727 1723 1720 1714 1708 1706 1702 1699 1693 1690 1686 1681 1678 1674 1670 1667 1664 1660 1657 1655 1652 1649 1646 1644 1641 1638 1637 1633 1631 1630 1628 1625 1623 1620 1617 1616 1614 1614 1611 1611 1610 1609 1607 1607 1606 1604 1603 1601 1600 1599 1597 1596 1595 1594 1593 1592 1591 1590 1590 1590 1589 1588 1587 1586 1585 1584 1583 1583 1582 1581 1581 1580 1579 1579 1578 1577 1577 1577 1576 1575 1575 1574 1574 1573 1572 1571 1570 1570 1570 1570 1570 1569 1569 1569 1569 1568 1568 1568 1568 1567 1567 1567 1567 1566 1566 1566 1566 1566 1566 1566 1566 1566 1565 1565 1565 1565 1564 1564 1564 1563 1563 1563 1563 1563 1563 1564 1564 1564 1564 1564 1563 1563 1562 1562 1561 1560 1560 1560 1559 1559 1559 1558 1558 1558 1558 1557 1557 1556 1556 1556 1555 1554 1554 1553 1552 1552 1552 1551 1550 1549 1549 1548 1547 1546 1545 1544 1543 1543 1542 1541 1540 1539 1538 1538 1537 1536 1534 1534 1533 1532 1531 1530 1529 1528 1528 1528 1528 1528 1528 1529 1529 1529 1530 1532 1534 1536 1538 1539 1541 1543 1545 1547 1549 1551 1554 1555 1555 1555 1556 1557 1557 1557 1557 1555 1547 1532 0 0 0 0 0 0 0 0 0 0 0 0 1266 1266 1266 1276 0 0 0 0 0 1527 1549 1571 1580 1582 1587 1588 1588 1589 1589 1589 1589 1591 1591 1591 1591 1591 1591 1590 1590 1589 1588 1587 1586 1585 1584 1584 1583 1581 1581 1580 1579 1579 1578 1577 1574 1573 1572 1572 1570 1569 1562 1560 1559 1556 1554 1535 1532 1528 1526 1519 1488 0 0 0 0 0 0 0 0 0 0 0 0 0 0 0 0 0 0 0 0 0 0 0 0 0 0 0 0 0 0 0 0
0 0 0 0 0 0 0 0 0 0 0 0 0 0 0 0 0 0 0 0 0 0 0 0 0 0 0 0 0 0 0 0 0 0 1340 1340 1310 1310 0 0 0 0 0 0 0 0 0 0 0 0 0 0 0 0 0 0 0 0 0 0 1537 1537 1560 1564 1565 1565 1566 1570 1577 1591 1596 1604 1611 1611 1611 1603 1595 1591 0 0 0 0 0 0 0 0 0 0 0 0 0 0 0 0 0 0 0 0 0 0 0 0 0 0 0 0 0 0 0 0 0 0 0 0 0 0 0 0 0 0 0 0 0 0 0 0 0 0 0 1102 1093 1090 1089 1089 1089 1091 1113 1127 1147 1149 1157 0 0 0 0 0 0 0 0 0 0 0 0 0 0 0 0 0 0 0 0 0 0 0 0 0 0 0 0 0 0 0 0 0 0 0 0 0 0 0 0 0 0 0 0 0 0 0 0 0 0 0 0 0 0 0 0 0 0 0 0 0 0 0 0 0 0 0 0 0 0 0 0 0 0 0 0 0 0 0 0 0 0 2695 2794 2881 2939 2966 2966 2966 2961 2961 2961 2969 2972 2976 2985 2992 2994 2997 3000 3000 3000 2981 2933 2856 2856 2856 2930 2991 3025 3039 3050 3058 3061 3061 3061 3035 2967 2957 2914 2635 0 0 0 0 0 0 0 0 0 2547 2592 2605 2680 2773 2894 2894 2894 2861 2501 0 0 1434 1427 1410 1387 1367 1340 1304 1294 1294 1294 1315 1324 1324 1324 1324 1324 1347 0 0 0 1538 1538 1538 1564 1566 0 0 1769 1769 1769 1750 1741 1736 1733 1729 1726 1723 1719 1713 1707 1704 1701 1697 1693 1688 1684 1680 1676 1673 1668 1666 1662 1660 1657 1653 1651 1648 1646 1644 1640 1637 1636 1632 1629 1628 1626 1623 1620 1618 1617 1615 1613 1613 1611 1610 1609 1608 1606 1606 1604 1603 1602 1601 1599 1598 1597 1595 1594 1593 1592 1592 1591 1590 1590 1590 1588 1588 1587 1586 1585 1584 1583 1583 1582 1581 1581 1580 1579 1578 1578 1577 1577 1577 1576 1575 1575 1574 1573 1573 1572 1571 1571 1570 1570 1570 1570 1569 1569 1568 1568 1568 1568 1568 1568 1567 1567 1567 1567 1567 1567 1567 1566 1566 1566 1566 1566 1566 1565 1565 1565 1565 1564 1564 1563 1563 1563 1563 1563 1563 1563 1563 1563 1563 1563 1563 1563 1562 1561 1561 1560 1560 1559 1559 1559 1558 1558 1558 1558 1557 1557 1556 1556 1556 1555 1554 1553 1553 1553 1552 1551 1551 1551 1549 1549 1549 1548 1547 1546 1545 1544 1543 1543 1542 1541 1540 1539 1539 1537 1537 1536 1535 1534 1533 1533 1531 1530 1529 1529 1528 1528 1528 1528 1528 1528 1528 1528 1529 1530 1531 1532 1535 1538 1539 1540 1543 1545 1547 1549 1551 1553 1554 1555 1556 1557 1557 1557 1557 1557 1555 1548 1543 1540 0 0 0 0 0 0 0 0 0 0 0 0 0 0 0 0 0 0 0 1532 1548 1573 1576 1580 1582 1587 1588 1588 1588 1588 1588 1589 1589 1590 1591 1591 1591 1590 1590 1590 1589 1588 1587 1586 1585 1584 1583 1582 1581 1580 1580 1579 1578 1578 1576 1574 1573 1571 1570 1569 1566 1559 1553 1553 1552 1537 1529 1526 1526 1523 1521 1488 0 0 0 0 0 0 0 0 0 0 0 0 0 0 0 0 0 0 0 0 0 0 0 0 0 0 0 0 0 0 0 0
0 0 0 0 0 0 0 0 0 0 0 0 0 0 0 0 0 0 0 0 0 0 0 0 0 0 0 0 0 0 0 0 0 0 0 0 0 0 0 0 0 0 0 0 0 0 0 0 0 0 0 0 0 0 0 0 0 0 0 0 1509 1544 1560 1564 1565 1565 1566 1570 1578 1591 1596 1604 1611 1616 1616 1616 1611 1609 0 0 0 0 0 0 0 0 0 0 0 0 0 0 0 0 0 0 0 0 0 0 0 0 0 0 0 0 0 0 0 0 0 0 0 0 0 0 0 0 0 0 0 0 0 0 0 0 0 0 0 1099 1090 1090 1087 1087 1087 1091 1113 1127 1144 1144 1144 1134 1106 1094 1088 1087 1087 1085 1085 1085 1085 1082 1080 1074 1060 1051 1042 0 0 0 0 0 0 0 0 0 0 0 0 0 0 0 0 0 0 0 0 0 0 0 0 0 0 0 0 0 0 0 0 0 0 0 0 0 0 0 0 0 0 0 0 0 0 0 0 0 0 0 0 0 0 0 0 0 0 0 0 0 0 0 0 2548 2683 2783 2819 2897 2965 2968 2968 2968 2968 2968 2969 2978 2987 2992 2994 2996 2998 3002 3002 3002 3001 2990 2935 2871 2871 2871 2892 2984 3025 3039 3050 3058 3066 3066 3066 3022 2967 2932 2822 0 0 0 0 0 0 0 0 0 2533 2581 2592 2604 2680 2768 2876 2876 2876 2820 0 0 0 1476 1456 1437 1423 1406 0 0 1317 1317 1317 1346 1351 1351 1351 1347 1347 1347 1376 0 0 1499 1529 1531 1536 0 0 0 1769 1769 1769 1749 1740 1736 1733 1729 1726 1723 1718 1712 1707 1703 1699 1696 1692 1688 1682 1678 1674 1671 1668 1664 1661 1659 1657 1653 1650 1648 1645 1642 1639 1636 1634 1631 1629 1627 1625 1622 1619 1617 1615 1614 1613 1612 1611 1610 1608 1607 1606 1605 1604 1602 1601 1599 1598 1598 1596 1595 1594 1593 1592 1591 1590 1589 1589 1588 1588 1587 1587 1586 1585 1584 1583 1582 1582 1581 1581 1579 1579 1578 1578 1577 1577 1576 1576 1575 1574 1574 1573 1572 1572 1571 1571 1571 1570 1569 1569 1569 1569 1568 1568 1568 1568 1568 1568 1567 1567 1567 1567 1567 1567 1567 1567 1567 1566 1566 1566 1566 1565 1565 1565 1564 1564 1564 1563 1563 1563 1563 1563 1563 1563 1563 1563 1563 1563 1563 1562 1561 1561 1561 1560 1560 1559 1559 1559 1558 1558 1557 1557 1556 1556 1555 1555 1555 1554 1554 1553 1552 1552 1552 1551 1550 1549 1549 1548 1548 1547 1546 1545 1544 1543 1542 1542 1541 1540 1540 1538 1538 1537 1535 1535 1534 1533 1532 1532 1531 1530 1529 1528 1527 1527 1527 1527 1527 1528 1528 1528 1529 1530 1530 1532 1534 1537 1538 1540 1543 1545 1547 1549 1551 1553 1554 1555 1556 1557 1557 1557 1557 1557 1555 1550 1548 1548 1545 0 0 0 0 0 0 0 0 0 0 0 0 0 0 0 0 0 1513 1539 1567 1573 1576 1580 1582 1585 1586 1587 1588 1588 1588 1589 1589 1590 1590 1590 1590 1590 1589 1589 1588 1587 1586 1585 1584 1583 1583 1582 1581 1580 1579 1579 1578 1577 1576 1574 1572 1571 1570 1569 1564 1556 1547 1542 1533 1528 1525 1525 1523 1522 1522 1488 0 0 0 0 0 0 0 0 0 0 0 0 0 0 0 0 0 0 0 0 0 0 0 0 0 0 0 0 0 0 0 0
0 0 0 0 0 0 0 0 0 0 0 0 0 0 0 0 0 0 0 0 0 0 0 0 0 0 0 0 0 0 0 0 0 0 0 0 0 0 0 0 0 0 0 0 0 0 0 0 0 0 0 0 0 0 0 0 0 0 0 0 1509 1544 1560 1564 1565 1565 1566 1570 1578 1591 1596 1604 1611 1616 1616 1616 1611 1609 0 0 0 0 0 0 0 0 0 0 0 0 0 0 0 0 0 0 0 0 0 0 0 0 0 0 0 0 0 0 0 0 0 0 0 0 0 0 0 0 0 0 0 0 0 0 0 0 0 0 0 1098 1090 1088 1085 1085 1085 1091 1113 1127 1144 1144 1144 1130 1097 1074 1073 1056 1056 1056 1061 1061 1061 1054 1048 1048 1048 1051 1065 1065 0 0 0 0 0 0 0 0 0 0 0 0 0 0 0 0 0 0 0 0 0 0 0 0 0 0 0 0 0 0 0 0 0 0 0 0 0 0 0 0 0 0 0 0 0 0 0 0 0 0 0 0 0 0 0 0 0 0 0 0 0 2525 2625 2676 2745 2801 2846 2920 2976 2976 2976 2975 2975 2975 2981 2991 2999 2999 3001 3001 3001 3003 3003 3003 3002 2993 2937 2877 2877 2877 2883 2977 3025 3039 3050 3059 3066 3066 3066 3022 2967 2932 2751 0 0 0 0 0 0 0 0 0 2556 2583 2592 2601 2677 2768 2871 2871 2871 2689 0 0 0 1514 1488 1466 1452 1438 0 0 1323 1323 1323 1356 1371 1371 1371 1347 1347 1347 1376 1419 1468 1481 1501 1504 1511 0 0 0 1768 1768 1768 1749 1740 1736 1733 1730 1727 1723 1718 1712 1707 1703 1699 1695 1690 1686 1682 1678 1674 1670 1666 1664 1661 1658 1656 1653 1649 1646 1644 1641 1639 1635 1633 1630 1628 1626 1624 1622 1619 1617 1615 1614 1613 1612 1610 1608 1608 1607 1605 1605 1603 1602 1600 1599 1598 1597 1594 1593 1592 1592 1591 1591 1590 1589 1588 1587 1587 1587 1586 1585 1584 1583 1583 1582 1582 1581 1580 1579 1579 1578 1577 1577 1576 1576 1575 1574 1574 1574 1573 1572 1572 1571 1570 1570 1570 1569 1569 1569 1568 1568 1568 1567 1567 1567 1567 1567 1567 1567 1567 1567 1567 1567 1567 1567 1566 1566 1566 1566 1565 1565 1565 1564 1564 1563 1563 1562 1562 1562 1562 1562 1562 1562 1562 1562 1562 1562 1562 1561 1561 1560 1559 1559 1558 1558 1558 1557 1557 1557 1556 1556 1555 1555 1554 1554 1553 1552 1552 1552 1551 1550 1550 1549 1548 1548 1547 1547 1546 1545 1545 1543 1543 1541 1541 1541 1540 1539 1537 1537 1536 1535 1535 1533 1533 1532 1531 1530 1530 1529 1528 1527 1527 1527 1527 1527 1527 1527 1527 1528 1529 1530 1531 1532 1536 1537 1540 1542 1544 1546 1548 1550 1553 1554 1555 1556 1556 1556 1556 1556 1556 1555 1553 1552 1551 1551 1550 1546 1543 0 0 0 0 0 0 0 0 0 0 0 0 0 1520 1549 1562 1568 1573 1576 1579 1581 1582 1583 1585 1587 1587 1587 1587 1589 1589 1589 1589 1589 1589 1589 1588 1587 1587 1586 1585 1583 1582 1582 1581 1580 1580 1579 1578 1577 1576 1575 1574 1572 1571 1570 1569 1563 1554 1547 1542 1533 1521 1520 1520 1520 1520 1520 1488 0 0 0 0 0 0 0 0 0 0 0 0 0 0 0 0 0 0 0 0 0 0 0 0 0 0 0 0 0 0 0 0
0 0 0 0 0 0 0 0 0 0 0 0 0 0 0 0 0 0 0 0 0 0 0 0 0 0 0 0 0 0 0 0 0 0 0 0 0 0 0 0 0 0 0 0 0 0 0 0 0 0 0 0 0 0 0 0 0 0 0 0 1509 1544 1553 1553 1556 1556 1558 1568 1577 1583 1584 1587 1603 1616 1616 1616 1611 0 0 0 0 0 0 0 0 0 0 0 0 0 0 0 0 0 0 0 0 0 0 0 0 0 0 0 0 0 0 0 0 0 0 0 0 0 0 0 0 0 0 0 0 0 0 0 0 0 0 0 1094 1093 1088 1086 1086 1086 1103 1120 1129 1145 1145 1145 1136 1130 1097 1074 1060 1039 1039 1039 1039 1044 1044 1045 1045 1045 1048 1052 1066 1081 0 0 0 0 0 0 0 0 0 0 0 0 0 0 0 0 0 0 0 0 0 0 0 0 0 0 0 0 0 0 0 0 0 0 0 0 0 0 0 0 0 0 0 0 0 0 0 0 0 0 0 0 0 0 0 0 0 0 0 0 2566 2665 2701 2723 2763 2829 2875 2927 2983 2983 2983 2983 2983 2983 2989 2996 3000 3000 3001 3001 3001 3005 3013 3013 3013 3008 2962 2889 2858 2858 2858 2975 3020 3048 3060 3063 3066 3066 3066 3022 2932 2835 2745 0 0 0 0 0 0 0 0 0 2568 2583 2588 2601 2677 2740 2871 2871 2871 2580 0 0 1571 1547 1525 1504 1485 1469 0 0 1347 1347 1347 1378 1386 1386 1386 1363 1363 1363 1376 1419 1443 1459 1462 1480 1482 0 0 0 1760 1760 1755 1747 1740 1736 1734 1730 1727 1723 1717 1712 1708 1703 1698 1693 1689 1686 1682 1678 1674 1670 1665 1663 1659 1658 1655 1652 1648 1645 1643 1640 1637 1634 1632 1630 1628 1625 1623 1621 1619 1616 1615 1613 1612 1610 1609 1608 1607 1606 1605 1603 1603 1601 1600 1599 1596 1595 1594 1593 1592 1591 1590 1590 1588 1588 1587 1587 1586 1586 1585 1585 1584 1583 1582 1582 1581 1581 1580 1579 1578 1577 1577 1577 1576 1576 1575 1574 1574 1573 1573 1572 1572 1571 1570 1570 1570 1569 1568 1568 1568 1568 1567 1567 1567 1567 1567 1567 1567 1567 1567 1567 1567 1567 1567 1567 1566 1566 1566 1566 1565 1564 1564 1564 1563 1563 1562 1562 1562 1562 1562 1562 1562 1561 1561 1561 1561 1561 1561 1560 1560 1559 1559 1558 1558 1558 1557 1556 1556 1556 1556 1555 1555 1554 1553 1553 1552 1552 1551 1550 1550 1549 1549 1548 1548 1547 1547 1545 1545 1544 1543 1542 1542 1540 1540 1539 1539 1538 1536 1536 1535 1534 1534 1533 1532 1531 1531 1530 1529 1528 1528 1527 1527 1527 1527 1527 1527 1527 1527 1528 1528 1529 1529 1532 1534 1536 1538 1541 1543 1546 1548 1550 1552 1553 1554 1556 1556 1556 1556 1556 1556 1556 1556 1556 1555 1554 1554 1553 1552 1552 1551 1544 1533 0 0 0 0 0 0 0 0 1551 1553 1558 1564 1569 1571 1574 1578 1579 1580 1582 1584 1586 1586 1586 1587 1587 1588 1588 1588 1588 1588 1587 1587 1587 1586 1585 1583 1582 1581 1581 1581 1580 1578 1578 1577 1576 1575 1574 1574 1572 1570 1570 1568 1563 1554 1547 1540 1533 1521 1514 1514 1514 1514 1514 1488 0 0 0 0 0 0 0 0 0 0 0 0 0 0 0 0 0 0 0 0 0 0 0 0 0 0 0 0 0 0 0 0
0 0 0 0 0 0 0 0 0 0 0 0 0 0 0 0 0 0 0 0 0 0 0 0 0 0 0 0 0 0 0 0 0 0 0 0 0 0 0 0 0 0 0 0 0 0 0 0 0 0 0 0 0 0 0 0 0 0 0 0 1503 1527 1541 1542 1543 1543 1551 1564 1564 1564 1564 1566 1569 0 0 0 0 0 0 0 0 0 0 0 0 0 0 0 0 0 0 0 0 0 0 0 0 0 0 0 0 0 0 0 0 0 0 0 0 0 0 0 0 0 0 0 0 0 0 0 0 0 0 0 0 0 0 1029 1057 1077 1081 1082 1087 1093 1104 1121 1138 1145 1145 1145 1136 1130 1097 1074 1054 1030 1030 1030 1039 1041 1041 1045 1045 1045 1048 1053 1069 1081 0 0 0 0 0 0 0 0 0 0 0 0 0 0 0 0 0 0 0 0 0 0 0 0 0 0 0 0 0 0 0 0 0 0 0 0 0 0 0 0 0 0 0 0 0 0 0 0 0 0 0 0 0 0 0 0 0 0 0 2527 2636 2665 2701 2723 2763 2829 2879 2927 2983 2983 2983 2987 2988 2994 2997 2998 3000 3000 3001 3001 3001 3007 3013 3015 3015 3015 2992 2906 2844 2844 2844 2941 3019 3048 3060 3063 3066 3066 3066 3022 2958 2820 2662 0 0 0 0 0 0 0 0 0 2568 2577 2583 2590 2667 2740 2841 2841 2841 0 0 0 1583 1565 1550 1537 1517 1503 0 0 0 1376 1376 1387 1410 1410 1410 1408 0 0 0 1423 1443 1449 1460 1462 0 0 0 0 1769 1769 1755 1747 1742 1737 1734 1730 1727 1723 1717 1712 1708 1703 1696 1690 1687 1684 1681 1677 1673 1669 1664 1662 1659 1656 1653 1650 1646 1643 1640 1638 1636 1634 1631 1630 1627 1625 1623 1621 1618 1616 1614 1612 1611 1609 1608 1607 1606 1605 1604 1603 1602 1600 1598 1597 1596 1594 1593 1592 1591 1589 1589 1589 1588 1587 1587 1586 1586 1586 1585 1585 1583 1583 1582 1582 1581 1581 1579 1579 1578 1577 1577 1576 1576 1575 1575 1574 1574 1573 1573 1572 1572 1571 1570 1570 1569 1568 1568 1568 1567 1567 1567 1567 1567 1567 1567 1567 1567 1567 1567 1567 1567 1567 1567 1567 1566 1566 1566 1565 1564 1564 1563 1563 1563 1562 1562 1562 1561 1561 1561 1561 1561 1561 1561 1561 1560 1560 1560 1559 1559 1558 1558 1558 1557 1557 1556 1556 1555 1555 1554 1554 1553 1553 1553 1552 1552 1551 1549 1549 1548 1548 1547 1546 1546 1545 1545 1545 1544 1543 1542 1542 1541 1540 1539 1539 1538 1537 1536 1535 1535 1534 1534 1533 1532 1531 1531 1530 1529 1528 1528 1527 1526 1526 1526 1526 1526 1526 1526 1527 1528 1528 1529 1531 1532 1535 1537 1540 1542 1545 1548 1550 1551 1553 1554 1555 1556 1556 1556 1556 1556 1559 1559 1559 1559 1559 1558 1558 1558 1557 1555 1553 1553 1553 1553 1556 1556 1556 1557 1561 1567 1570 1570 1570 1570 1570 1571 1574 1577 1578 1580 1582 1583 1584 1585 1585 1586 1586 1587 1587 1587 1587 1586 1586 1586 1586 1586 1584 1582 1581 1580 1580 1579 1579 1578 1578 1576 1574 1574 1573 1573 1572 1570 1570 1568 1559 1554 1546 1539 1530 1520 1514 1514 1514 1513 1513 1485 0 0 0 0 0 0 0 0 0 0 0 0 0 0 0 0 0 0 0 0 0 0 0 0 0 0 0 0 0 0 0 0
0 0 0 0 0 0 0 0 0 0 0 0 0 0 0 0 0 0 0 0 0 0 0 0 0 0 0 0 0 0 0 0 0 0 0 0 0 0 0 0 0 0 0 0 0 0 0 0 0 0 0 0 0 0 0 0 0 0 0 0 0 1494 1507 1525 1534 1538 1541 1541 1541 1535 1535 1532 1532 0 0 0 0 0 0 0 0 0 0 0 0 0 0 0 0 0 0 0 0 0 0 0 0 0 0 0 0 0 0 0 0 0 0 0 0 0 0 0 0 0 0 0 0 0 0 0 0 0 0 0 0 0 0 0 1015 1054 1069 1070 1081 1099 1116 1135 1140 1146 1146 1146 1144 1130 1104 1076 1054 1030 1030 1030 1039 1041 1041 1047 1048 1048 1061 1062 1071 1082 0 0 0 0 0 0 0 0 0 0 0 0 0 0 0 0 0 0 0 0 0 0 0 0 0 0 0 0 0 0 0 0 0 0 0 0 0 0 0 0 0 0 0 0 0 0 0 0 0 0 0 0 0 0 0 0 0 0 2548 2605 2636 2665 2701 2723 2763 2829 2879 2927 2983 2983 2983 2987 2988 2994 2997 2998 3000 3000 3001 3001 3001 3007 3013 3015 3015 3015 2992 2906 2836 2836 2836 2932 3019 3048 3060 3060 3060 3057 3047 3022 2958 2819 2643 0 0 0 0 0 0 0 0 0 0 2507 2547 2547 2547 2632 2696 2696 0 0 0 0 1585 1577 1571 1565 1552 1529 0 0 0 0 0 0 0 0 0 0 0 0 1443 1443 1443 1449 1460 1462 0 0 0 0 1772 1772 1755 1747 1743 1738 1734 1730 1727 1723 1717 1712 1708 1702 1695 1689 1684 1681 1679 1677 1673 1669 1664 1660 1658 1656 1652 1648 1645 1642 1639 1638 1636 1633 1631 1629 1627 1625 1622 1620 1618 1615 1613 1612 1610 1609 1608 1607 1605 1604 1603 1602 1600 1598 1598 1595 1594 1593 1591 1590 1589 1588 1588 1587 1586 1586 1586 1586 1585 1584 1584 1584 1583 1582 1581 1581 1580 1579 1579 1578 1577 1577 1577 1576 1576 1575 1574 1574 1574 1573 1572 1572 1571 1570 1570 1569 1569 1568 1568 1567 1567 1566 1566 1566 1566 1566 1566 1566 1566 1566 1566 1567 1567 1567 1567 1567 1566 1565 1565 1565 1564 1563 1563 1562 1562 1562 1561 1561 1561 1561 1561 1560 1560 1560 1560 1560 1559 1559 1559 1559 1558 1558 1558 1557 1556 1556 1555 1555 1555 1554 1554 1553 1553 1552 1551 1551 1550 1549 1548 1548 1547 1547 1546 1545 1545 1545 1545 1544 1544 1543 1542 1541 1540 1540 1539 1538 1537 1536 1536 1535 1535 1534 1533 1532 1532 1531 1530 1530 1529 1528 1527 1527 1526 1526 1526 1526 1526 1526 1526 1526 1527 1527 1528 1530 1531 1533 1536 1538 1541 1544 1547 1548 1551 1553 1554 1555 1556 1557 1558 1558 1559 1562 1563 1563 1564 1564 1563 1563 1562 1562 1560 1557 1556 1556 1556 1559 1559 1559 1561 1561 1567 1570 1570 1570 1570 1570 1571 1574 1577 1578 1580 1581 1583 1584 1584 1584 1585 1585 1585 1585 1585 1585 1585 1585 1585 1585 1584 1583 1581 1580 1579 1579 1578 1578 1577 1576 1575 1574 1574 1573 1573 1572 1570 1568 1564 1556 1552 1546 1536 1530 1518 1513 1513 1511 1510 1490 1470 0 0 0 0 0 0 0 0 0 0 0 0 0 0 0 0 0 0 0 0 0 0 0 0 0 0 0 0 0 0 0 0
0 0 0 0 0 0 0 0 0 0 0 0 0 0 0 0 0 0 0 0 0 0 0 0 0 0 0 0 0 0 0 0 0 0 0 0 0 0 0 0 0 0 0 0 0 0 0 0 0 0 0 0 0 0 0 0 0 0 0 0 0 0 0 1495 1516 1522 1523 1523 1523 1510 1510 1492 1476 1460 1441 1424 1424 1424 1424 1426 1427 0 0 0 0 0 0 0 0 0 0 0 0 0 0 0 0 0 0 0 0 0 0 0 0 0 0 0 0 0 0 0 0 0 0 0 0 0 0 0 0 0 0 0 0 0 0 0 0 1054 1069 1070 1081 1101 1128 1145 1145 1147 1147 1147 1143 1130 1114 1080 1054 1030 1030 1030 1043 1043 1043 1053 1053 1056 1083 1083 1087 0 0 0 0 0 0 0 0 0 0 0 0 0 0 0 0 0 0 1168 1179 1198 0 0 0 0 0 0 0 0 0 0 0 0 0 1188 1188 1194 0 0 0 0 0 0 0 0 0 0 0 0 0 0 0 0 0 0 0 0 0 0 2548 2605 2636 2665 2695 2705 2744 2809 2879 2907 2934 2960 2969 2982 2988 2994 2994 2994 2991 2991 2991 2996 3001 3007 3011 3014 3014 3014 2992 2906 2827 2827 2827 2884 2977 3018 3018 3019 3019 3019 3017 3017 2958 2819 2643 2571 0 0 0 0 0 0 0 0 0 0 0 0 0 0 0 0 0 0 0 0 1591 1584 1583 1583 1569 1548 0 0 0 0 0 0 0 0 0 0 0 0 1489 1473 1460 1460 1460 1462 0 0 0 1772 1772 1772 1757 1750 1744 1738 1733 1729 1727 1722 1717 1711 1707 1701 1694 1688 1683 1680 1677 1675 1672 1667 1663 1659 1657 1653 1650 1647 1644 1641 1639 1637 1635 1633 1631 1628 1626 1624 1622 1619 1617 1615 1612 1611 1609 1608 1607 1605 1604 1603 1602 1601 1599 1597 1596 1594 1593 1592 1591 1589 1588 1586 1586 1585 1585 1585 1584 1584 1584 1583 1583 1583 1581 1581 1581 1580 1580 1579 1578 1578 1577 1576 1576 1576 1575 1575 1574 1573 1573 1572 1572 1572 1571 1570 1570 1569 1568 1568 1567 1567 1566 1566 1566 1566 1565 1565 1565 1565 1566 1566 1566 1566 1566 1566 1566 1566 1566 1565 1565 1564 1564 1563 1563 1562 1562 1561 1561 1561 1560 1560 1560 1560 1560 1559 1559 1559 1559 1559 1558 1558 1558 1557 1557 1556 1556 1555 1554 1554 1553 1553 1552 1552 1552 1551 1550 1550 1549 1548 1548 1547 1546 1546 1546 1545 1545 1544 1544 1544 1543 1542 1541 1541 1540 1539 1539 1538 1536 1535 1535 1534 1534 1534 1532 1532 1531 1530 1530 1529 1529 1528 1527 1527 1526 1526 1526 1525 1525 1525 1526 1526 1526 1527 1528 1529 1530 1533 1536 1537 1541 1544 1547 1548 1551 1552 1553 1555 1556 1557 1558 1559 1561 1562 1563 1564 1565 1565 1565 1564 1564 1563 1563 1560 1558 1558 1558 1559 1559 1560 1561 1561 1567 1570 1570 1570 1570 1570 1571 1574 1575 1578 1579 1581 1581 1582 1582 1583 1583 1584 1584 1584 1584 1584 1584 1583 1583 1583 1583 1582 1581 1580 1579 1578 1577 1576 1576 1575 1575 1574 1574 1573 1572 1570 1567 1564 1558 1555 1552 1543 1534 1526 1516 1510 1505 1503 1501 1479 1461 0 0 0 0 0 0 0 0 0 0 0 0 0 0 0 0 0 0 0 0 0 0 0 0 0 0 0 0 0 0 0 0
0 0 0 0 0 0 0 0 0 0 0 0 0 0 0 0 0 0 0 0 0 0 0 0 0 0 0 0 0 0 0 0 0 0 0 0 0 0 0 0 0 0 0 0 0 0 0 0 0 0 0 0 0 0 0 0 0 0 0 0 0 0 0 0 0 0 0 0 1491 1488 1473 1471 1460 1448 1437 1424 1424 1424 1424 1426 1427 1434 0 0 0 0 0 0 0 0 0 0 0 0 0 0 0 0 0 0 0 0 0 0 0 0 0 0 0 0 0 0 0 0 0 0 0 0 0 0 0 0 0 0 0 0 0 0 0 0 1069 1070 1082 1102 0 0 0 0 1150 1147 1143 1130 1127 0 0 0 0 0 0 0 0 0 0 0 0 0 0 0 0 0 0 0 0 0 0 0 0 0 0 0 0 0 0 0 1179 1193 1208 1215 1247 0 0 0 0 0 0 0 0 0 0 0 0 1174 1174 1188 1206 0 0 0 0 0 0 0 0 0 0 0 0 0 0 0 0 0 0 0 0 0 2548 2605 2606 2633 2646 2660 2696 2737 2787 2826 2854 2881 2895 2904 2913 2936 2948 2948 2948 2948 2948 2951 2952 2956 2964 2964 2964 2963 2943 2913 2836 2794 2794 2794 2890 2949 2969 2970 2977 2977 2977 2975 2931 2793 2662 2571 0 0 0 0 0 0 0 0 0 0 0 0 0 0 0 0 0 0 0 1653 1624 1607 1596 1594 1590 1581 1559 0 0 0 0 0 0 0 0 0 1563 1559 1544 1509 1497 1497 1497 0 0 0 0 1773 1773 1773 1757 1750 1744 1739 1733 1729 1727 1722 1716 1710 1706 1700 1694 1688 1683 1679 1677 1673 1670 1667 1663 1659 1656 1651 1649 1646 1643 1641 1638 1637 1635 1632 1630 1627 1625 1623 1621 1619 1617 1614 1612 1611 1609 1607 1607 1605 1603 1602 1601 1599 1598 1597 1595 1593 1592 1591 1589 1587 1586 1585 1583 1583 1583 1583 1583 1583 1582 1582 1582 1581 1580 1579 1579 1579 1578 1578 1577 1576 1576 1575 1575 1575 1575 1575 1574 1573 1572 1572 1571 1571 1571 1570 1569 1569 1568 1567 1567 1566 1566 1566 1566 1565 1565 1565 1565 1565 1565 1566 1566 1566 1566 1566 1566 1565 1565 1564 1564 1564 1563 1563 1562 1562 1561 1561 1561 1560 1560 1559 1559 1559 1559 1559 1559 1559 1558 1558 1558 1558 1557 1557 1556 1555 1555 1554 1554 1553 1553 1552 1552 1551 1551 1550 1549 1549 1549 1547 1547 1546 1545 1545 1544 1543 1543 1543 1543 1542 1542 1541 1540 1540 1539 1539 1538 1537 1536 1535 1534 1534 1533 1533 1532 1532 1531 1530 1530 1529 1529 1528 1527 1527 1526 1526 1525 1525 1525 1525 1525 1525 1526 1527 1527 1529 1530 1532 1535 1537 1540 1543 1545 1548 1550 1552 1553 1555 1556 1557 1558 1559 1561 1562 1563 1564 1565 1565 1565 1564 1564 1564 1563 1561 1560 1560 1560 1560 1560 1560 1561 1562 1564 1568 1569 1569 1569 1570 1571 1574 1575 1578 1579 1579 1580 1581 1581 1582 1583 1583 1583 1583 1582 1582 1582 1582 1581 1581 1581 1580 1580 1578 1578 1576 1576 1575 1575 1575 1574 1574 1574 1572 1571 1568 1564 1560 1555 1554 1551 1542 1532 1524 1515 1495 1491 1490 1489 1476 1458 0 0 0 0 0 0 0 0 0 0 0 0 0 0 0 0 0 0 0 0 0 0 0 0 0 0 0 0 0 0 0 0
533 548 0 0 0 0 0 0 0 0 0 0 0 0 0 0 0 0 0 0 0 0 0 0 0 0 0 0 0 0 0 0 0 0 0 0 0 0 0 0 0 0 0 0 0 0 0 0 0 0 0 0 0 0 0 0 0 0 0 0 0 0 0 0 0 0 0 0 0 0 1462 1462 1453 1441 1433 1424 1424 1424 1424 1426 1427 1434 0 0 0 0 0 0 0 0 0 0 0 0 0 0 0 0 0 0 0 0 0 0 0 0 0 0 0 0 0 0 0 0 0 0 0 0 0 0 0 0 0 0 0 0 0 0 0 0 0 0 0 0 0 0 0 0 0 0 0 0 0 0 0 0 0 0 0 0 0 0 0 0 0 0 0 0 0 0 0 0 0 0 0 0 0 0 0 0 0 0 0 0 1226 1226 1233 1236 1249 0 0 0 0 0 0 0 0 0 0 0 0 1146 1169 1183 1202 0 0 0 0 0 0 0 0 0 0 0 0 0 0 0 0 0 0 0 0 0 0 2550 2569 2605 2636 2641 2656 2676 2716 2754 2782 2805 2836 2851 2855 2872 2889 2896 2896 2897 2897 2906 2907 2915 2927 2936 2937 2937 2937 2908 2837 2788 2788 2788 2818 2882 2935 2951 2957 2969 2969 2969 2904 2793 2643 2571 0 0 0 0 0 0 0 2654 2654 2654 2581 0 0 0 0 0 0 0 1696 1655 1646 1638 1631 1618 1611 1605 1599 0 0 0 0 0 0 1611 1611 1607 1596 1585 1574 1547 1541 1541 1541 0 0 0 0 1775 1775 1775 1757 1750 1744 1739 1733 1729 1726 1721 1715 1710 1705 1699 1694 1688 1683 1678 1674 1670 1668 1665 1662 1659 1655 1651 1648 1645 1642 1640 1637 1635 1633 1631 1629 1627 1625 1622 1620 1619 1616 1614 1612 1609 1608 1607 1606 1604 1602 1601 1599 1599 1596 1596 1594 1592 1591 1590 1588 1586 1585 1583 1582 1582 1582 1582 1582 1581 1580 1580 1580 1579 1579 1578 1577 1577 1577 1576 1575 1575 1575 1574 1574 1574 1573 1573 1573 1572 1572 1571 1570 1570 1569 1569 1568 1568 1567 1566 1566 1566 1565 1564 1564 1564 1564 1564 1564 1565 1565 1565 1565 1566 1566 1566 1566 1565 1565 1564 1564 1564 1563 1562 1562 1561 1561 1560 1560 1559 1559 1559 1559 1559 1559 1559 1558 1558 1557 1557 1557 1556 1556 1555 1555 1555 1554 1554 1553 1552 1552 1551 1551 1551 1551 1550 1549 1549 1548 1547 1546 1545 1545 1544 1544 1543 1543 1542 1542 1541 1541 1540 1539 1539 1538 1538 1537 1536 1536 1535 1533 1533 1533 1532 1532 1531 1530 1530 1530 1529 1529 1528 1527 1527 1526 1526 1525 1525 1525 1525 1525 1525 1526 1526 1527 1528 1530 1532 1534 1537 1540 1542 1545 1548 1550 1552 1553 1555 1556 1557 1558 1559 1561 1562 1562 1563 1565 1565 1565 1564 1564 1564 1564 1564 1562 1561 1560 1560 1560 1561 1561 1562 1564 1566 1567 1568 1569 1570 1571 1573 1575 1577 1578 1578 1579 1579 1581 1581 1582 1582 1582 1581 1581 1581 1581 1581 1579 1578 1578 1578 1578 1578 1576 1575 1574 1574 1574 1573 1573 1573 1573 1572 1570 1566 1562 1558 1553 1552 1546 1540 1529 1523 1508 1490 1485 1480 1479 1472 0 0 0 0 0 0 0 0 0 0 0 0 0 0 0 0 0 0 0 0 0 0 0 0 0 0 0 0 0 0 0 0 0
533 548 556 0 0 0 0 0 0 0 0 0 0 0 0 0 0 0 0 0 0 0 0 0 0 0 0 0 0 0 0 0 0 0 0 0 0 0 0 0 0 0 0 0 0 0 0 0 0 0 0 0 0 0 0 0 0 0 0 0 0 0 0 0 0 0 0 0 0 0 1434 1434 1431 1428 1427 1427 1427 1445 1445 1445 1439 1437 0 0 0 0 0 0 0 0 0 0 0 0 0 0 0 0 0 0 0 0 0 0 0 0 0 0 0 0 0 0 0 0 0 0 0 0 0 0 0 0 0 0 0 0 0 0 0 0 0 0 0 0 0 0 0 0 0 0 0 0 0 0 0 0 0 0 0 0 0 0 0 0 0 0 0 0 0 0 0 0 0 0 0 0 1404 1402 1381 1344 1311 1291 1267 1251 1251 1251 1253 1256 1266 0 0 0 0 0 0 0 0 0 0 0 0 1125 1152 1183 1202 0 0 0 0 0 0 0 0 0 0 0 0 0 0 0 0 0 0 0 0 0 0 0 0 0 2555 2606 2633 2672 2689 2740 2768 2802 2825 2846 2854 2869 2875 2881 2884 2885 2891 2899 2904 2915 2926 2935 2935 2935 2932 2898 2870 2788 2725 2725 2725 2851 2925 2951 2957 2957 2957 2945 2855 2723 2615 0 0 0 0 0 0 0 2739 2872 2900 2900 2900 2790 2707 0 0 0 0 0 1696 1672 1663 1661 1641 1618 1611 1605 1599 1569 0 0 0 0 1637 1637 1637 1637 1621 1606 1583 1563 1563 1563 1574 0 0 0 1760 1774 1774 1774 1755 1748 1744 1738 1735 1729 1726 1721 1715 1710 1705 1699 1694 1688 1683 1678 1673 1669 1666 1664 1661 1658 1655 1651 1648 1644 1642 1639 1637 1635 1632 1630 1629 1627 1625 1622 1620 1618 1616 1614 1612 1609 1607 1606 1604 1604 1601 1600 1599 1597 1596 1594 1593 1592 1590 1589 1587 1586 1584 1583 1581 1581 1580 1580 1580 1580 1579 1579 1579 1578 1577 1577 1577 1576 1576 1575 1574 1574 1574 1573 1573 1573 1572 1572 1572 1571 1570 1570 1570 1569 1569 1567 1567 1566 1566 1566 1565 1564 1564 1564 1564 1564 1564 1564 1564 1564 1564 1565 1565 1565 1565 1565 1565 1564 1564 1564 1562 1562 1562 1561 1561 1560 1560 1560 1559 1559 1559 1558 1558 1558 1558 1557 1557 1557 1557 1556 1556 1556 1555 1555 1554 1554 1553 1553 1552 1552 1552 1551 1551 1550 1550 1550 1549 1548 1547 1547 1546 1545 1545 1544 1543 1542 1542 1541 1541 1541 1540 1540 1539 1538 1538 1537 1537 1535 1535 1534 1533 1532 1532 1532 1532 1531 1530 1530 1530 1529 1529 1528 1527 1527 1527 1526 1525 1525 1525 1525 1525 1525 1526 1526 1527 1528 1530 1532 1534 1536 1539 1542 1545 1547 1549 1550 1553 1554 1555 1557 1558 1559 1560 1561 1562 1562 1563 1564 1564 1564 1564 1564 1564 1564 1562 1561 1561 1560 1560 1561 1561 1562 1564 1566 1567 1568 1569 1570 1571 1573 1575 1576 1577 1577 1578 1579 1579 1580 1580 1580 1580 1580 1580 1580 1580 1579 1578 1577 1577 1576 1576 1576 1575 1574 1574 1571 1571 1571 1571 1571 1571 1570 1568 1565 1561 1556 1550 1546 1540 1535 1527 1523 1502 1490 1485 1478 1476 1472 0 0 0 0 0 0 0 0 0 0 0 0 0 0 0 0 0 0 0 0 0 0 0 0 0 0 0 0 0 0 0 0 0
547 548 551 0 0 0 0 0 0 0 0 0 0 0 0 0 0 0 0 0 0 0 0 0 0 0 0 0 0 0 0 0 0 0 0 0 0 0 0 0 0 0 0 0 0 0 0 0 0 0 0 0 0 0 1173 1173 1175 1175 1175 1162 1162 1162 1187 1211 1234 1250 0 0 0 0 1379 1397 1398 1400 1408 1420 1430 1447 1447 1447 1439 1437 0 0 0 0 0 0 0 0 0 0 0 0 0 0 0 0 0 0 0 0 0 0 0 0 0 1656 1656 1681 0 0 0 0 0 0 0 0 0 0 0 0 0 0 0 0 0 0 0 0 0 0 0 0 0 0 0 0 0 0 0 0 0 0 0 0 0 0 0 0 0 0 0 0 0 0 0 1339 1344 1351 0 0 0 0 0 1389 1389 1389 1381 1344 1311 1291 1277 1269 1264 1264 1264 1277 1292 0 0 0 0 0 0 0 0 0 0 0 0 1117 1129 1158 1181 0 0 0 0 0 0 0 0 0 0 0 0 0 0 0 0 0 0 0 0 0 0 0 0 0 0 2559 2598 2667 2689 2737 2766 2770 2798 2819 2846 2860 2874 2875 2875 2878 2881 2889 2904 2914 2925 2925 2925 2922 2915 2898 2870 2804 2750 2750 2750 2775 2912 2948 2948 2948 2937 2883 2848 2694 2608 0 0 0 0 0 0 2532 2893 2994 3022 3025 3025 3025 2965 2820 0 0 0 0 1714 1690 1680 1672 1641 1618 1611 1605 1599 1599 0 0 1634 1648 1655 1655 1655 1654 1632 1618 1601 1587 1587 1587 1610 1644 1686 1731 1772 1772 1772 1771 1753 1745 1743 1737 1735 1729 1726 1721 1715 1710 1705 1700 1694 1688 1683 1677 1672 1668 1665 1664 1661 1658 1654 1651 1647 1644 1642 1639 1636 1635 1632 1630 1628 1626 1623 1622 1620 1617 1616 1614 1612 1609 1607 1605 1603 1603 1601 1599 1598 1597 1595 1594 1592 1591 1589 1588 1587 1584 1583 1582 1580 1580 1580 1579 1579 1579 1578 1578 1577 1577 1576 1576 1576 1575 1575 1575 1574 1573 1573 1573 1572 1572 1571 1571 1571 1570 1570 1569 1569 1568 1567 1567 1567 1566 1565 1565 1564 1564 1564 1564 1564 1564 1564 1564 1564 1564 1564 1564 1564 1564 1564 1564 1564 1564 1563 1562 1562 1562 1561 1561 1561 1560 1560 1559 1558 1558 1558 1558 1558 1557 1557 1557 1556 1556 1556 1555 1555 1555 1555 1554 1554 1553 1553 1552 1552 1551 1551 1551 1550 1550 1550 1549 1548 1547 1547 1546 1545 1545 1544 1544 1543 1542 1541 1540 1540 1540 1540 1539 1539 1537 1537 1536 1536 1535 1534 1533 1532 1532 1532 1532 1532 1531 1530 1530 1530 1529 1529 1528 1528 1527 1527 1526 1525 1525 1525 1525 1525 1525 1525 1526 1527 1528 1530 1532 1534 1536 1539 1541 1544 1546 1548 1550 1552 1554 1555 1557 1558 1559 1560 1561 1561 1562 1563 1564 1564 1564 1564 1564 1564 1564 1563 1562 1561 1561 1561 1561 1562 1563 1564 1566 1567 1568 1569 1570 1571 1573 1574 1575 1576 1576 1577 1578 1579 1579 1579 1579 1579 1579 1580 1580 1580 1579 1578 1577 1575 1575 1575 1575 1574 1573 1572 1569 1569 1568 1567 1567 1567 1566 1565 1563 1559 1551 1543 1538 1532 1527 1523 1519 1501 1490 1484 1477 1476 1472 0 0 0 0 0 0 0 0 0 0 0 0 0 0 0 0 0 0 0 0 0 0 0 0 0 0 0 0 0 0 0 0 0
547 547 547 0 0 0 0 0 0 0 0 0 0 0 0 0 0 0 0 0 0 0 0 0 0 0 0 0 0 0 0 0 0 0 0 0 0 0 0 0 0 0 0 0 0 0 0 0 0 0 0 0 0 1148 1149 1149 1150 1150 1155 1159 1160 1161 1173 1195 1223 1238 1256 0 0 0 1360 1381 1397 1400 1408 1426 1439 1447 1447 1447 1439 0 0 0 0 0 0 0 0 0 0 0 0 0 0 0 0 0 0 0 0 0 0 0 0 0 1656 1656 1656 1681 1681 0 0 0 0 0 0 0 0 0 0 0 0 0 0 0 0 0 0 0 0 0 0 0 0 0 0 0 0 0 0 0 0 0 0 0 0 0 0 0 0 0 0 0 0 0 1359 1351 1351 1351 1355 1357 1357 1357 1361 1362 1362 1362 1343 1320 1307 1291 1277 1270 1270 1270 1276 1296 1322 0 0 0 0 0 0 0 0 0 0 0 0 1117 1129 1158 0 0 0 0 0 0 0 0 0 0 0 0 0 0 0 0 0 0 0 0 0 0 0 0 0 0 0 2520 2588 2667 2689 2737 2748 2767 2779 2794 2808 2843 2858 2860 2860 2860 2860 2860 2871 2888 2890 2890 2890 2882 2876 2875 2870 2804 2750 2735 2735 2735 2840 2935 2935 2935 2889 2864 2798 2688 0 0 0 0 0 0 0 2696 2924 3068 3073 3076 3076 3076 3059 2931 2918 0 0 0 1732 1712 1694 1673 1641 1609 1584 1579 1579 1579 0 1626 1654 1662 1662 1662 1659 1657 1650 1639 1631 1622 1622 1622 1646 1668 1703 1736 1779 1779 1779 1769 1749 1744 1741 1737 1735 1729 1725 1717 1713 1709 1705 1700 1694 1688 1683 1677 1672 1667 1665 1664 1661 1657 1654 1650 1646 1643 1640 1638 1636 1634 1632 1630 1627 1624 1623 1621 1619 1617 1615 1613 1611 1609 1606 1605 1603 1602 1600 1599 1598 1595 1594 1593 1591 1589 1588 1586 1585 1584 1582 1581 1580 1579 1579 1579 1578 1578 1578 1577 1577 1576 1575 1575 1575 1575 1574 1573 1573 1572 1572 1572 1571 1571 1571 1571 1570 1570 1569 1568 1567 1567 1566 1566 1565 1565 1565 1564 1563 1563 1563 1563 1563 1563 1563 1563 1563 1563 1563 1563 1563 1563 1563 1563 1563 1563 1562 1562 1562 1561 1560 1560 1560 1559 1558 1558 1558 1558 1558 1557 1556 1556 1556 1556 1556 1555 1555 1555 1555 1554 1554 1554 1552 1552 1552 1551 1551 1551 1550 1550 1550 1550 1549 1548 1548 1547 1547 1546 1545 1544 1544 1543 1542 1541 1541 1540 1540 1540 1539 1538 1538 1537 1537 1536 1536 1535 1534 1533 1532 1532 1532 1531 1531 1531 1530 1530 1530 1529 1528 1528 1528 1527 1526 1526 1525 1525 1525 1525 1525 1525 1525 1526 1527 1527 1529 1531 1533 1536 1538 1541 1544 1546 1548 1550 1551 1553 1555 1556 1557 1559 1559 1560 1561 1562 1563 1564 1564 1564 1564 1564 1564 1564 1564 1562 1562 1562 1562 1562 1562 1564 1565 1567 1567 1568 1569 1570 1571 1573 1573 1574 1575 1576 1576 1577 1577 1579 1579 1579 1579 1579 1579 1579 1579 1578 1577 1575 1574 1574 1573 1573 1572 1570 1569 1568 1567 1566 1564 1564 1563 1563 1562 1560 1554 1544 1537 1532 1529 1525 1515 1508 1497 1492 1484 1474 1472 1464 0 0 0 0 0 0 0 0 0 0 0 0 0 0 0 0 0 0 0 0 0 0 0 0 0 0 0 0 0 0 0 0 0
547 540 0 0 0 0 0 0 0 0 0 0 0 0 0 0 0 0 0 0 0 0 0 0 0 0 0 0 0 0 0 0 0 0 619 635 658 0 0 0 0 0 0 0 0 0 0 0 0 0 0 0 0 0 1128 1135 1146 1150 1155 1159 1160 1161 1173 1195 1222 1238 1256 0 0 1337 1360 1381 1397 1400 1408 1426 1439 1447 1447 0 0 0 0 0 0 0 0 0 0 0 0 0 0 0 0 0 0 0 0 0 0 0 0 0 0 1657 1656 1656 1632 1632 1620 1615 0 0 0 0 0 0 0 0 0 0 0 0 0 0 0 0 0 0 0 0 0 0 0 0 0 0 0 0 0 0 0 0 0 0 0 1712 1731 1731 0 0 0 0 0 0 1359 1351 1351 1351 1355 1355 1355 1355 1348 1344 1339 1319 1305 1296 1293 1291 1280 1277 1277 1277 1289 1302 1349 0 0 1466 1476 1476 0 0 0 0 0 0 0 0 0 0 0 0 0 0 0 0 0 0 0 0 0 0 0 0 0 0 0 0 0 0 0 0 0 0 0 0 0 0 2588 2667 2708 2735 2737 2744 2752 2776 2777 2805 2805 2805 2789 2789 2767 2763 2763 2763 2765 2775 2775 2786 2791 2793 2793 2791 2750 2700 2700 2700 2761 2889 2889 2889 2878 2794 2707 0 0 0 0 0 0 0 0 2696 2924 3068 3073 3076 3076 3076 3059 2958 2930 2651 0 0 0 1735 1694 1673 1626 1577 1562 1562 1562 1579 0 1643 1667 1672 1672 1672 1668 1665 1664 1662 1655 1655 1655 1656 1675 1689 1720 1749 1779 1779 1779 1768 1749 1742 1740 1735 1732 1727 1722 1716 1711 1708 1705 1699 1694 1688 1683 1677 1671 1667 1664 1661 1659 1657 1653 1649 1646 1642 1640 1637 1635 1633 1631 1629 1627 1624 1622 1621 1619 1616 1615 1612 1610 1608 1606 1604 1603 1600 1599 1597 1596 1595 1593 1591 1590 1589 1586 1585 1584 1583 1582 1581 1579 1579 1578 1578 1578 1577 1577 1577 1576 1575 1575 1575 1574 1574 1573 1573 1573 1571 1571 1571 1571 1570 1570 1570 1569 1569 1568 1567 1567 1566 1565 1565 1564 1564 1563 1563 1563 1563 1562 1562 1562 1562 1562 1562 1563 1563 1563 1563 1563 1563 1563 1563 1563 1562 1561 1560 1560 1560 1560 1559 1559 1559 1558 1557 1557 1557 1557 1556 1556 1556 1555 1555 1555 1555 1554 1554 1554 1554 1553 1553 1552 1552 1551 1550 1550 1550 1550 1550 1549 1549 1548 1548 1547 1546 1545 1545 1545 1544 1543 1542 1542 1541 1540 1540 1540 1539 1539 1538 1538 1537 1537 1536 1535 1535 1534 1533 1532 1532 1532 1531 1531 1531 1530 1530 1529 1529 1529 1528 1528 1527 1526 1525 1525 1525 1525 1525 1525 1525 1525 1526 1526 1527 1529 1531 1533 1536 1538 1541 1544 1546 1548 1549 1551 1553 1554 1556 1557 1559 1559 1560 1561 1562 1562 1563 1564 1564 1564 1564 1564 1564 1564 1564 1563 1562 1562 1562 1563 1564 1566 1567 1567 1568 1569 1570 1571 1572 1573 1573 1574 1574 1575 1576 1577 1577 1578 1578 1578 1578 1578 1578 1578 1577 1575 1575 1574 1573 1571 1571 1569 1569 1568 1566 1565 1563 1563 1562 1562 1560 1559 1557 1550 1541 1535 1532 1528 1524 1515 1503 1497 1496 1485 1470 1455 1450 0 0 0 0 0 0 0 0 0 0 0 0 0 0 0 0 0 0 0 0 0 0 0 0 0 0 0 0 0 0 0 0 0
0 0 0 0 0 0 0 0 0 0 0 0 0 0 0 0 0 0 0 0 0 0 0 0 0 0 0 0 0 0 0 0 579 593 614 627 646 646 0 0 0 0 0 0 0 0 0 0 0 0 0 0 0 0 1109 1135 1146 1150 1155 1160 1161 1161 1173 1195 1222 1238 1256 0 0 1337 1360 1381 1417 1419 1436 1446 1446 1446 1423 0 0 0 0 0 0 0 0 0 0 0 0 0 0 0 0 0 0 0 0 0 0 0 0 0 0 1659 1645 1635 1633 1633 1620 1615 1584 0 0 0 0 0 0 0 0 0 0 0 0 0 0 0 0 0 0 0 0 0 0 0 0 0 0 0 0 0 0 0 0 0 1724 1724 1742 1742 1742 0 0 0 0 0 1359 1351 1349 1349 1349 1350 1350 1350 1348 1344 1338 1319 1305 1296 1293 1291 1281 1281 1281 1283 1292 1318 1353 1388 1444 1466 1476 1476 1466 1442 0 0 0 0 0 0 0 0 0 0 0 0 0 0 0 0 0 0 0 0 0 0 0 0 0 0 0 0 0 0 0 0 0 0 0 0 2588 2694 2717 2718 2718 2718 2718 2718 2734 2743 2770 2770 2770 2606 2594 2594 2594 2594 2594 2594 2604 2633 2633 2633 2633 2632 2592 2519 2519 2519 2624 2757 2796 2796 2796 2700 0 0 0 0 0 0 0 0 0 2696 2924 3068 3073 3076 3076 3076 3059 2958 2944 2651 0 0 0 0 0 0 0 0 1560 1560 1562 0 0 1672 1691 1691 1691 1686 1682 1680 1680 1680 1678 1678 1678 1681 1695 1711 1742 1750 1779 1779 1779 1763 1748 1742 1739 1734 1732 1725 1719 1713 1710 1707 1704 1699 1692 1687 1683 1676 1671 1667 1663 1661 1659 1655 1652 1649 1645 1642 1639 1636 1633 1631 1630 1628 1626 1624 1621 1620 1618 1616 1614 1611 1609 1606 1605 1603 1601 1599 1598 1596 1594 1594 1593 1591 1589 1588 1586 1585 1583 1582 1580 1580 1579 1578 1578 1578 1577 1576 1576 1575 1575 1575 1574 1574 1573 1573 1573 1572 1571 1571 1571 1570 1570 1570 1570 1569 1569 1568 1568 1567 1566 1566 1565 1564 1563 1563 1562 1562 1562 1562 1561 1561 1561 1561 1561 1562 1562 1562 1562 1562 1562 1562 1562 1562 1562 1561 1560 1560 1560 1559 1559 1558 1558 1558 1557 1557 1557 1556 1556 1555 1555 1555 1555 1554 1554 1554 1554 1553 1553 1553 1552 1552 1551 1551 1550 1550 1549 1549 1548 1548 1548 1548 1547 1546 1545 1545 1544 1544 1544 1542 1542 1541 1541 1540 1540 1539 1539 1539 1538 1538 1538 1537 1536 1536 1535 1535 1534 1534 1533 1532 1532 1531 1531 1531 1530 1530 1529 1529 1528 1528 1527 1527 1526 1525 1525 1525 1525 1525 1525 1525 1525 1526 1526 1527 1529 1531 1533 1536 1538 1541 1543 1545 1547 1549 1551 1552 1554 1556 1556 1558 1559 1560 1561 1562 1562 1563 1564 1564 1564 1564 1564 1564 1564 1564 1564 1563 1563 1563 1564 1565 1566 1567 1567 1568 1569 1570 1570 1571 1572 1573 1573 1574 1575 1575 1576 1577 1577 1577 1577 1577 1577 1577 1576 1576 1575 1574 1574 1572 1571 1569 1568 1567 1566 1565 1563 1562 1561 1561 1558 1556 1555 1553 1549 1541 1533 1527 1527 1522 1514 1502 1497 1496 1485 1470 1455 1443 0 0 0 0 0 0 0 0 0 0 0 0 0 0 0 0 0 0 0 0 0 0 0 0 0 0 0 0 0 0 0 0 0
0 0 0 0 0 0 0 0 0 0 0 0 0 0 0 0 0 0 0 0 0 0 0 0 0 0 0 0 0 0 0 575 575 583 609 624 625 633 0 0 0 0 0 0 0 0 0 0 0 0 0 0 0 0 0 1135 1153 1155 1162 1176 1179 1179 1185 1202 1223 1270 0 0 1340 1356 1381 1422 1450 1465 1465 1465 1462 1446 1423 0 0 0 0 0 0 0 0 0 0 0 0 0 0 0 0 0 0 0 0 0 0 0 0 0 0 1657 1650 1645 1639 1632 1620 1615 1613 1597 1582 1572 1572 1572 1573 0 0 0 0 0 0 0 0 0 0 0 0 0 0 0 0 0 0 0 0 0 0 0 0 0 0 0 1744 1744 1741 1741 1741 0 0 0 0 0 1359 1344 1344 1344 1349 1350 1350 1350 1348 1344 1338 1319 1305 1297 1296 1294 1293 1294 1294 1297 1307 1327 1355 1392 1425 1452 1466 1466 1466 1442 1442 1442 0 0 0 0 0 0 0 0 0 0 0 0 0 0 0 0 0 0 0 0 0 0 0 0 0 0 0 0 0 0 0 0 0 0 2585 2694 2717 2717 2717 2704 2662 2608 2583 2583 2583 2587 2588 2588 2588 2553 2553 2550 2553 2553 2569 2596 2601 2601 2601 2583 2521 0 0 0 0 2521 2541 2541 2541 0 0 0 0 0 0 0 0 0 0 2541 2773 2949 3067 3074 3074 3074 3059 2958 2944 2651 0 0 0 0 0 0 0 0 0 0 0 0 0 1717 1719 1719 1719 1706 1706 1700 1699 1699 1698 1698 1698 1698 1708 1722 1747 1750 1775 1775 1775 1757 1746 1742 1738 1734 1729 1724 1718 1711 1707 1703 1698 1694 1690 1685 1680 1675 1671 1667 1663 1661 1658 1655 1652 1648 1645 1641 1637 1635 1632 1630 1629 1627 1625 1623 1621 1619 1618 1615 1613 1611 1608 1606 1603 1602 1600 1598 1597 1596 1594 1593 1592 1590 1589 1587 1586 1585 1583 1582 1580 1580 1579 1577 1577 1576 1576 1576 1576 1575 1575 1574 1574 1573 1573 1573 1573 1572 1571 1571 1570 1570 1569 1569 1569 1568 1568 1567 1567 1566 1566 1565 1564 1563 1562 1562 1562 1561 1561 1561 1561 1561 1561 1561 1561 1561 1561 1561 1561 1561 1561 1561 1561 1560 1560 1560 1560 1560 1559 1559 1558 1558 1557 1557 1557 1556 1556 1556 1555 1555 1555 1554 1554 1554 1553 1553 1553 1553 1552 1551 1551 1550 1550 1550 1550 1549 1548 1548 1548 1547 1547 1547 1547 1545 1544 1544 1544 1544 1542 1542 1542 1541 1540 1539 1539 1539 1539 1538 1538 1538 1537 1537 1537 1536 1535 1535 1535 1534 1533 1532 1532 1531 1531 1530 1530 1530 1529 1529 1528 1528 1527 1526 1525 1525 1525 1525 1525 1525 1525 1525 1525 1526 1526 1527 1529 1531 1534 1536 1539 1541 1543 1545 1547 1549 1551 1552 1553 1554 1556 1558 1559 1560 1561 1562 1562 1563 1563 1564 1564 1564 1564 1564 1564 1564 1564 1564 1564 1564 1564 1565 1566 1567 1567 1568 1569 1570 1570 1571 1572 1572 1573 1573 1574 1574 1575 1575 1575 1576 1576 1576 1576 1575 1575 1574 1574 1574 1573 1571 1570 1569 1568 1566 1565 1565 1562 1560 1560 1560 1558 1553 1553 1552 1549 1541 1533 1526 1525 1522 1511 1502 1498 1497 1485 1470 1455 1443 0 0 0 0 0 0 0 0 0 0 0 0 0 0 0 0 0 0 0 0 0 0 0 0 0 0 0 0 0 0 0 0 0
0 0 0 0 0 0 0 0 0 0 0 0 0 0 461 460 460 438 438 438 444 462 0 0 0 0 0 0 0 0 0 569 571 583 601 618 624 626 0 0 0 0 0 0 0 0 0 0 0 0 0 0 0 0 0 0 1176 1183 1184 1189 1190 1190 1198 0 0 0 0 0 1367 1377 1409 1436 1458 1465 1465 1465 1464 1446 0 0 0 0 0 0 0 0 0 0 0 0 1616 1643 1707 1721 1723 0 0 0 0 0 0 0 0 0 1668 1657 1652 1645 1637 1629 1626 1625 1623 1616 1606 1596 1596 1596 1609 1609 0 0 0 0 0 0 0 0 0 0 0 0 0 0 0 0 0 0 0 0 0 0 0 0 0 0 1744 1744 1743 1734 1732 0 0 0 0 0 1358 1344 1344 1344 1344 1346 1351 1351 1351 1344 1338 1320 1320 1320 0 0 0 0 1323 1324 1334 1344 1365 1392 1407 1421 1422 1423 1424 1427 1435 1442 1485 0 0 0 0 0 0 0 0 0 0 0 0 0 0 0 0 0 0 0 0 0 0 0 0 0 0 0 0 0 0 0 0 0 2546 2687 2687 2687 2661 2577 0 0 0 0 0 0 0 0 0 2525 2525 2525 2487 2487 2487 2510 2533 2543 2543 2543 0 0 0 0 0 0 0 0 0 0 0 0 0 0 0 0 0 0 0 0 2569 2774 2924 2972 2972 2972 2944 2918 2899 0 0 0 0 0 0 0 0 0 0 0 0 0 0 1755 1755 1755 1741 1727 1727 1727 1727 1727 1727 1720 1720 1720 1720 1736 1749 1751 1769 1769 1769 1753 1746 1742 1738 1733 1728 1723 1717 1710 1705 1701 1696 1693 1689 1685 1680 1675 1671 1667 1663 1660 1658 1655 1651 1648 1644 1641 1637 1635 1632 1630 1628 1626 1625 1623 1621 1618 1617 1614 1611 1609 1607 1605 1602 1601 1599 1597 1596 1594 1594 1592 1592 1590 1589 1587 1586 1585 1583 1581 1580 1579 1578 1577 1577 1576 1575 1575 1575 1574 1574 1573 1573 1573 1572 1572 1572 1571 1570 1570 1569 1569 1569 1568 1568 1568 1568 1567 1566 1566 1565 1564 1564 1562 1562 1561 1561 1560 1560 1560 1560 1560 1560 1560 1560 1560 1560 1560 1560 1560 1560 1560 1560 1559 1559 1559 1559 1559 1558 1558 1557 1557 1557 1557 1557 1556 1555 1555 1554 1554 1554 1554 1553 1553 1552 1552 1552 1552 1551 1551 1550 1550 1549 1549 1549 1548 1547 1547 1547 1547 1547 1547 1546 1545 1544 1544 1543 1543 1542 1542 1541 1541 1540 1539 1539 1539 1539 1538 1538 1538 1538 1537 1537 1536 1535 1535 1535 1534 1534 1533 1532 1531 1531 1530 1530 1530 1529 1529 1529 1528 1527 1527 1525 1525 1525 1525 1525 1525 1525 1525 1525 1526 1528 1528 1530 1532 1534 1537 1539 1541 1543 1545 1547 1550 1550 1552 1553 1554 1556 1558 1559 1560 1560 1562 1562 1563 1563 1564 1564 1564 1564 1564 1565 1565 1564 1564 1564 1564 1564 1565 1566 1566 1567 1568 1569 1569 1570 1571 1571 1571 1572 1572 1572 1573 1573 1573 1574 1574 1574 1574 1574 1573 1573 1573 1573 1573 1572 1571 1570 1569 1567 1566 1565 1564 1561 1560 1559 1559 1557 1553 1553 1551 1548 1540 1533 1525 1518 1511 1506 1502 1499 1498 1485 1475 1457 1443 0 0 0 0 0 0 0 0 0 0 0 0 0 0 0 0 0 0 0 0 0 0 0 0 0 0 0 0 0 0 0 0 0
0 0 0 0 0 0 0 0 0 0 0 0 0 442 442 442 439 435 435 435 439 460 460 460 0 0 0 0 0 0 0 564 571 583 601 617 624 0 0 0 0 0 0 0 0 0 0 0 0 0 0 0 0 0 0 0 0 0 0 0 0 0 0 0 0 0 0 0 1432 1434 1434 1443 1460 1468 1471 1475 1475 1475 0 0 0 0 0 0 0 0 0 0 1585 1592 1616 1643 1656 1666 1668 1675 0 0 0 0 0 0 0 1687 1668 1659 1652 1645 1637 1629 1629 1628 1626 1626 1626 1626 1623 1622 1621 1609 0 0 0 0 0 0 0 0 0 0 0 0 0 0 0 0 0 0 0 0 0 0 0 0 0 0 1744 1744 1743 1734 1727 0 0 0 0 0 1358 1344 1344 1339 1339 1343 1343 1355 1358 1358 1358 1371 1376 1376 1376 1376 1376 0 0 1363 1363 1378 1390 1392 1403 1403 1403 1398 1398 1398 1402 1435 1485 0 0 0 0 0 0 0 0 0 0 0 0 0 0 0 0 0 0 0 0 0 0 0 0 0 0 0 0 0 0 0 0 0 0 2546 2546 2531 0 0 0 0 0 0 0 0 0 0 0 0 0 0 0 0 0 0 0 0 0 0 0 0 0 0 0 0 0 0 0 0 0 0 0 0 0 0 0 0 0 0 0 0 2686 2734 2782 2785 2785 2782 0 0 0 0 0 0 0 0 0 0 0 0 0 0 1768 1773 1773 1773 1759 1741 1741 1741 1741 1743 1743 1743 1738 1738 1738 1746 1751 1751 1766 1766 1766 1752 1746 1742 1738 1733 1728 1722 1716 1710 1704 1700 1696 1693 1689 1685 1680 1675 1671 1666 1663 1660 1657 1653 1650 1648 1643 1639 1636 1633 1631 1630 1627 1625 1623 1622 1620 1618 1616 1613 1610 1608 1606 1605 1602 1601 1599 1596 1595 1594 1592 1592 1591 1590 1588 1587 1586 1584 1583 1581 1580 1579 1578 1577 1577 1576 1575 1574 1574 1573 1573 1573 1572 1571 1571 1571 1571 1570 1570 1570 1568 1568 1568 1568 1567 1567 1567 1566 1566 1565 1565 1563 1563 1562 1561 1561 1561 1560 1560 1560 1560 1560 1560 1560 1560 1560 1560 1560 1560 1560 1560 1560 1560 1558 1558 1558 1557 1557 1557 1557 1557 1557 1557 1556 1556 1556 1555 1555 1554 1554 1553 1553 1553 1552 1552 1551 1551 1551 1551 1550 1549 1549 1548 1548 1548 1548 1547 1546 1546 1546 1546 1546 1545 1545 1544 1543 1542 1542 1542 1542 1541 1541 1540 1539 1539 1539 1538 1538 1538 1538 1538 1537 1537 1536 1536 1535 1535 1534 1534 1533 1532 1531 1531 1530 1530 1529 1529 1529 1529 1528 1527 1526 1525 1525 1525 1525 1525 1525 1525 1525 1526 1527 1529 1530 1531 1533 1535 1537 1539 1541 1543 1545 1547 1550 1550 1551 1553 1554 1555 1557 1558 1559 1559 1561 1562 1562 1563 1564 1564 1564 1564 1564 1565 1565 1564 1564 1564 1564 1564 1565 1566 1566 1567 1568 1569 1569 1570 1570 1570 1571 1571 1571 1572 1572 1572 1573 1573 1573 1573 1573 1573 1573 1573 1573 1573 1572 1572 1571 1570 1569 1567 1566 1564 1564 1561 1560 1559 1558 1556 1553 1551 1551 1548 1540 1528 1524 1515 1509 1508 1506 1502 1498 1485 1476 1462 1444 1398 0 0 0 0 0 0 0 0 0 0 0 0 0 0 0 0 0 0 0 0 0 0 0 0 0 0 0 0 0 0 0 0
