1866 1892 1905 1905 1905 1903 1898 1898 1898 1901 1950 1994 2025 2025 2025 2031 2031 2035 0 0 2219 2224 2237 2244 2249 2254 2270 2287 2305 2314 2314 2315 2315 2321 2330 2331 2336 2338 2351 2369 2388 2394 2394 2394 2393 2393 2393 2400 2408 2411 2411 2414 2421 2433 2439 2444 2445 2445 2445 2444 2443 2443 2443 2450 2452 2453 2453 2452 2446 2430 2409 2386 2348 0 0 0 0 0 0 0 0 1090 1078 1074 1073 1073 1073 1074 1074 1074 1075 1075 1075 1076 1077 1078 1079 1080 1081 1082 1083 1084 1085 1086 1086 1087 1089 1089 1090 1091 1092 1093 1094 1095 1095 1097 1098 1099 1100 1101 1103 1104 1105 1106 1108 1109 1110 1111 1113 1114 1115 1116 1117 1118 1119 1120 1120 1121 1121 1121 1121 1121 1119 1118 1117 1115 1115 1115 1115 1115 1115 1115 1115 1115 1114 1114 1114 1116 1120 1121 1123 1125 1127 1129 1132 1135 1138 1143 1145 1146 1147 1150 1153 1160 1164 1167 1171 1173 1174 1176 1178 1179 1181 1183 1184 1185 1187 1188 1189 1191 1192 1193 1195 1197 1199 1200 1202 1204 1206 1207 1208 1210 1211 1213 1213 1214 1215 1215 1216 1216 1217 1218 1219 1220 1221 1223 1226 1227 1229 1231 1234 1236 1238 1240 1242 1243 1245 1246 1248 1250 1252 1253 1254 1256 1258 1259 1261 1263 1264 1266 1268 1270 1271 1273 1275 1276 1278 1280 1281 1283 1285 1287 1288 1290 1292 1294 1295 1297 1299 1301 1302 1304 1305 1307 1308 1309 1311 1313 1314 1316 1318 1320 1320 1322 1324 1326 1328 1331 1333 1335 1336 1338 1339 1341 1342 1344 1347 1349 1351 1353 1354 1357 1359 1360 1362 1363 1364 1365 1366 1367 1371 1374 1376 1377 1378 1380 1381 1384 1384 1386 1389 1393 1397 1398 1400 1405 1409 1409 1409 1412 1417 1421 1425 1440 0 0 0 1690 1709 1709 1709 1709 1709 1709 1709 1709 1709 1709 1709 1710 1710 1711 1711 1713 1714 1716 1718 1720 1721 1722 1723 1724 1724 1726 1726 1726 1726 1726 1726 1726 1726 1726 1726 1726 1725 1724 1723 1722 1721 1720 1718 1715 1713 1712 1711 1710 1709 1707 1705 1703 1702 1699 1697 1696 1694 1692 1692 1690 1688 1687 1686 1684 1683 1682 1681 1680 1679 1679 1677 1677 1677 1677 1681 1683 1683 1685 1687 1690 1697 1702 1704 1706 1706 1709 1712 1715 1716 1718 1718 1719 1720 1720 1720 1721 1721 1721 1721 1721 1721 1721 1721 1721 1720 1720 1720 1720 1719 1717 1716 1714 1713 1712 1710 1708 1706 1704 1703 1700 1698 1697 1695 1694 1692 1691 1689 1686 1685 1683 1682 1680 1679 1677 1675 1673 1672 1671 1669 1669 1667 1665 1664 1664 1664 1665 1667 1669 1670 1672 1678 1687 1692 1697 1701 1702 1706 1709 1711 1712 1713 1714 1715 1716 1717 1717 1717 1717 1717 1717 1717 1716 1716 1715 1715 1715 1714 1713 1712 1712 1711 1710 1710 1709 1708 1707 1706 1705 1704 1702 1702 1700 1700 1698 1698 1697 1696 1695 1695 1695 1694 1694 1694 1694 1695 1695 1696 1696 1696 1696 1696 1696 1696 1696 1696 1696 1696 1696 1696 1696 1696 1695 1695 1696 1696 1697 1697 1698 1700 1702 1705 1708 1711 1714 1718 1728 1738 1747 1750 1759 1765 1768 1768 1768 1766 1763 1762 1760 1758 1757 1755 1752 1747 1743 1740 1735 1731 1727 1723 1717 1713 1710 1706 1703 1700 1698 1694 1691 1689 1687 1685 1681 1678 1675 1674 1670 1667 1663 1660 1655 1650 1644 1639 1634 1631 1626 1622 1616 1614 1611 1607 1603 1599 1599 1597 1594
1883 1904 1916 1917 1920 1924 1924 1924 1924 1929 1966 2005 2039 2039 2039 2044 2044 2063 0 2181 2219 2224 2237 2248 2256 2257 2270 2287 2305 2314 2314 2315 2315 2321 2330 2331 2336 2347 2364 2379 2394 2399 2403 2406 2406 2407 2407 2407 2410 2412 2417 2420 2428 2434 2439 2444 2445 2445 2445 2445 2445 2447 2450 2455 2456 2456 2456 2453 2449 2434 2416 2389 2349 0 0 0 0 0 0 0 0 1088 1077 1074 1073 1073 1073 1074 1074 1074 1074 1074 1075 1076 1077 1078 1079 1080 1081 1081 1082 1083 1084 1085 1086 1087 1088 1089 1090 1091 1092 1093 1094 1094 1095 1097 1098 1099 1100 1101 1103 1104 1105 1106 1108 1109 1110 1111 1112 1113 1115 1116 1117 1118 1119 1120 1120 1120 1121 1121 1120 1120 1119 1118 1117 1115 1115 1115 1116 1117 1117 1116 1116 1115 1114 1114 1114 1116 1120 1123 1125 1125 1127 1129 1132 1135 1139 1143 1146 1146 1147 1150 1153 1160 1164 1168 1171 1173 1174 1176 1178 1180 1181 1183 1184 1185 1187 1188 1190 1191 1193 1194 1196 1197 1199 1200 1202 1204 1206 1207 1208 1209 1210 1212 1213 1214 1214 1215 1216 1216 1216 1217 1218 1219 1221 1222 1224 1227 1229 1231 1233 1236 1238 1240 1241 1243 1244 1246 1247 1250 1251 1253 1254 1256 1257 1259 1261 1263 1264 1266 1268 1270 1272 1273 1275 1276 1278 1280 1281 1283 1285 1287 1288 1290 1292 1294 1295 1297 1299 1301 1302 1304 1305 1306 1307 1309 1311 1313 1314 1316 1317 1319 1320 1322 1324 1326 1328 1330 1333 1334 1336 1338 1339 1340 1342 1344 1346 1349 1350 1352 1353 1357 1358 1360 1362 1363 1364 1365 1366 1367 1371 1372 1373 1375 1377 1378 1380 1383 1384 1386 1388 1392 1397 1398 1399 1399 1400 1401 1401 1402 1408 1414 1424 1435 0 0 0 1690 1709 1709 1709 1709 1708 1708 1708 1708 1708 1708 1708 1708 1709 1709 1709 1709 1711 1712 1714 1716 1718 1719 1720 1722 1723 1724 1724 1724 1724 1724 1724 1724 1724 1724 1724 1724 1724 1723 1722 1721 1720 1719 1716 1715 1713 1712 1711 1710 1709 1707 1705 1703 1702 1699 1697 1695 1694 1692 1691 1689 1688 1686 1685 1683 1681 1680 1680 1679 1679 1677 1676 1676 1676 1676 1678 1680 1680 1681 1684 1688 1691 1697 1701 1703 1705 1705 1707 1711 1713 1714 1715 1717 1719 1719 1719 1719 1719 1720 1720 1720 1720 1720 1720 1720 1720 1720 1720 1719 1719 1717 1715 1714 1713 1711 1710 1708 1706 1704 1703 1701 1698 1697 1696 1694 1693 1691 1689 1686 1685 1684 1682 1681 1679 1677 1676 1673 1672 1671 1669 1668 1666 1665 1663 1663 1663 1663 1664 1666 1668 1672 1674 1682 1689 1693 1697 1700 1703 1708 1710 1712 1713 1713 1714 1715 1716 1717 1717 1717 1717 1717 1717 1716 1716 1715 1715 1714 1714 1713 1712 1712 1711 1710 1710 1709 1708 1707 1707 1705 1704 1702 1702 1701 1700 1699 1698 1697 1697 1696 1696 1695 1695 1695 1695 1695 1695 1696 1696 1696 1696 1696 1696 1696 1696 1696 1697 1697 1696 1696 1696 1696 1696 1696 1696 1696 1696 1697 1698 1698 1700 1702 1706 1709 1711 1715 1720 1733 1742 1751 1762 1763 1768 1768 1768 1768 1766 1764 1762 1760 1758 1756 1754 1750 1746 1741 1737 1733 1729 1726 1722 1717 1714 1711 1706 1703 1700 1696 1693 1690 1688 1686 1685 1680 1677 1674 1672 1668 1665 1663 1659 1651 1647 1644 1640 1635 1631 1626 1622 1619 1616 1611 1608 1604 1601 1600 1598 1597
1891 1906 1919 1931 1948 1957 1960 1963 1965 1973 1991 2017 2039 2044 2044 2057 2058 2073 2123 2181 2219 2224 2237 2248 2262 2272 2288 2299 2311 2317 2317 2319 2321 2321 2330 2335 2343 2356 2371 2383 2394 2399 2403 2411 2415 2415 2416 2416 2417 2422 2425 2431 2436 2438 2439 2443 2444 2444 2444 2444 2446 2455 2457 2457 2457 2456 2456 2454 2451 2442 2427 2395 2356 0 0 0 0 0 0 0 0 1079 1075 1070 1070 1070 1072 1074 1074 1074 1074 1074 1075 1076 1076 1078 1078 1080 1080 1081 1082 1083 1084 1085 1086 1086 1088 1088 1089 1091 1092 1093 1094 1094 1095 1097 1098 1099 1100 1101 1103 1104 1105 1106 1107 1109 1110 1111 1112 1113 1114 1115 1116 1117 1119 1119 1120 1120 1120 1120 1120 1120 1119 1118 1117 1115 1115 1115 1116 1117 1117 1117 1116 1116 1116 1116 1116 1119 1123 1125 1126 1127 1128 1129 1132 1135 1139 1143 1145 1146 1148 1151 1153 1159 1164 1168 1171 1173 1174 1176 1178 1180 1181 1183 1185 1186 1187 1188 1190 1191 1193 1194 1196 1197 1199 1200 1202 1204 1206 1207 1208 1209 1210 1211 1212 1213 1213 1213 1215 1215 1216 1217 1218 1219 1219 1222 1224 1226 1228 1230 1232 1235 1237 1238 1240 1242 1244 1246 1247 1248 1250 1252 1254 1256 1257 1259 1261 1262 1264 1266 1268 1270 1271 1273 1275 1276 1278 1280 1282 1283 1285 1286 1288 1290 1292 1293 1295 1297 1298 1301 1302 1303 1305 1306 1307 1309 1310 1313 1314 1316 1318 1319 1321 1323 1324 1326 1328 1330 1332 1333 1335 1337 1338 1340 1342 1344 1346 1347 1349 1351 1353 1356 1358 1360 1361 1363 1363 1364 1366 1367 1370 1372 1373 1375 1376 1378 1379 1380 1384 1386 1388 1392 1396 1397 1398 1399 1400 1400 1401 1402 1405 1409 1418 1432 0 0 0 0 1707 1708 1709 1708 1708 1708 1708 1707 1707 1707 1707 1707 1706 1706 1707 1707 1707 1708 1710 1712 1714 1716 1717 1719 1720 1721 1721 1721 1721 1722 1722 1722 1723 1723 1723 1723 1722 1722 1721 1720 1718 1716 1715 1714 1713 1712 1711 1710 1709 1707 1705 1703 1701 1699 1698 1695 1694 1692 1691 1689 1688 1685 1684 1682 1681 1680 1678 1677 1677 1676 1675 1674 1674 1674 1674 1676 1678 1680 1681 1684 1688 1692 1697 1699 1701 1702 1704 1706 1708 1712 1714 1715 1717 1717 1718 1718 1718 1718 1719 1719 1719 1719 1719 1719 1719 1719 1718 1718 1718 1717 1715 1714 1713 1711 1709 1708 1707 1704 1703 1701 1699 1697 1696 1695 1693 1691 1690 1688 1686 1684 1683 1681 1679 1678 1676 1674 1672 1671 1669 1668 1666 1665 1662 1662 1662 1663 1663 1663 1666 1671 1672 1679 1685 1689 1692 1698 1701 1706 1709 1710 1712 1712 1713 1714 1716 1716 1717 1717 1717 1717 1717 1717 1716 1715 1715 1714 1714 1713 1712 1712 1712 1711 1710 1710 1709 1708 1707 1706 1705 1704 1702 1701 1701 1700 1699 1699 1698 1697 1697 1696 1696 1696 1696 1696 1696 1696 1696 1696 1696 1696 1696 1696 1697 1697 1697 1697 1697 1697 1696 1696 1696 1696 1696 1696 1697 1698 1699 1699 1701 1703 1706 1709 1712 1715 1723 1733 1745 1752 1763 1765 1769 1769 1769 1768 1767 1764 1762 1760 1757 1755 1753 1750 1745 1741 1736 1732 1729 1725 1721 1717 1713 1710 1706 1703 1700 1696 1692 1690 1687 1686 1683 1680 1677 1674 1671 1667 1665 1663 1659 1651 1647 1644 1640 1636 1631 1627 1624 1621 1619 1614 1611 1606 1604 1604 1603 1603
1895 1909 1928 1941 1960 1972 1983 1988 1996 2004 2009 2017 2039 2057 2057 2058 2058 2079 2123 2168 2174 2217 2232 2248 2262 2290 2305 2318 2327 2333 2333 2333 2333 2333 2336 2344 2353 2361 2374 2383 2394 2395 2404 2412 2419 2425 2426 2427 2427 2428 2433 2442 2442 2443 2443 2443 2444 2444 2444 2444 2449 2459 2459 2459 2457 2456 2456 2454 2453 2449 2431 2401 2360 0 0 0 0 0 0 0 0 1078 1071 1070 1070 1070 1071 1071 1073 1073 1074 1074 1075 1075 1076 1077 1078 1079 1080 1081 1082 1083 1084 1085 1085 1086 1087 1088 1089 1091 1092 1092 1094 1094 1095 1097 1098 1099 1100 1101 1103 1104 1105 1106 1107 1109 1110 1111 1112 1113 1114 1115 1116 1117 1119 1119 1120 1120 1120 1120 1120 1120 1119 1118 1117 1115 1115 1115 1116 1117 1117 1118 1119 1119 1120 1123 1123 1123 1124 1126 1127 1128 1129 1132 1133 1136 1139 1142 1145 1146 1149 1151 1154 1159 1164 1167 1169 1172 1174 1176 1178 1180 1182 1183 1185 1186 1187 1189 1190 1191 1193 1194 1196 1197 1199 1200 1202 1204 1206 1207 1208 1209 1210 1210 1211 1212 1212 1213 1213 1213 1213 1215 1216 1218 1219 1220 1222 1225 1226 1227 1229 1232 1234 1237 1239 1241 1242 1243 1245 1247 1250 1252 1254 1256 1257 1259 1260 1263 1264 1266 1268 1270 1271 1273 1274 1276 1278 1280 1281 1283 1285 1286 1288 1290 1291 1293 1295 1297 1298 1300 1302 1303 1304 1306 1307 1309 1310 1313 1314 1316 1318 1320 1321 1323 1324 1326 1328 1329 1331 1333 1335 1336 1338 1340 1342 1344 1346 1347 1349 1351 1353 1356 1357 1359 1361 1363 1363 1364 1366 1367 1369 1372 1373 1374 1376 1377 1379 1380 1384 1386 1388 1392 1396 1397 1398 1399 1400 1400 1400 1402 1405 1409 1412 1424 0 0 0 0 1707 1708 1709 1708 1708 1708 1708 1707 1707 1707 1706 1706 1705 1704 1704 1704 1704 1705 1707 1710 1712 1714 1715 1715 1717 1717 1718 1718 1719 1720 1721 1721 1721 1721 1721 1721 1721 1720 1720 1719 1717 1716 1715 1714 1712 1711 1711 1710 1708 1707 1705 1703 1701 1700 1698 1695 1694 1692 1691 1689 1688 1685 1683 1682 1680 1679 1678 1676 1675 1675 1675 1674 1673 1673 1673 1673 1674 1675 1678 1681 1685 1689 1692 1694 1698 1700 1700 1702 1704 1708 1712 1712 1715 1716 1716 1716 1717 1717 1717 1717 1718 1718 1718 1718 1718 1718 1718 1718 1718 1716 1715 1714 1712 1711 1709 1708 1707 1706 1704 1702 1700 1698 1696 1695 1694 1692 1690 1688 1686 1685 1684 1682 1680 1678 1677 1675 1674 1672 1670 1668 1666 1664 1662 1661 1661 1661 1662 1662 1663 1667 1671 1673 1680 1685 1690 1696 1700 1704 1707 1709 1711 1712 1713 1714 1715 1716 1717 1717 1717 1717 1717 1717 1716 1715 1715 1714 1714 1713 1713 1713 1712 1711 1711 1710 1709 1708 1707 1707 1705 1704 1703 1702 1701 1701 1700 1699 1699 1698 1698 1697 1697 1697 1697 1697 1697 1697 1697 1697 1697 1696 1696 1696 1697 1697 1697 1697 1697 1697 1697 1697 1697 1697 1697 1697 1697 1698 1700 1702 1705 1706 1707 1711 1714 1718 1723 1734 1746 1754 1764 1767 1769 1769 1769 1768 1767 1764 1762 1760 1757 1754 1752 1750 1745 1741 1736 1732 1728 1725 1721 1716 1713 1710 1706 1703 1700 1695 1692 1689 1687 1685 1683 1680 1676 1673 1671 1667 1665 1664 1659 1651 1647 1644 1640 1636 1632 1628 1624 1622 1619 1616 1613 1610 1608 1607 1607 1606
1905 1921 1935 1947 1961 1980 1985 2003 2016 2017 2018 2021 2034 2057 2058 2058 2060 2079 2111 2155 2171 2198 2222 2238 2262 2290 2316 2328 2339 2348 2348 2348 2345 2345 2345 2351 2357 2364 2378 2384 2389 2395 2404 2414 2424 2433 2436 2436 2438 2439 2444 2448 2448 2448 2445 2444 2444 2444 2445 2447 2455 2461 2461 2461 2457 2456 2456 2456 2454 2453 2434 2402 2371 0 0 0 0 0 0 0 0 1078 1070 1070 1070 1070 1071 1071 1073 1073 1073 1074 1074 1075 1076 1077 1077 1079 1079 1080 1082 1082 1084 1085 1085 1086 1087 1088 1089 1091 1092 1092 1094 1094 1095 1097 1098 1099 1100 1101 1103 1104 1105 1106 1107 1108 1110 1111 1111 1113 1114 1115 1116 1117 1119 1119 1120 1120 1120 1120 1120 1120 1119 1118 1117 1116 1116 1116 1116 1117 1117 1118 1119 1119 1123 1125 1127 1127 1127 1127 1127 1128 1131 1133 1136 1137 1139 1142 1144 1146 1149 1151 1156 1159 1163 1165 1168 1172 1174 1177 1178 1180 1182 1184 1185 1186 1187 1189 1190 1192 1193 1194 1196 1198 1199 1200 1202 1204 1206 1207 1208 1208 1209 1210 1211 1211 1212 1212 1212 1212 1212 1212 1213 1213 1215 1217 1220 1224 1226 1227 1227 1229 1232 1235 1239 1241 1242 1242 1245 1247 1249 1251 1252 1254 1256 1258 1260 1263 1264 1266 1268 1270 1271 1273 1275 1276 1278 1280 1281 1283 1285 1286 1288 1290 1291 1293 1295 1297 1298 1300 1302 1303 1304 1306 1307 1309 1310 1313 1314 1316 1318 1320 1321 1323 1324 1326 1328 1329 1331 1333 1334 1336 1338 1340 1342 1344 1345 1347 1349 1351 1353 1356 1357 1359 1361 1362 1363 1364 1366 1367 1369 1371 1373 1374 1375 1376 1379 1380 1383 1386 1388 1390 1394 1396 1397 1399 1400 1401 1401 1403 1405 1408 1412 1423 0 0 0 0 1707 1708 1709 1709 1708 1708 1708 1708 1707 1707 1706 1704 1704 1704 1702 1702 1702 1702 1704 1706 1708 1710 1712 1713 1714 1714 1714 1715 1716 1716 1718 1718 1719 1719 1719 1719 1719 1719 1718 1718 1717 1716 1715 1713 1712 1711 1711 1710 1708 1707 1705 1703 1701 1700 1699 1697 1695 1694 1692 1689 1688 1685 1683 1682 1680 1679 1677 1676 1675 1674 1674 1673 1673 1673 1672 1672 1672 1673 1675 1677 1681 1683 1686 1687 1692 1695 1697 1698 1701 1705 1709 1711 1712 1714 1714 1714 1714 1715 1715 1716 1716 1717 1717 1717 1717 1717 1717 1717 1717 1716 1715 1713 1712 1711 1709 1708 1707 1706 1704 1702 1700 1698 1697 1696 1694 1693 1691 1689 1687 1686 1685 1683 1681 1679 1678 1676 1675 1672 1670 1668 1666 1663 1662 1661 1661 1661 1661 1661 1662 1664 1668 1673 1675 1682 1688 1695 1699 1701 1706 1708 1710 1712 1713 1714 1715 1716 1716 1716 1716 1717 1716 1716 1716 1715 1715 1714 1714 1714 1713 1713 1712 1712 1711 1710 1710 1708 1708 1707 1706 1704 1704 1703 1701 1701 1701 1701 1699 1699 1698 1698 1698 1698 1697 1697 1697 1697 1697 1697 1697 1697 1697 1697 1697 1697 1697 1697 1697 1697 1697 1697 1697 1698 1698 1698 1698 1699 1700 1703 1705 1707 1709 1711 1716 1722 1727 1734 1746 1756 1764 1768 1769 1769 1769 1768 1767 1764 1762 1760 1758 1754 1752 1749 1745 1741 1736 1732 1728 1724 1721 1716 1712 1710 1706 1703 1700 1695 1692 1689 1687 1685 1683 1679 1676 1672 1671 1668 1665 1664 1660 1652 1647 1644 1641 1637 1633 1628 1625 1622 1620 1617 1615 1612 1610 1609 1608 1607
1933 1941 1947 1953 1965 1986 1991 2011 2024 2024 2027 2027 2034 2046 2055 2058 2060 2079 2111 2127 2171 2198 2222 2238 2265 2292 2316 2328 2342 2355 2356 2358 2358 2356 2356 2358 2363 2373 2378 2388 2389 2395 2404 2421 2434 2443 2444 2445 2446 2448 2454 2454 2454 2450 2448 2447 2447 2448 2448 2452 2457 2462 2462 2462 2457 2456 2456 2456 2456 2454 2442 2406 2380 2333 0 0 0 0 0 0 0 1078 1071 1071 1071 1071 1071 1071 1072 1072 1073 1073 1074 1075 1075 1076 1077 1078 1079 1080 1081 1082 1083 1084 1085 1086 1087 1088 1089 1090 1091 1092 1094 1094 1095 1097 1098 1099 1100 1102 1103 1104 1105 1106 1107 1108 1110 1111 1111 1113 1113 1115 1116 1117 1118 1119 1120 1120 1120 1120 1120 1120 1120 1119 1118 1116 1116 1116 1116 1117 1117 1118 1119 1119 1123 1125 1127 1127 1127 1127 1128 1130 1132 1134 1136 1137 1139 1142 1144 1146 1149 1151 1156 1159 1162 1164 1168 1171 1175 1177 1178 1180 1182 1184 1185 1187 1187 1189 1190 1192 1193 1195 1196 1198 1199 1201 1202 1204 1206 1207 1208 1208 1209 1210 1210 1210 1210 1210 1210 1210 1210 1210 1210 1210 1212 1215 1216 1221 1225 1226 1226 1228 1230 1233 1238 1240 1241 1242 1244 1247 1247 1249 1251 1253 1256 1258 1260 1263 1264 1266 1268 1269 1271 1273 1274 1276 1278 1280 1281 1283 1285 1286 1288 1290 1291 1293 1295 1296 1298 1300 1301 1303 1304 1305 1306 1308 1310 1312 1314 1316 1317 1319 1321 1323 1324 1326 1328 1329 1331 1332 1334 1336 1338 1340 1341 1343 1345 1347 1349 1351 1353 1355 1357 1358 1360 1361 1362 1364 1365 1367 1368 1370 1372 1374 1375 1376 1378 1380 1382 1385 1387 1389 1390 1394 1396 1399 1400 1401 1402 1403 1405 1408 1412 1421 0 0 0 0 1708 1708 1710 1710 1709 1709 1709 1709 1707 1707 1705 1704 1702 1702 1701 1701 1701 1701 1702 1703 1705 1706 1707 1709 1709 1710 1711 1712 1713 1713 1715 1716 1717 1717 1717 1717 1717 1717 1717 1717 1716 1715 1714 1713 1712 1711 1711 1710 1708 1707 1705 1703 1701 1700 1699 1697 1695 1694 1692 1690 1688 1686 1683 1682 1680 1679 1677 1676 1675 1674 1673 1672 1672 1672 1672 1671 1671 1671 1672 1673 1674 1675 1678 1683 1685 1689 1693 1695 1698 1702 1705 1708 1709 1711 1712 1712 1713 1713 1714 1714 1716 1716 1716 1716 1717 1717 1717 1717 1717 1716 1714 1713 1712 1710 1709 1708 1706 1706 1704 1702 1700 1699 1698 1696 1695 1693 1691 1689 1688 1686 1685 1684 1682 1681 1680 1678 1675 1672 1670 1668 1666 1663 1661 1661 1660 1660 1660 1660 1661 1663 1665 1669 1674 1676 1684 1692 1697 1700 1704 1708 1709 1710 1712 1714 1715 1716 1716 1716 1716 1716 1716 1716 1716 1715 1715 1714 1714 1714 1713 1713 1713 1712 1711 1711 1710 1710 1709 1708 1707 1705 1704 1703 1703 1702 1702 1701 1701 1700 1699 1699 1699 1699 1699 1698 1698 1698 1698 1698 1698 1697 1697 1697 1697 1698 1698 1698 1698 1697 1697 1697 1698 1698 1698 1699 1699 1700 1701 1703 1705 1707 1709 1712 1717 1722 1727 1735 1749 1758 1766 1768 1769 1769 1769 1768 1767 1765 1763 1761 1758 1754 1750 1749 1745 1742 1737 1731 1727 1722 1718 1715 1711 1708 1706 1702 1699 1694 1692 1689 1687 1684 1681 1678 1675 1672 1670 1668 1666 1664 1660 1652 1648 1644 1641 1637 1633 1628 1626 1623 1622 1620 1617 1615 1612 1611 1610 1609
1954 1960 1968 1970 1971 1986 1991 2016 2034 2042 2042 2043 2045 2045 2046 2052 2060 2079 2111 2127 2171 2198 2222 2238 2265 2293 2320 2331 2342 2355 2363 2363 2363 2362 2362 2362 2371 2384 2387 2388 2389 2401 2418 2435 2446 2447 2447 2448 2448 2448 2456 2456 2456 2454 2452 2452 2450 2450 2450 2455 2462 2464 2466 2466 2464 2460 2459 2459 2459 2459 2445 2415 2380 2335 0 0 0 0 0 0 0 1078 1073 1072 1071 1071 1072 1072 1072 1072 1072 1073 1074 1075 1075 1076 1077 1078 1079 1080 1081 1082 1083 1084 1085 1086 1087 1088 1090 1091 1091 1093 1094 1094 1095 1097 1098 1099 1101 1102 1103 1104 1105 1106 1107 1108 1109 1111 1111 1113 1113 1115 1116 1117 1118 1119 1120 1120 1120 1120 1120 1120 1120 1120 1118 1116 1116 1116 1117 1117 1117 1118 1118 1118 1123 1125 1127 1128 1128 1128 1129 1130 1133 1135 1136 1137 1139 1142 1144 1146 1148 1151 1156 1159 1161 1164 1168 1171 1175 1177 1178 1180 1182 1184 1185 1187 1188 1189 1190 1192 1193 1195 1196 1197 1199 1201 1202 1204 1206 1206 1207 1208 1209 1210 1210 1210 1209 1208 1208 1208 1208 1209 1209 1210 1212 1213 1214 1216 1218 1220 1222 1226 1229 1230 1234 1236 1237 1239 1243 1244 1246 1249 1251 1253 1255 1257 1260 1263 1264 1265 1268 1269 1271 1272 1274 1276 1278 1280 1281 1283 1285 1286 1288 1290 1291 1293 1294 1296 1298 1300 1301 1302 1304 1305 1306 1308 1310 1312 1314 1316 1317 1319 1321 1322 1324 1326 1327 1329 1330 1332 1334 1336 1337 1339 1341 1342 1345 1347 1349 1351 1353 1354 1356 1357 1359 1361 1362 1364 1365 1366 1368 1369 1372 1373 1375 1376 1378 1380 1382 1385 1386 1388 1390 1394 1396 1399 1400 1401 1403 1403 1405 1408 1411 1421 0 0 0 0 1710 1710 1710 1710 1710 1710 1710 1709 1708 1707 1705 1703 1701 1701 1700 1700 1700 1700 1700 1700 1700 1702 1703 1704 1706 1707 1709 1709 1710 1711 1712 1714 1714 1714 1714 1714 1714 1715 1715 1715 1715 1714 1714 1712 1711 1711 1710 1710 1708 1707 1705 1703 1701 1701 1699 1698 1696 1694 1693 1690 1689 1686 1684 1682 1680 1679 1677 1676 1675 1673 1673 1672 1672 1671 1670 1670 1670 1670 1670 1670 1670 1670 1673 1677 1682 1683 1687 1691 1695 1698 1701 1703 1705 1708 1709 1710 1712 1712 1713 1713 1713 1714 1715 1715 1715 1715 1716 1716 1715 1715 1714 1712 1711 1710 1708 1707 1706 1705 1704 1702 1700 1699 1698 1697 1695 1694 1691 1690 1688 1686 1686 1685 1683 1681 1680 1678 1676 1673 1671 1668 1666 1663 1661 1661 1660 1660 1660 1660 1661 1662 1665 1667 1672 1675 1681 1689 1695 1698 1701 1706 1707 1710 1712 1714 1715 1716 1716 1716 1716 1716 1716 1716 1716 1715 1715 1715 1714 1714 1714 1713 1713 1712 1712 1712 1711 1710 1709 1708 1707 1707 1705 1704 1704 1704 1702 1702 1702 1701 1701 1701 1700 1700 1699 1699 1698 1698 1698 1698 1698 1698 1698 1698 1698 1698 1698 1698 1698 1698 1698 1698 1698 1698 1698 1699 1700 1700 1702 1703 1705 1707 1709 1712 1718 1722 1727 1736 1751 1760 1767 1768 1768 1768 1768 1768 1768 1766 1764 1761 1758 1754 1750 1749 1745 1742 1737 1728 1724 1720 1718 1714 1711 1707 1704 1702 1699 1694 1691 1687 1685 1684 1680 1678 1675 1672 1670 1668 1666 1664 1660 1652 1648 1644 1641 1637 1633 1629 1626 1625 1623 1622 1619 1618 1616 1613 1612 1612
1954 1977 1978 1983 1984 1987 2006 2021 2041 2059 2059 2059 2057 2052 2052 2052 2063 2085 2111 2127 2178 2209 2229 2251 2276 2301 2320 2331 2342 2355 2363 2371 2371 2372 2372 2374 2383 2399 2399 2402 2404 2420 2433 2445 2449 2449 2449 2449 2449 2450 2456 2461 2461 2461 2461 2461 2457 2457 2457 2463 2470 2473 2473 2474 2473 2474 2474 2472 2468 2459 2445 2415 2380 2335 0 0 0 0 0 0 0 1081 1074 1073 1073 1073 1071 1071 1071 1072 1072 1073 1073 1074 1075 1075 1077 1078 1079 1080 1081 1082 1083 1084 1085 1086 1087 1088 1090 1091 1091 1092 1094 1095 1096 1097 1098 1099 1101 1102 1103 1104 1105 1106 1107 1108 1109 1110 1111 1113 1113 1115 1116 1117 1118 1119 1119 1120 1120 1120 1120 1120 1120 1120 1119 1118 1118 1118 1118 1118 1118 1118 1118 1118 1121 1125 1127 1128 1128 1128 1129 1130 1134 1135 1136 1137 1139 1141 1143 1145 1146 1149 1156 1159 1160 1164 1168 1171 1175 1177 1178 1180 1182 1184 1185 1187 1188 1189 1190 1192 1193 1195 1196 1197 1199 1201 1202 1204 1205 1206 1207 1208 1209 1209 1209 1209 1209 1207 1207 1207 1207 1208 1208 1209 1209 1210 1212 1215 1217 1219 1221 1226 1229 1230 1231 1234 1235 1237 1238 1241 1244 1249 1251 1251 1254 1256 1259 1263 1264 1266 1267 1269 1271 1272 1274 1276 1278 1280 1281 1283 1285 1287 1288 1290 1291 1293 1294 1296 1297 1300 1301 1302 1304 1305 1306 1308 1310 1311 1313 1316 1317 1319 1320 1322 1324 1325 1327 1329 1330 1332 1334 1336 1337 1339 1341 1342 1345 1347 1349 1351 1353 1354 1356 1357 1359 1361 1362 1364 1365 1366 1368 1369 1371 1373 1374 1376 1378 1380 1382 1384 1386 1388 1390 1393 1396 1398 1400 1401 1402 1404 1406 1407 1411 1421 0 0 0 0 1714 1714 1714 1712 1711 1711 1710 1709 1708 1707 1705 1703 1701 1700 1699 1698 1698 1698 1697 1697 1698 1699 1700 1702 1702 1704 1705 1706 1707 1709 1710 1711 1712 1712 1712 1712 1713 1713 1714 1714 1714 1713 1712 1712 1711 1711 1710 1709 1708 1707 1705 1703 1702 1701 1700 1698 1697 1695 1693 1691 1689 1687 1684 1683 1681 1679 1677 1676 1675 1673 1673 1672 1672 1671 1670 1670 1670 1670 1670 1669 1669 1669 1670 1673 1676 1678 1682 1686 1690 1693 1696 1698 1701 1701 1705 1708 1709 1710 1711 1712 1712 1714 1714 1714 1714 1714 1714 1714 1714 1713 1712 1712 1711 1709 1708 1707 1706 1705 1704 1702 1700 1699 1698 1697 1695 1694 1692 1691 1689 1687 1686 1685 1683 1681 1680 1678 1676 1673 1671 1669 1666 1664 1661 1661 1660 1660 1659 1659 1659 1660 1664 1666 1672 1674 1678 1684 1691 1697 1700 1703 1705 1706 1709 1712 1715 1715 1715 1715 1715 1716 1716 1716 1716 1715 1715 1715 1715 1714 1714 1714 1713 1713 1713 1712 1712 1711 1710 1709 1708 1707 1707 1706 1705 1705 1704 1704 1703 1702 1702 1702 1701 1700 1700 1700 1699 1699 1699 1699 1699 1699 1699 1699 1698 1698 1698 1698 1698 1698 1698 1698 1698 1698 1698 1699 1700 1701 1702 1703 1705 1707 1709 1712 1718 1723 1727 1736 1752 1763 1769 1769 1769 1769 1769 1768 1768 1768 1766 1762 1759 1755 1750 1749 1745 1742 1737 1727 1723 1718 1717 1713 1710 1707 1704 1702 1698 1694 1691 1687 1685 1682 1680 1678 1676 1672 1670 1668 1666 1664 1657 1652 1648 1644 1639 1637 1633 1630 1629 1627 1625 1624 1622 1620 1618 1617 1615 1615
1954 1978 1992 2001 2008 2011 2018 2029 2052 2072 2072 2072 2070 2052 2052 2052 2063 2090 2120 2148 2191 2229 2251 2273 2293 2307 2320 2331 2340 2350 2359 2371 2373 2380 2381 2385 2399 2412 2415 2415 2422 2426 2440 2448 2451 2453 2453 2453 2453 2453 2458 2463 2466 2467 2468 2469 2470 2470 2471 2474 2480 2483 2483 2483 2483 2482 2481 2481 2477 2462 2445 2415 2380 2338 0 0 0 0 0 0 0 1083 1074 1074 1073 1073 1071 1071 1071 1072 1072 1072 1073 1073 1074 1075 1076 1077 1078 1080 1080 1082 1082 1083 1085 1086 1087 1088 1090 1091 1091 1092 1094 1095 1096 1097 1098 1099 1101 1102 1103 1104 1105 1106 1107 1108 1109 1110 1111 1112 1113 1115 1116 1117 1117 1118 1119 1120 1120 1121 1121 1121 1120 1120 1119 1118 1118 1118 1118 1118 1118 1118 1118 1118 1121 1123 1126 1127 1128 1128 1129 1131 1134 1135 1136 1137 1139 1141 1143 1144 1145 1146 1155 1158 1160 1164 1167 1170 1174 1177 1178 1180 1182 1184 1185 1187 1187 1189 1190 1192 1193 1195 1196 1197 1199 1201 1202 1204 1205 1206 1207 1208 1209 1209 1209 1209 1208 1207 1207 1207 1207 1207 1208 1208 1209 1210 1212 1213 1217 1219 1220 1226 1228 1229 1230 1232 1232 1232 1235 1235 1239 1246 1250 1251 1253 1256 1259 1262 1264 1266 1267 1269 1270 1272 1274 1276 1278 1279 1281 1283 1284 1286 1288 1289 1291 1293 1294 1296 1297 1299 1300 1302 1303 1305 1305 1308 1309 1311 1313 1315 1317 1319 1319 1321 1323 1325 1327 1328 1330 1332 1334 1335 1337 1339 1341 1342 1345 1347 1349 1351 1353 1354 1356 1357 1359 1361 1362 1364 1365 1367 1368 1369 1371 1372 1374 1375 1378 1379 1381 1383 1386 1388 1390 1392 1396 1398 1399 1401 1402 1404 1405 1407 1411 1422 0 0 0 0 1717 1717 1717 1712 1712 1712 1710 1710 1708 1707 1705 1703 1701 1700 1699 1698 1697 1696 1696 1696 1696 1696 1697 1699 1699 1700 1701 1703 1704 1705 1707 1709 1710 1711 1711 1711 1711 1711 1712 1712 1712 1712 1712 1711 1711 1711 1709 1708 1707 1706 1705 1704 1702 1702 1700 1699 1697 1695 1693 1691 1689 1687 1685 1683 1681 1679 1677 1676 1675 1673 1672 1671 1671 1670 1669 1669 1668 1668 1668 1668 1668 1668 1668 1669 1670 1672 1675 1680 1684 1688 1691 1694 1696 1699 1701 1704 1706 1708 1710 1711 1712 1713 1713 1713 1713 1714 1714 1714 1714 1713 1712 1712 1710 1709 1708 1707 1706 1705 1704 1702 1701 1699 1698 1697 1696 1694 1692 1691 1689 1688 1686 1685 1684 1682 1680 1679 1676 1674 1671 1669 1667 1664 1663 1661 1660 1660 1659 1659 1659 1659 1661 1664 1668 1673 1676 1679 1687 1692 1695 1701 1704 1705 1707 1711 1713 1714 1715 1715 1715 1715 1716 1716 1716 1715 1715 1715 1715 1714 1714 1714 1714 1713 1713 1713 1712 1711 1711 1710 1709 1709 1708 1708 1707 1706 1706 1705 1704 1703 1703 1703 1702 1702 1701 1701 1700 1700 1699 1699 1699 1699 1699 1699 1698 1698 1698 1698 1698 1698 1698 1698 1698 1698 1699 1700 1701 1702 1703 1703 1705 1707 1709 1713 1719 1723 1728 1737 1752 1763 1770 1770 1770 1769 1769 1769 1769 1769 1766 1764 1759 1755 1750 1749 1743 1739 1734 1726 1721 1718 1715 1713 1709 1707 1702 1700 1698 1694 1691 1687 1684 1681 1680 1678 1676 1672 1668 1667 1664 1662 1655 1650 1646 1642 1639 1636 1633 1630 1629 1627 1625 1624 1623 1621 1620 1619 1618 1616
1942 1978 2010 2029 2038 2041 2041 2046 2060 2074 2079 2079 2079 2066 2066 2066 2094 2120 2128 2171 2214 2245 2268 2290 2305 2315 2320 2321 2328 2347 2358 2370 2371 2381 2388 2400 2415 2419 2422 2427 2428 2432 2442 2452 2454 2455 2455 2455 2455 2458 2467 2475 2476 2476 2478 2479 2481 2485 2487 2488 2491 2492 2492 2491 2486 2486 2483 2482 2478 2463 2445 2415 2380 2345 0 0 0 0 0 0 0 1084 1074 1074 1074 1073 1071 1071 1071 1071 1071 1072 1072 1073 1074 1075 1076 1077 1078 1079 1080 1082 1082 1084 1085 1086 1087 1088 1090 1091 1091 1092 1094 1095 1096 1097 1098 1099 1101 1102 1103 1104 1105 1106 1107 1108 1109 1110 1111 1112 1113 1114 1115 1116 1117 1118 1119 1119 1120 1121 1121 1121 1120 1120 1120 1118 1118 1118 1118 1118 1118 1118 1118 1118 1121 1123 1124 1125 1126 1128 1129 1131 1134 1134 1136 1137 1139 1140 1142 1143 1144 1146 1154 1157 1159 1163 1166 1170 1174 1177 1178 1180 1182 1184 1185 1187 1187 1189 1190 1191 1193 1194 1196 1197 1199 1200 1202 1204 1205 1206 1207 1208 1208 1208 1208 1208 1208 1207 1207 1207 1207 1207 1207 1208 1208 1208 1209 1211 1214 1217 1220 1226 1227 1228 1228 1227 1228 1228 1228 1230 1234 1242 1248 1250 1253 1256 1259 1262 1264 1266 1267 1269 1270 1272 1274 1276 1278 1279 1281 1283 1284 1286 1288 1289 1291 1293 1294 1296 1296 1299 1299 1301 1302 1304 1305 1307 1309 1311 1312 1315 1316 1317 1319 1321 1323 1324 1327 1328 1330 1332 1334 1335 1337 1339 1341 1343 1345 1347 1349 1351 1353 1354 1356 1357 1359 1361 1363 1364 1366 1367 1368 1369 1371 1372 1374 1375 1378 1379 1381 1383 1385 1387 1389 1391 1394 1396 1398 1400 1402 1404 1405 1407 1413 1423 0 0 0 0 1719 1719 1719 1714 1712 1712 1711 1710 1708 1706 1704 1702 1701 1699 1698 1697 1696 1696 1695 1695 1695 1695 1696 1696 1696 1696 1697 1699 1701 1702 1703 1705 1707 1709 1710 1710 1710 1710 1710 1710 1710 1710 1710 1710 1710 1710 1709 1708 1707 1706 1705 1704 1702 1702 1700 1699 1697 1695 1693 1691 1690 1687 1685 1683 1681 1679 1677 1676 1674 1673 1672 1671 1670 1670 1668 1668 1667 1667 1667 1666 1666 1665 1665 1665 1668 1669 1670 1673 1678 1683 1685 1689 1692 1695 1697 1699 1701 1704 1706 1709 1710 1711 1712 1712 1713 1713 1713 1713 1713 1713 1711 1711 1710 1708 1707 1707 1706 1705 1704 1702 1701 1700 1698 1697 1696 1694 1693 1692 1690 1688 1687 1686 1684 1683 1681 1679 1677 1675 1672 1671 1669 1665 1664 1662 1660 1660 1659 1659 1659 1659 1661 1662 1664 1669 1673 1675 1681 1687 1691 1697 1701 1703 1706 1710 1712 1712 1714 1714 1714 1715 1715 1715 1715 1715 1715 1715 1715 1715 1715 1714 1714 1714 1713 1713 1713 1712 1711 1711 1711 1710 1710 1709 1708 1708 1707 1707 1705 1705 1705 1704 1703 1703 1703 1702 1701 1701 1700 1700 1700 1700 1699 1699 1699 1699 1698 1698 1698 1698 1698 1698 1698 1698 1699 1700 1701 1703 1704 1704 1706 1709 1710 1713 1718 1723 1729 1740 1753 1764 1770 1770 1770 1770 1770 1770 1770 1770 1767 1764 1760 1756 1750 1748 1743 1739 1731 1724 1720 1717 1714 1712 1708 1705 1701 1700 1697 1694 1691 1688 1683 1681 1680 1678 1676 1672 1668 1665 1663 1660 1654 1649 1646 1642 1639 1636 1633 1631 1629 1627 1626 1624 1623 1622 1621 1620 1619 1618
1942 1981 2016 2035 2038 2049 2059 2067 2072 2080 2089 2089 2089 2090 2090 2094 2103 2120 2132 2172 2214 2251 2280 2304 2320 2321 2321 2322 2328 2338 2353 2356 2368 2381 2388 2408 2425 2430 2432 2432 2436 2446 2449 2455 2459 2461 2464 2464 2467 2474 2486 2489 2489 2489 2489 2489 2491 2495 2500 2501 2501 2501 2498 2498 2493 2487 2484 2483 2478 2464 2445 2415 2385 0 0 0 0 0 0 0 0 1085 1074 1074 1074 1072 1070 1070 1070 1071 1071 1071 1072 1073 1073 1075 1076 1077 1078 1079 1080 1081 1082 1083 1085 1086 1087 1088 1089 1091 1091 1092 1094 1094 1096 1097 1098 1099 1100 1102 1103 1104 1105 1106 1107 1107 1109 1110 1110 1112 1113 1114 1115 1116 1117 1118 1119 1119 1120 1120 1120 1121 1121 1120 1120 1118 1118 1118 1118 1118 1118 1119 1119 1120 1121 1123 1123 1124 1125 1127 1129 1131 1132 1133 1135 1136 1138 1140 1140 1142 1143 1146 1151 1157 1159 1163 1166 1169 1173 1177 1178 1180 1182 1184 1185 1186 1187 1188 1190 1191 1193 1194 1196 1197 1199 1200 1202 1204 1205 1205 1207 1207 1208 1208 1208 1208 1208 1207 1207 1207 1207 1207 1207 1207 1207 1207 1207 1207 1209 1214 1220 1226 1226 1226 1226 1225 1225 1225 1228 1230 1234 1239 1245 1250 1254 1256 1259 1261 1264 1266 1267 1269 1271 1272 1274 1276 1278 1279 1281 1283 1284 1285 1287 1289 1291 1292 1293 1295 1296 1298 1299 1301 1302 1303 1305 1307 1309 1311 1312 1314 1316 1317 1319 1321 1322 1324 1327 1328 1330 1332 1334 1336 1337 1339 1340 1343 1345 1347 1349 1351 1353 1354 1356 1358 1360 1361 1363 1364 1366 1368 1369 1369 1371 1372 1374 1375 1377 1379 1381 1383 1385 1387 1389 1391 1393 1395 1396 1399 1402 1404 1406 1409 1414 1426 0 0 0 0 1724 1724 1724 1717 1714 1714 1712 1710 1708 1706 1704 1702 1701 1699 1698 1697 1695 1695 1693 1693 1693 1693 1693 1693 1693 1693 1693 1694 1696 1699 1699 1702 1704 1706 1707 1708 1708 1708 1708 1708 1709 1709 1709 1709 1709 1709 1708 1707 1707 1706 1704 1704 1702 1702 1700 1699 1697 1695 1693 1692 1690 1688 1686 1684 1681 1679 1677 1676 1674 1673 1672 1671 1670 1669 1668 1667 1667 1666 1666 1666 1665 1665 1664 1664 1664 1665 1668 1669 1673 1677 1680 1684 1689 1691 1694 1696 1698 1701 1705 1706 1708 1710 1711 1712 1712 1712 1712 1712 1712 1711 1710 1710 1709 1708 1707 1706 1705 1705 1704 1703 1701 1700 1698 1698 1696 1695 1694 1693 1692 1690 1688 1686 1685 1683 1681 1679 1677 1675 1673 1671 1669 1667 1665 1663 1661 1660 1660 1659 1659 1660 1661 1662 1664 1666 1669 1673 1676 1681 1684 1692 1697 1700 1706 1707 1710 1712 1713 1714 1714 1714 1715 1715 1715 1715 1715 1715 1715 1715 1715 1714 1714 1714 1713 1713 1713 1712 1712 1711 1711 1711 1710 1710 1709 1709 1708 1707 1707 1706 1706 1705 1705 1703 1703 1703 1702 1702 1701 1701 1700 1700 1700 1700 1699 1699 1698 1698 1698 1698 1698 1698 1699 1699 1699 1700 1702 1703 1704 1705 1707 1710 1711 1713 1718 1726 1734 1746 1756 1764 1771 1772 1772 1772 1772 1772 1771 1771 1769 1765 1760 1756 1750 1745 1740 1735 1729 1722 1719 1716 1714 1711 1708 1705 1701 1699 1695 1694 1692 1688 1683 1681 1679 1678 1676 1672 1667 1665 1660 1657 1653 1649 1645 1642 1638 1635 1633 1630 1629 1627 1626 1624 1624 1623 1623 1622 1621 1619
1942 1983 2019 2035 2041 2055 2068 2072 2080 2080 2089 2089 2089 2090 2090 2094 2106 2120 2135 2172 2217 2253 2284 2309 2320 2321 2323 2328 2328 2338 2353 2356 2365 2379 2388 2408 2426 2433 2434 2439 2448 2456 2458 2459 2464 2466 2469 2469 2476 2489 2506 2506 2506 2505 2498 2498 2498 2506 2509 2509 2509 2508 2508 2505 2498 2488 2487 2483 2478 2465 2447 2421 2385 0 0 0 0 0 0 0 0 0 1074 1074 1072 1071 1070 1070 1070 1071 1071 1071 1072 1072 1073 1074 1076 1076 1078 1079 1080 1081 1082 1083 1084 1086 1087 1088 1089 1090 1091 1092 1093 1094 1096 1096 1098 1099 1100 1101 1102 1104 1105 1105 1107 1107 1109 1109 1110 1111 1112 1114 1115 1116 1117 1118 1119 1119 1120 1120 1120 1121 1121 1120 1120 1118 1118 1118 1118 1119 1119 1119 1120 1121 1122 1123 1123 1123 1124 1127 1129 1130 1131 1132 1134 1135 1137 1138 1139 1142 1143 1146 1151 1157 1159 1163 1166 1169 1173 1177 1178 1180 1182 1183 1185 1185 1187 1188 1189 1191 1192 1194 1195 1197 1198 1200 1202 1203 1204 1205 1207 1207 1208 1208 1208 1208 1207 1207 1207 1207 1206 1206 1206 1205 1205 1204 1204 1204 1207 1210 1215 1217 1219 1219 1223 1223 1223 1225 1227 1230 1234 1239 1245 1249 1253 1256 1259 1261 1264 1266 1267 1269 1271 1273 1274 1276 1278 1279 1281 1282 1284 1285 1287 1289 1290 1292 1293 1295 1296 1298 1299 1300 1301 1303 1304 1307 1309 1311 1312 1314 1314 1317 1318 1320 1322 1324 1326 1328 1330 1332 1334 1335 1337 1339 1340 1343 1345 1347 1349 1351 1353 1355 1356 1358 1360 1362 1363 1365 1367 1368 1369 1370 1371 1372 1374 1375 1377 1379 1381 1383 1385 1387 1389 1391 1393 1395 1396 1399 1402 1404 1407 1409 1414 1427 0 0 0 0 1725 1725 1725 1719 1714 1714 1713 1710 1708 1706 1703 1702 1701 1699 1698 1696 1695 1693 1692 1692 1691 1691 1691 1691 1691 1691 1691 1691 1692 1695 1697 1698 1701 1702 1703 1704 1704 1705 1705 1706 1707 1707 1708 1708 1708 1708 1708 1707 1706 1705 1704 1703 1702 1702 1700 1699 1697 1695 1693 1692 1690 1688 1686 1684 1681 1679 1677 1676 1674 1673 1672 1671 1669 1669 1668 1667 1666 1666 1665 1665 1664 1664 1664 1663 1663 1663 1664 1667 1669 1671 1674 1678 1682 1687 1689 1692 1695 1697 1701 1703 1706 1709 1710 1711 1711 1711 1711 1711 1711 1711 1710 1709 1708 1707 1706 1705 1705 1704 1703 1703 1701 1700 1699 1698 1696 1695 1695 1693 1692 1690 1688 1687 1686 1683 1682 1680 1677 1675 1673 1671 1669 1668 1665 1663 1662 1661 1660 1660 1660 1661 1661 1662 1664 1665 1667 1670 1672 1674 1681 1688 1694 1699 1702 1705 1709 1711 1713 1714 1714 1714 1714 1715 1715 1715 1715 1715 1715 1715 1715 1715 1714 1714 1714 1713 1713 1712 1712 1712 1712 1712 1711 1710 1710 1710 1709 1708 1708 1707 1706 1706 1706 1705 1704 1704 1704 1703 1702 1702 1702 1701 1700 1700 1700 1699 1699 1699 1699 1699 1699 1700 1700 1700 1701 1702 1702 1703 1704 1705 1707 1710 1713 1714 1719 1726 1735 1751 1760 1766 1775 1776 1776 1776 1775 1774 1773 1772 1769 1765 1760 1756 1749 1743 1737 1733 1728 1722 1718 1715 1713 1710 1707 1705 1701 1697 1695 1694 1692 1688 1684 1681 1678 1676 1674 1670 1667 1663 1658 1655 1652 1649 1646 1642 1638 1635 1633 1630 1629 1627 1626 1625 1624 1624 1624 1623 1622 1619
1950 1985 2023 2042 2044 2055 2068 2076 2080 2080 2080 2086 2086 2086 2090 2094 2106 2120 2146 2182 2218 2255 2284 2309 2323 2329 2331 2336 2336 2338 2353 2356 2364 2374 2382 2408 2428 2434 2438 2444 2456 2460 2463 2465 2467 2470 2472 2475 2484 2498 2516 2516 2516 2516 2516 2516 2520 2524 2524 2524 2520 2520 2519 2509 2502 2489 2485 2478 2475 2465 2451 2431 2401 0 0 0 0 0 0 0 0 0 1074 1071 1071 1070 1069 1069 1069 1070 1070 1070 1071 1072 1073 1074 1075 1076 1077 1078 1079 1080 1082 1083 1084 1085 1086 1088 1089 1090 1091 1092 1093 1094 1096 1096 1097 1099 1099 1100 1102 1103 1105 1105 1106 1107 1108 1109 1110 1111 1112 1113 1115 1116 1117 1118 1119 1119 1120 1120 1121 1121 1121 1121 1120 1119 1119 1119 1119 1119 1119 1119 1121 1121 1122 1122 1123 1123 1124 1126 1128 1130 1130 1131 1133 1134 1135 1136 1137 1140 1143 1146 1150 1156 1159 1164 1166 1169 1173 1176 1178 1180 1182 1183 1184 1185 1187 1188 1189 1190 1192 1193 1195 1197 1198 1200 1202 1203 1204 1205 1207 1207 1208 1208 1208 1208 1207 1207 1207 1207 1206 1205 1204 1204 1204 1204 1204 1204 1206 1209 1210 1210 1212 1215 1219 1222 1223 1225 1226 1230 1234 1239 1244 1249 1253 1256 1259 1261 1264 1266 1267 1269 1271 1273 1274 1276 1278 1279 1281 1282 1283 1285 1287 1288 1290 1291 1293 1294 1296 1297 1298 1300 1301 1302 1304 1306 1307 1309 1311 1312 1313 1315 1317 1319 1322 1324 1326 1328 1330 1332 1334 1336 1337 1339 1340 1343 1345 1347 1349 1350 1353 1355 1356 1358 1360 1362 1363 1365 1367 1368 1369 1370 1371 1373 1374 1376 1377 1379 1381 1383 1385 1387 1389 1391 1393 1395 1396 1399 1402 1405 1409 1410 1415 1428 0 0 0 0 1725 1725 1725 1721 1717 1716 1714 1711 1708 1706 1703 1702 1701 1698 1697 1696 1694 1693 1691 1691 1689 1689 1689 1689 1689 1689 1689 1690 1691 1692 1694 1696 1697 1698 1699 1700 1701 1702 1702 1704 1704 1706 1707 1708 1708 1708 1707 1706 1705 1704 1703 1703 1702 1701 1700 1699 1697 1695 1693 1692 1690 1688 1686 1684 1682 1679 1677 1676 1674 1673 1672 1670 1669 1668 1668 1667 1666 1665 1664 1662 1662 1662 1662 1662 1660 1660 1660 1661 1665 1668 1670 1672 1676 1682 1686 1688 1691 1694 1697 1700 1702 1704 1707 1710 1710 1710 1711 1710 1710 1710 1710 1708 1708 1707 1706 1705 1704 1704 1703 1702 1701 1700 1699 1698 1697 1696 1695 1694 1692 1691 1690 1688 1686 1685 1683 1680 1678 1676 1674 1672 1670 1668 1666 1665 1663 1662 1662 1661 1661 1661 1661 1662 1664 1665 1667 1667 1668 1672 1677 1684 1691 1696 1701 1703 1705 1708 1711 1713 1713 1714 1714 1715 1715 1715 1715 1715 1715 1715 1715 1715 1714 1714 1714 1713 1713 1713 1712 1712 1712 1712 1712 1712 1711 1710 1710 1709 1709 1708 1707 1707 1706 1706 1705 1705 1705 1704 1703 1703 1703 1702 1702 1702 1701 1700 1700 1700 1700 1700 1700 1701 1701 1701 1702 1702 1703 1703 1704 1705 1707 1710 1714 1715 1719 1726 1735 1752 1766 1773 1780 1780 1780 1779 1777 1775 1774 1772 1770 1765 1760 1755 1748 1743 1737 1731 1726 1721 1717 1714 1711 1709 1707 1703 1700 1697 1695 1694 1692 1688 1684 1681 1678 1676 1673 1670 1667 1661 1658 1654 1652 1649 1646 1642 1638 1635 1632 1630 1629 1628 1627 1625 1625 1624 1624 1623 1622 1620
1979 2003 2027 2042 2044 2070 2085 2085 2085 2085 2085 2085 2085 2086 2086 2094 2106 2120 2152 2204 2236 2269 2288 2309 2323 2336 2340 2350 2352 2357 2360 2363 2364 2364 2379 2408 2429 2439 2442 2446 2457 2465 2471 2473 2476 2479 2481 2483 2493 2503 2517 2521 2525 2526 2528 2534 2541 2541 2541 2538 2534 2534 2525 2519 2508 2493 2485 2478 2475 2465 2453 2434 2410 0 0 0 0 0 0 0 0 0 1074 1070 1070 1070 1069 1070 1070 1070 1070 1070 1071 1072 1073 1074 1075 1076 1077 1078 1079 1080 1081 1082 1083 1085 1086 1087 1088 1089 1090 1091 1092 1094 1094 1096 1097 1097 1098 1100 1101 1103 1104 1104 1106 1107 1107 1108 1110 1110 1112 1113 1114 1116 1117 1118 1119 1119 1120 1120 1121 1121 1121 1121 1121 1119 1119 1119 1119 1119 1120 1120 1121 1121 1121 1122 1122 1123 1124 1126 1128 1128 1129 1131 1132 1133 1135 1136 1137 1140 1143 1146 1149 1151 1159 1164 1166 1169 1173 1176 1178 1180 1181 1183 1184 1185 1186 1187 1189 1190 1192 1193 1195 1196 1198 1200 1201 1203 1204 1205 1206 1207 1207 1207 1207 1207 1207 1207 1207 1206 1205 1205 1203 1203 1203 1203 1203 1204 1205 1206 1207 1207 1207 1211 1215 1220 1221 1224 1226 1230 1234 1239 1243 1249 1253 1256 1258 1261 1264 1266 1267 1269 1271 1273 1274 1276 1277 1279 1281 1282 1283 1285 1286 1288 1290 1291 1293 1294 1295 1296 1298 1299 1300 1301 1303 1305 1306 1306 1308 1311 1312 1313 1316 1319 1321 1324 1325 1326 1330 1331 1334 1336 1337 1339 1340 1342 1344 1346 1348 1350 1353 1355 1356 1358 1360 1362 1363 1365 1367 1368 1369 1370 1372 1373 1375 1376 1377 1379 1381 1384 1385 1387 1389 1391 1393 1395 1396 1399 1402 1405 1409 1410 1416 1430 0 0 0 0 1725 1725 1725 1721 1717 1717 1715 1713 1709 1707 1703 1702 1700 1698 1696 1695 1693 1692 1690 1689 1688 1687 1686 1686 1686 1686 1686 1686 1687 1688 1689 1691 1693 1693 1695 1697 1699 1699 1700 1701 1703 1703 1705 1705 1706 1706 1705 1705 1704 1704 1703 1702 1702 1700 1699 1698 1697 1695 1693 1692 1690 1688 1686 1684 1682 1679 1677 1676 1674 1673 1672 1671 1669 1668 1668 1666 1666 1664 1663 1662 1661 1660 1660 1659 1659 1657 1657 1657 1659 1663 1666 1668 1672 1675 1680 1684 1686 1689 1692 1696 1699 1701 1704 1706 1708 1708 1708 1708 1708 1708 1708 1708 1707 1706 1705 1705 1704 1703 1703 1702 1701 1700 1699 1698 1697 1696 1695 1694 1692 1691 1690 1689 1687 1685 1683 1681 1679 1677 1674 1672 1671 1669 1667 1665 1664 1662 1662 1661 1661 1661 1661 1662 1664 1665 1666 1666 1668 1670 1674 1682 1689 1695 1697 1699 1703 1706 1709 1713 1713 1714 1714 1714 1714 1715 1715 1715 1715 1715 1715 1715 1715 1714 1714 1713 1713 1713 1712 1712 1712 1712 1712 1712 1711 1711 1710 1710 1710 1709 1708 1708 1707 1706 1705 1705 1705 1705 1705 1704 1704 1703 1703 1702 1702 1702 1701 1701 1701 1701 1701 1701 1702 1703 1703 1703 1704 1704 1705 1705 1708 1710 1714 1716 1719 1726 1735 1753 1767 1778 1782 1782 1782 1782 1779 1777 1776 1774 1770 1766 1760 1755 1747 1742 1735 1729 1723 1718 1715 1712 1710 1708 1706 1703 1700 1697 1695 1694 1692 1688 1684 1681 1678 1675 1672 1669 1665 1660 1657 1654 1651 1649 1645 1641 1637 1635 1632 1630 1629 1628 1627 1626 1625 1625 1624 1623 1622 1620
2011 2037 2057 2058 2079 2094 2094 2094 2085 2085 2085 2085 2085 2086 2086 2094 2106 2123 2203 2234 2257 2285 2290 2309 2319 2334 2340 2352 2354 2360 2360 2360 2364 2364 2379 2408 2430 2446 2446 2450 2460 2468 2480 2484 2485 2489 2492 2499 2504 2512 2518 2529 2530 2532 2538 2545 2548 2549 2549 2549 2545 2538 2535 2526 2517 2501 2485 2478 2475 2466 2453 2435 2411 0 0 0 0 0 0 0 0 0 1074 1070 1070 1070 1069 1070 1070 1070 1070 1070 1071 1072 1073 1074 1075 1076 1077 1078 1079 1080 1081 1082 1083 1085 1086 1087 1088 1089 1089 1090 1091 1092 1094 1095 1096 1097 1098 1099 1101 1101 1102 1103 1104 1106 1107 1108 1109 1110 1111 1113 1114 1115 1116 1118 1119 1119 1120 1120 1121 1121 1121 1121 1121 1119 1119 1119 1120 1120 1121 1121 1121 1121 1121 1121 1122 1122 1124 1126 1128 1128 1129 1131 1132 1133 1135 1136 1137 1140 1143 1145 1148 1149 1158 1164 1166 1169 1173 1175 1178 1179 1181 1182 1183 1185 1186 1187 1188 1190 1192 1193 1195 1196 1198 1200 1201 1202 1204 1205 1205 1207 1207 1207 1207 1207 1206 1206 1206 1206 1204 1203 1203 1202 1202 1202 1202 1204 1205 1205 1206 1206 1207 1210 1213 1217 1219 1221 1224 1228 1234 1239 1242 1248 1251 1255 1258 1261 1264 1266 1267 1269 1271 1273 1274 1276 1277 1279 1280 1282 1283 1285 1286 1288 1289 1291 1292 1293 1294 1295 1297 1299 1299 1300 1301 1301 1303 1303 1305 1307 1310 1313 1316 1318 1320 1322 1325 1326 1330 1331 1333 1335 1337 1339 1340 1342 1344 1346 1348 1350 1352 1354 1356 1358 1360 1361 1363 1364 1366 1368 1369 1370 1372 1374 1375 1376 1378 1380 1382 1383 1385 1387 1389 1391 1393 1395 1397 1399 1401 1405 1409 1410 1416 1430 1460 0 0 0 1723 1723 1723 1721 1717 1717 1716 1714 1712 1708 1705 1702 1700 1698 1696 1694 1693 1691 1689 1688 1687 1686 1684 1684 1683 1683 1683 1683 1684 1685 1686 1686 1689 1690 1692 1693 1694 1695 1698 1699 1699 1700 1701 1702 1704 1704 1704 1703 1703 1702 1701 1701 1701 1699 1699 1697 1696 1694 1693 1692 1690 1688 1686 1684 1682 1680 1678 1676 1674 1673 1672 1671 1669 1668 1667 1666 1665 1663 1662 1662 1660 1659 1658 1657 1657 1656 1656 1656 1656 1659 1660 1664 1667 1670 1675 1678 1682 1685 1687 1693 1698 1698 1699 1703 1705 1706 1706 1706 1708 1708 1708 1707 1706 1705 1705 1705 1703 1703 1702 1701 1700 1700 1699 1698 1697 1696 1695 1694 1693 1691 1690 1689 1688 1686 1684 1682 1680 1678 1676 1674 1671 1669 1668 1666 1665 1664 1663 1662 1661 1661 1661 1662 1663 1664 1665 1666 1666 1670 1674 1677 1684 1690 1694 1697 1702 1704 1708 1711 1713 1713 1713 1713 1714 1714 1714 1715 1715 1715 1715 1715 1715 1715 1715 1715 1714 1714 1713 1713 1713 1713 1712 1712 1712 1712 1711 1711 1710 1710 1709 1708 1708 1707 1706 1706 1706 1706 1705 1705 1705 1704 1704 1703 1703 1702 1702 1702 1702 1702 1702 1703 1703 1703 1703 1704 1705 1705 1705 1706 1708 1710 1714 1716 1719 1725 1734 1752 1771 1785 1785 1785 1785 1782 1780 1778 1776 1774 1771 1766 1760 1754 1747 1741 1733 1727 1721 1716 1714 1711 1709 1707 1706 1703 1701 1698 1697 1694 1692 1689 1685 1681 1678 1675 1672 1667 1664 1660 1657 1654 1651 1649 1645 1641 1637 1635 1632 1630 1629 1628 1627 1626 1625 1625 1624 1623 1622 1620
2028 2058 2068 2083 2103 2103 2103 2101 2098 2092 2089 2089 2092 2092 2103 2129 0 2203 2237 2261 2261 2288 2301 2311 2316 2320 2340 2352 2354 2360 2360 2362 2364 2364 2379 2409 2430 2447 2458 2461 2467 2477 2488 2493 2496 2499 2504 2509 2515 2521 2524 2529 2534 2540 2544 2549 2553 2553 2553 2553 2552 2549 2544 2537 2526 2513 2496 2485 2477 2467 2453 2435 2411 2372 0 0 0 0 0 0 0 0 1074 1069 1069 1069 1069 1069 1070 1070 1070 1070 1071 1072 1073 1074 1075 1076 1077 1078 1079 1080 1081 1082 1083 1084 1085 1086 1087 1087 1088 1089 1090 1091 1092 1094 1095 1096 1097 1098 1099 1101 1102 1103 1103 1105 1106 1107 1109 1109 1111 1112 1114 1115 1116 1117 1118 1118 1120 1120 1121 1121 1121 1121 1121 1120 1120 1120 1121 1121 1121 1121 1121 1121 1121 1121 1121 1122 1124 1127 1128 1128 1129 1131 1132 1132 1134 1135 1137 1140 1142 1145 1147 1149 1157 1163 1166 1169 1173 1175 1176 1179 1181 1182 1183 1185 1186 1187 1188 1190 1191 1193 1194 1196 1198 1200 1201 1202 1203 1205 1205 1206 1207 1207 1207 1206 1206 1204 1204 1204 1203 1203 1202 1201 1201 1201 1201 1201 1201 1203 1204 1204 1207 1210 1212 1214 1215 1217 1220 1227 1232 1239 1241 1247 1250 1254 1258 1261 1263 1265 1267 1269 1271 1273 1274 1276 1277 1279 1281 1282 1283 1285 1286 1287 1289 1290 1291 1292 1294 1295 1296 1297 1298 1298 1300 1300 1300 1300 1301 1305 1309 1312 1316 1317 1317 1320 1325 1326 1330 1331 1332 1335 1336 1338 1340 1342 1344 1346 1348 1349 1351 1353 1356 1358 1360 1360 1362 1364 1366 1368 1369 1370 1372 1374 1375 1376 1378 1380 1382 1383 1385 1387 1389 1391 1393 1396 1397 1399 1401 1404 1409 1411 1418 1431 1456 0 0 0 1729 1729 1723 1719 1719 1718 1717 1715 1713 1709 1705 1702 1700 1698 1696 1694 1693 1691 1689 1687 1686 1685 1683 1682 1682 1682 1682 1682 1682 1682 1683 1683 1684 1688 1689 1691 1692 1694 1694 1694 1695 1696 1698 1699 1701 1701 1701 1701 1701 1701 1700 1700 1699 1699 1697 1696 1695 1694 1692 1690 1689 1687 1686 1684 1681 1680 1678 1676 1674 1673 1672 1671 1669 1668 1667 1666 1665 1663 1662 1661 1660 1658 1657 1656 1655 1655 1655 1654 1654 1654 1657 1660 1664 1667 1669 1673 1677 1680 1684 1689 1694 1696 1698 1699 1701 1702 1704 1704 1705 1705 1705 1705 1705 1705 1705 1703 1703 1703 1701 1701 1700 1700 1699 1698 1697 1696 1695 1694 1693 1692 1691 1689 1688 1686 1684 1682 1680 1678 1676 1674 1672 1670 1668 1668 1666 1665 1664 1662 1662 1661 1661 1661 1662 1664 1664 1665 1666 1669 1672 1675 1680 1684 1690 1694 1699 1703 1706 1708 1711 1712 1713 1713 1714 1714 1714 1715 1715 1715 1715 1715 1716 1715 1715 1715 1715 1714 1714 1714 1714 1713 1713 1713 1713 1713 1712 1712 1711 1710 1710 1709 1708 1708 1707 1707 1706 1706 1706 1706 1706 1705 1705 1705 1704 1704 1703 1703 1703 1703 1703 1703 1704 1704 1704 1704 1705 1705 1706 1707 1708 1710 1713 1716 1719 1724 1734 1751 1771 1785 1786 1786 1786 1783 1780 1778 1777 1774 1771 1765 1759 1752 1746 1738 1729 1724 1720 1716 1713 1711 1709 1707 1705 1703 1701 1698 1697 1694 1692 1689 1686 1683 1679 1675 1672 1665 1663 1660 1656 1654 1651 1648 1644 1641 1637 1635 1632 1630 1629 1628 1627 1626 1625 1625 1624 1623 1621 1620
2044 2065 2082 2096 2114 2114 2114 2112 2112 2112 2116 2126 2132 2147 2163 2189 2194 2224 2255 2264 2287 2310 2314 2316 2319 2320 2331 2342 2356 2360 2360 2362 2365 2369 2389 2411 2430 2447 2458 2470 2479 2489 2498 2501 2504 2504 2506 2514 2523 2530 2532 2534 2538 2540 2546 2551 2553 2554 2558 2558 2558 2551 2546 2545 2535 2523 2511 2497 2487 2478 2460 2439 2413 2372 0 0 0 0 0 0 0 0 1077 1070 1069 1069 1069 1069 1069 1070 1070 1071 1071 1072 1073 1074 1075 1076 1077 1078 1079 1080 1081 1082 1082 1083 1084 1086 1087 1087 1087 1089 1090 1090 1092 1093 1094 1094 1096 1097 1098 1099 1100 1101 1101 1103 1104 1106 1107 1109 1110 1111 1113 1115 1115 1117 1118 1118 1119 1120 1121 1121 1121 1121 1121 1120 1120 1120 1121 1121 1121 1121 1121 1121 1121 1121 1121 1122 1125 1127 1128 1129 1130 1131 1132 1132 1134 1135 1137 1140 1142 1145 1146 1149 1155 1161 1166 1169 1173 1174 1176 1179 1181 1182 1183 1184 1185 1187 1188 1190 1191 1193 1194 1196 1197 1199 1201 1202 1203 1205 1205 1206 1206 1206 1206 1206 1205 1204 1203 1202 1202 1201 1201 1201 1201 1200 1198 1198 1198 1199 1202 1204 1207 1209 1212 1212 1214 1214 1217 1222 1230 1237 1241 1245 1249 1254 1257 1260 1263 1265 1268 1269 1271 1273 1274 1276 1277 1279 1281 1282 1283 1285 1286 1287 1289 1290 1291 1292 1294 1294 1295 1296 1296 1296 1298 1298 1298 1299 1300 1304 1307 1312 1315 1315 1317 1320 1324 1326 1329 1331 1332 1334 1335 1337 1340 1341 1343 1345 1347 1348 1351 1353 1356 1357 1359 1360 1362 1364 1366 1368 1369 1371 1372 1374 1375 1376 1379 1380 1382 1384 1385 1387 1389 1391 1394 1396 1397 1399 1401 1404 1409 1412 1418 1433 1456 0 0 0 1729 1729 1723 1719 1719 1719 1719 1718 1715 1711 1707 1704 1700 1698 1696 1695 1693 1691 1688 1687 1685 1684 1683 1682 1681 1680 1680 1680 1680 1680 1681 1681 1681 1682 1685 1686 1688 1690 1691 1691 1691 1692 1693 1696 1698 1698 1698 1698 1698 1698 1698 1698 1698 1697 1696 1696 1695 1693 1692 1690 1688 1687 1686 1683 1681 1680 1678 1676 1675 1673 1672 1671 1670 1668 1667 1666 1665 1663 1662 1660 1660 1658 1656 1655 1654 1654 1654 1653 1653 1653 1654 1655 1659 1663 1668 1669 1673 1678 1682 1686 1690 1692 1694 1696 1697 1700 1701 1702 1703 1704 1704 1704 1704 1703 1703 1702 1702 1702 1701 1700 1699 1699 1699 1698 1697 1696 1695 1694 1693 1692 1691 1689 1688 1686 1684 1682 1680 1678 1677 1675 1672 1671 1669 1668 1666 1665 1664 1663 1662 1661 1661 1661 1661 1662 1663 1663 1665 1666 1671 1673 1677 1681 1684 1691 1695 1700 1704 1706 1708 1709 1712 1712 1712 1712 1714 1715 1715 1716 1716 1716 1716 1716 1716 1716 1716 1715 1715 1714 1714 1714 1714 1714 1714 1714 1713 1713 1712 1711 1711 1710 1709 1709 1708 1708 1708 1708 1708 1707 1707 1706 1706 1705 1705 1705 1704 1704 1704 1704 1704 1704 1704 1704 1704 1705 1705 1706 1706 1707 1708 1710 1713 1716 1718 1724 1734 1751 1771 1785 1786 1786 1786 1783 1780 1778 1777 1774 1771 1765 1758 1751 1745 1736 1728 1724 1720 1716 1713 1711 1709 1707 1705 1702 1701 1699 1697 1694 1691 1689 1686 1683 1680 1677 1672 1665 1662 1659 1656 1654 1651 1647 1644 1641 1637 1635 1633 1630 1629 1628 1627 1627 1625 1624 1624 1622 1621 1619
2057 2080 2082 2106 2123 2125 2126 2128 2129 2138 2150 2163 2183 2201 2217 2223 2230 2238 2259 2276 2303 2321 2321 2321 2323 2323 2331 2342 2356 2360 2365 2368 2371 2386 2401 2416 2428 2447 2458 2470 2479 2489 2498 2501 2504 2506 2506 2515 2529 2536 2537 2539 2541 2545 2550 2553 2554 2557 2559 2559 2559 2551 2546 2545 2542 2533 2520 2504 2495 2487 2466 2440 2414 2372 0 0 0 0 0 0 0 0 1079 1070 1068 1068 1068 1068 1069 1070 1071 1071 1071 1072 1073 1074 1075 1076 1077 1078 1079 1080 1081 1082 1082 1083 1084 1086 1086 1086 1087 1087 1088 1090 1091 1092 1093 1093 1095 1095 1097 1097 1099 1099 1101 1102 1104 1105 1107 1107 1110 1111 1112 1113 1115 1117 1117 1118 1119 1119 1121 1121 1121 1121 1120 1120 1120 1120 1121 1121 1121 1121 1121 1121 1121 1121 1123 1124 1125 1127 1128 1130 1131 1131 1132 1132 1134 1136 1138 1140 1142 1144 1146 1149 1154 1160 1166 1169 1172 1174 1176 1178 1180 1181 1183 1184 1185 1187 1188 1190 1191 1193 1194 1196 1197 1199 1201 1202 1203 1204 1205 1206 1206 1206 1205 1205 1204 1204 1203 1202 1202 1201 1201 1200 1200 1200 1198 1198 1198 1199 1202 1204 1207 1209 1212 1212 1214 1214 1217 1222 1228 1233 1238 1243 1249 1253 1256 1260 1263 1265 1267 1269 1271 1272 1274 1276 1277 1279 1281 1282 1283 1284 1286 1287 1288 1289 1291 1291 1293 1293 1294 1295 1296 1296 1296 1296 1297 1298 1300 1304 1307 1311 1312 1314 1317 1319 1323 1325 1328 1330 1331 1333 1334 1336 1340 1340 1342 1345 1346 1348 1350 1352 1355 1357 1359 1360 1362 1364 1366 1368 1369 1371 1372 1373 1375 1376 1379 1380 1382 1384 1385 1387 1389 1391 1394 1396 1397 1399 1401 1404 1409 1412 1418 1433 1456 0 0 0 1730 1730 1727 1722 1722 1722 1722 1722 1719 1715 1710 1704 1701 1699 1697 1696 1693 1691 1688 1686 1685 1684 1681 1681 1681 1680 1678 1678 1678 1678 1678 1679 1679 1679 1681 1683 1684 1686 1687 1688 1689 1689 1690 1691 1694 1695 1695 1696 1697 1697 1697 1697 1696 1696 1695 1694 1694 1692 1691 1689 1688 1687 1685 1683 1681 1679 1678 1676 1675 1673 1672 1671 1670 1668 1667 1666 1665 1663 1662 1660 1659 1658 1656 1655 1654 1653 1652 1652 1652 1652 1652 1652 1654 1658 1663 1666 1668 1671 1675 1680 1685 1688 1690 1693 1694 1697 1699 1700 1702 1702 1702 1702 1702 1702 1702 1702 1701 1701 1700 1700 1699 1698 1698 1697 1697 1696 1695 1694 1693 1692 1691 1690 1688 1686 1685 1683 1680 1679 1677 1675 1674 1672 1670 1669 1667 1666 1665 1664 1663 1662 1661 1661 1661 1661 1661 1663 1663 1664 1667 1671 1675 1675 1681 1686 1690 1695 1700 1705 1706 1708 1710 1711 1711 1711 1713 1714 1715 1716 1716 1716 1717 1717 1717 1716 1716 1716 1716 1715 1715 1715 1715 1715 1715 1714 1714 1714 1713 1712 1712 1711 1710 1710 1710 1709 1709 1709 1709 1708 1707 1707 1707 1707 1707 1705 1705 1705 1705 1705 1705 1705 1705 1705 1705 1705 1706 1706 1706 1707 1708 1710 1713 1716 1718 1724 1732 1749 1768 1784 1786 1786 1786 1783 1781 1778 1777 1774 1770 1764 1758 1751 1743 1733 1727 1724 1720 1716 1713 1711 1709 1706 1704 1702 1701 1699 1697 1693 1691 1689 1686 1683 1681 1677 1672 1665 1662 1659 1656 1653 1651 1647 1644 1641 1637 1635 1633 1630 1630 1628 1627 1627 1625 1624 1621 1620 1620 1617
2076 2082 2099 2125 2143 2146 2146 2150 2156 2166 2179 2202 2223 2244 2244 2259 2259 2264 2267 2286 2307 2323 2326 2326 2330 2330 2331 2342 2356 2361 2369 2378 2389 2402 2415 2419 2428 2445 2457 2470 2479 2489 2498 2501 2505 2507 2507 2516 2529 2537 2541 2542 2543 2546 2551 2555 2557 2559 2559 2559 2559 2554 2549 2546 2544 2541 2527 2512 2499 2488 2479 2452 2416 0 0 0 0 0 0 0 0 0 1082 1071 1068 1068 1068 1068 1069 1070 1071 1071 1071 1072 1073 1074 1075 1076 1077 1078 1079 1080 1081 1082 1082 1083 1083 1085 1085 1086 1086 1086 1086 1088 1089 1089 1090 1090 1091 1093 1096 1097 1098 1098 1100 1101 1103 1105 1106 1107 1108 1110 1110 1112 1114 1116 1116 1117 1118 1119 1120 1121 1121 1121 1120 1120 1120 1120 1121 1121 1121 1121 1122 1122 1122 1123 1124 1125 1127 1128 1130 1131 1132 1132 1133 1133 1134 1136 1138 1140 1142 1144 1146 1149 1154 1160 1166 1168 1171 1174 1176 1177 1180 1181 1182 1184 1185 1186 1188 1189 1191 1193 1194 1196 1197 1199 1201 1202 1203 1204 1205 1205 1205 1205 1205 1205 1204 1203 1202 1202 1201 1201 1201 1200 1200 1200 1198 1198 1198 1199 1202 1205 1207 1210 1212 1212 1214 1214 1217 1222 1228 1233 1237 1242 1249 1252 1256 1260 1263 1265 1267 1269 1271 1272 1274 1275 1277 1279 1280 1282 1283 1284 1285 1287 1288 1289 1290 1291 1293 1293 1294 1295 1295 1295 1295 1295 1296 1297 1300 1303 1307 1309 1311 1313 1316 1319 1323 1325 1328 1330 1331 1333 1334 1336 1340 1340 1341 1343 1345 1347 1350 1352 1354 1357 1358 1360 1362 1364 1366 1368 1369 1370 1372 1373 1375 1376 1379 1380 1382 1384 1385 1387 1389 1392 1394 1396 1398 1399 1402 1404 1409 1413 1418 1433 1457 0 0 0 1734 1734 1734 1726 1725 1724 1724 1724 1722 1718 1713 1709 1702 1700 1698 1696 1694 1691 1689 1686 1684 1682 1681 1680 1679 1677 1677 1677 1676 1676 1676 1676 1677 1677 1678 1680 1681 1683 1684 1685 1685 1686 1687 1687 1690 1693 1693 1693 1693 1695 1695 1695 1695 1694 1694 1693 1693 1691 1689 1689 1687 1686 1684 1683 1681 1679 1678 1676 1675 1673 1672 1671 1670 1668 1667 1666 1665 1663 1662 1660 1659 1658 1656 1654 1653 1652 1651 1650 1650 1650 1650 1650 1652 1654 1658 1660 1661 1663 1666 1671 1678 1684 1686 1688 1691 1693 1696 1698 1699 1701 1701 1701 1701 1701 1701 1701 1700 1700 1699 1699 1699 1698 1698 1697 1696 1696 1695 1694 1693 1692 1691 1690 1688 1686 1685 1683 1681 1680 1677 1676 1674 1673 1671 1670 1668 1667 1665 1664 1663 1662 1661 1661 1661 1661 1661 1661 1662 1663 1663 1666 1671 1672 1675 1681 1685 1689 1695 1699 1703 1703 1707 1709 1709 1711 1712 1714 1715 1716 1716 1717 1717 1717 1717 1717 1717 1717 1717 1716 1716 1716 1716 1716 1716 1716 1715 1714 1714 1713 1713 1713 1712 1711 1711 1711 1711 1711 1710 1709 1709 1708 1707 1707 1707 1707 1707 1706 1706 1706 1706 1705 1705 1705 1705 1705 1706 1706 1706 1708 1709 1711 1714 1717 1718 1724 1732 1748 1766 1781 1787 1787 1787 1783 1782 1780 1778 1774 1770 1764 1758 1751 1742 1733 1727 1724 1720 1716 1713 1712 1709 1707 1704 1702 1700 1698 1696 1693 1690 1687 1685 1683 1681 1677 1672 1664 1662 1658 1656 1653 1651 1647 1644 1641 1637 1635 1634 1632 1630 1628 1627 1627 1625 1624 1621 1618 1617 1616
2076 2082 2099 2125 2143 2160 2165 2171 2181 2190 2203 2221 2247 2264 2267 2268 2277 2279 2280 2289 2309 2324 2333 2336 2336 2338 2346 2357 2362 2375 2390 2394 2404 2416 2425 2427 2428 2445 2457 2467 2467 2481 2495 2503 2509 2509 2510 2518 2529 2537 2543 2547 2549 2550 2553 2556 2558 2562 2562 2562 2560 2556 2556 2556 2556 2556 2539 2521 2506 2496 2487 2464 2422 0 0 0 0 0 0 0 0 0 1082 1071 1068 1068 1068 1068 1069 1070 1071 1071 1071 1072 1073 1074 1075 1076 1077 1077 1078 1079 1081 1081 1082 1082 1082 1083 1085 1085 1085 1085 1085 1086 1086 1086 1086 1087 1088 1090 1093 1095 1096 1096 1097 1100 1101 1104 1104 1106 1107 1107 1109 1111 1114 1115 1116 1117 1118 1119 1120 1121 1121 1121 1120 1120 1120 1120 1121 1121 1121 1121 1121 1122 1123 1124 1125 1127 1128 1130 1132 1133 1133 1134 1134 1134 1136 1137 1139 1141 1143 1144 1146 1149 1154 1160 1165 1168 1171 1174 1175 1177 1179 1181 1182 1183 1185 1186 1188 1189 1191 1192 1194 1196 1197 1199 1200 1201 1202 1204 1204 1205 1205 1205 1205 1205 1204 1203 1202 1201 1200 1200 1200 1200 1200 1200 1199 1199 1199 1201 1204 1206 1208 1211 1212 1214 1214 1216 1218 1223 1227 1233 1237 1242 1249 1252 1256 1260 1263 1265 1267 1269 1271 1272 1273 1275 1277 1279 1280 1281 1283 1284 1285 1287 1288 1289 1290 1291 1292 1292 1293 1293 1293 1293 1293 1293 1295 1297 1300 1303 1306 1309 1310 1312 1316 1318 1321 1324 1327 1329 1331 1332 1334 1336 1339 1340 1341 1343 1345 1347 1349 1352 1354 1357 1358 1360 1362 1364 1366 1368 1369 1370 1372 1373 1375 1377 1379 1380 1382 1384 1385 1388 1390 1392 1395 1396 1398 1399 1402 1404 1409 1414 1418 1432 1457 0 0 0 1746 1746 1743 1734 1731 1729 1727 1725 1724 1720 1715 1710 1704 1701 1699 1697 1694 1692 1689 1686 1684 1682 1680 1679 1678 1677 1676 1674 1673 1673 1673 1673 1674 1674 1675 1675 1677 1679 1680 1680 1682 1682 1684 1685 1686 1689 1690 1691 1691 1692 1693 1693 1693 1693 1692 1691 1691 1690 1689 1688 1687 1685 1683 1682 1681 1679 1678 1676 1675 1674 1673 1671 1670 1669 1667 1666 1665 1663 1662 1661 1659 1657 1656 1654 1653 1651 1650 1649 1647 1647 1647 1647 1649 1650 1653 1654 1655 1657 1658 1661 1669 1675 1680 1684 1687 1690 1692 1695 1696 1697 1698 1699 1699 1699 1699 1699 1699 1699 1699 1699 1697 1697 1697 1696 1696 1695 1695 1694 1693 1692 1691 1689 1688 1686 1685 1683 1681 1680 1678 1676 1675 1673 1672 1671 1668 1668 1666 1665 1664 1662 1662 1661 1660 1660 1660 1660 1661 1661 1661 1662 1666 1671 1672 1679 1680 1684 1690 1694 1698 1701 1702 1705 1708 1710 1711 1713 1715 1716 1717 1717 1718 1718 1718 1718 1718 1717 1717 1717 1717 1717 1717 1717 1717 1717 1716 1715 1715 1715 1714 1714 1713 1712 1712 1712 1712 1711 1711 1710 1709 1709 1709 1709 1709 1708 1707 1706 1706 1706 1706 1706 1706 1705 1705 1706 1706 1706 1706 1708 1709 1711 1714 1717 1718 1724 1732 1748 1763 1777 1787 1787 1787 1783 1782 1780 1779 1774 1770 1764 1758 1751 1742 1733 1727 1724 1721 1717 1715 1712 1709 1707 1704 1702 1699 1698 1696 1693 1690 1687 1682 1681 1680 1675 1670 1664 1662 1658 1656 1653 1650 1647 1644 1642 1638 1637 1635 1634 1632 1629 1627 1627 1625 1623 1619 1617 1613 1610
2076 2082 2099 2125 2143 2161 2178 2188 2199 2201 2209 2225 2247 2267 2272 2282 2290 2292 2294 2295 2310 2329 2334 2338 2340 2342 2353 2358 2376 2386 2397 2405 2409 2421 2430 2433 2435 2445 2457 2467 2467 2481 2488 2504 2517 2520 2520 2522 2529 2537 2544 2550 2552 2553 2554 2557 2560 2564 2564 2564 2561 2561 2561 2564 2564 2564 2552 2536 2514 2505 2496 2470 2430 0 0 0 0 0 0 0 0 0 1082 1073 1070 1070 1069 1069 1069 1070 1071 1071 1071 1072 1073 1074 1075 1076 1077 1077 1078 1079 1081 1081 1081 1081 1082 1083 1083 1083 1083 1083 1083 1084 1085 1085 1085 1085 1086 1087 1092 1094 1095 1095 1095 1096 1098 1099 1103 1104 1106 1107 1107 1110 1111 1113 1115 1116 1117 1118 1120 1120 1121 1121 1121 1121 1121 1121 1121 1121 1121 1121 1121 1122 1123 1124 1127 1129 1131 1132 1133 1134 1134 1135 1135 1136 1137 1139 1140 1143 1144 1145 1148 1151 1154 1160 1165 1168 1171 1174 1175 1177 1179 1180 1182 1183 1184 1186 1188 1189 1191 1192 1194 1196 1197 1199 1200 1201 1202 1203 1204 1204 1204 1204 1204 1204 1204 1202 1201 1200 1200 1200 1200 1200 1200 1200 1200 1200 1201 1202 1205 1207 1210 1212 1213 1215 1216 1218 1220 1223 1228 1232 1237 1242 1249 1252 1256 1259 1262 1264 1267 1269 1270 1272 1273 1275 1277 1279 1280 1281 1283 1284 1285 1286 1287 1289 1289 1290 1291 1291 1292 1292 1292 1292 1292 1292 1293 1296 1299 1302 1304 1307 1308 1312 1315 1318 1320 1323 1327 1329 1331 1332 1333 1335 1339 1339 1340 1343 1345 1347 1349 1352 1354 1356 1358 1360 1362 1364 1365 1368 1369 1370 1372 1373 1375 1377 1378 1380 1382 1385 1387 1388 1390 1393 1395 1397 1398 1400 1402 1404 1409 1414 1417 1427 1457 0 0 0 1758 1758 1758 1747 1743 1736 1728 1728 1726 1723 1718 1712 1706 1704 1700 1697 1695 1692 1690 1686 1684 1682 1680 1678 1677 1675 1674 1673 1671 1671 1671 1671 1671 1671 1671 1671 1671 1671 1674 1675 1677 1679 1680 1682 1683 1685 1686 1689 1689 1690 1690 1691 1691 1690 1690 1689 1689 1688 1688 1687 1686 1684 1683 1682 1680 1679 1678 1676 1675 1674 1673 1672 1671 1670 1668 1666 1665 1663 1662 1661 1660 1658 1656 1654 1652 1650 1649 1647 1646 1645 1645 1645 1645 1647 1648 1650 1651 1653 1654 1656 1660 1669 1675 1678 1681 1684 1687 1691 1693 1695 1696 1697 1698 1698 1698 1698 1697 1697 1697 1697 1696 1696 1696 1695 1695 1695 1694 1694 1693 1692 1690 1689 1688 1686 1685 1683 1681 1680 1678 1677 1675 1674 1673 1671 1669 1668 1667 1666 1664 1663 1662 1661 1661 1660 1660 1660 1660 1661 1661 1662 1663 1665 1671 1672 1678 1678 1683 1687 1692 1697 1700 1703 1707 1709 1711 1713 1715 1716 1717 1717 1718 1718 1718 1718 1718 1718 1718 1717 1717 1717 1717 1717 1717 1717 1717 1717 1717 1717 1717 1716 1715 1715 1714 1714 1713 1712 1712 1712 1711 1711 1710 1710 1709 1709 1708 1708 1707 1707 1707 1707 1707 1707 1707 1707 1707 1707 1708 1708 1709 1711 1714 1717 1718 1726 1734 1747 1763 1776 1785 1785 1785 1783 1782 1780 1780 1778 1771 1766 1760 1751 1741 1734 1728 1725 1721 1717 1715 1712 1709 1707 1704 1702 1699 1697 1695 1692 1688 1685 1682 1678 1676 1673 1667 1662 1658 1656 1654 1652 1650 1647 1645 1642 1639 1637 1636 1635 1632 1629 1627 1625 1621 1619 1616 1611 1610 1607
2069 2082 2091 2112 2141 2163 2183 2198 2205 2205 2210 2228 2248 2267 2275 2285 2291 2300 2302 2307 2312 2329 2337 2340 2341 2344 2354 2361 2376 2388 2397 2406 2414 2423 2430 2438 2450 2461 2466 2467 2467 2481 2488 2507 2525 2527 2529 2531 2531 2537 2544 2553 2557 2557 2557 2557 2562 2565 2565 2565 2565 2565 2565 2569 2569 2569 2552 2537 2517 2507 2498 2476 2433 0 0 0 0 0 0 0 0 0 1082 1073 1071 1071 1070 1070 1070 1070 1070 1071 1071 1072 1073 1073 1075 1076 1077 1078 1078 1079 1080 1081 1081 1081 1082 1083 1083 1083 1083 1081 1081 1081 1081 1081 1081 1081 1081 1086 1090 1091 1093 1094 1095 1096 1097 1098 1100 1103 1104 1106 1107 1108 1110 1111 1113 1114 1115 1117 1119 1120 1121 1121 1122 1124 1124 1124 1124 1123 1122 1122 1122 1122 1125 1125 1127 1130 1131 1134 1135 1135 1135 1136 1136 1139 1140 1143 1144 1145 1146 1146 1148 1151 1156 1161 1166 1168 1171 1173 1174 1176 1178 1180 1181 1183 1184 1186 1188 1189 1191 1192 1194 1195 1197 1198 1200 1201 1202 1203 1204 1204 1204 1204 1204 1204 1203 1202 1201 1200 1200 1200 1200 1200 1200 1200 1200 1200 1202 1204 1206 1208 1210 1212 1213 1215 1216 1219 1221 1224 1228 1232 1236 1242 1249 1252 1256 1259 1262 1264 1267 1269 1270 1272 1273 1275 1277 1278 1280 1281 1283 1284 1285 1286 1287 1288 1289 1289 1290 1291 1292 1292 1292 1291 1291 1291 1292 1295 1297 1300 1302 1305 1307 1311 1315 1317 1320 1323 1326 1329 1330 1330 1331 1332 1336 1338 1340 1343 1345 1347 1349 1352 1354 1356 1358 1360 1362 1364 1365 1367 1369 1370 1372 1373 1375 1376 1378 1380 1382 1385 1387 1389 1390 1393 1395 1397 1399 1400 1402 1404 1409 1413 1414 1425 1453 0 0 0 1768 1768 1768 1760 1754 1746 1735 1730 1729 1729 1723 1716 1710 1708 1704 1700 1696 1693 1691 1688 1685 1682 1680 1678 1675 1675 1673 1672 1671 1670 1669 1669 1669 1669 1669 1668 1668 1668 1669 1672 1672 1674 1676 1679 1680 1681 1683 1685 1687 1688 1688 1688 1688 1688 1688 1687 1687 1687 1686 1686 1685 1684 1682 1681 1680 1679 1677 1677 1675 1675 1673 1672 1671 1670 1668 1667 1665 1664 1662 1661 1660 1658 1656 1654 1652 1650 1649 1647 1646 1644 1644 1644 1644 1644 1645 1647 1647 1649 1652 1652 1653 1659 1665 1670 1672 1678 1681 1686 1690 1693 1694 1695 1695 1695 1695 1695 1695 1695 1695 1695 1695 1695 1694 1694 1694 1694 1694 1693 1691 1691 1690 1689 1687 1686 1685 1683 1681 1680 1678 1677 1675 1674 1673 1672 1671 1669 1668 1666 1665 1664 1662 1661 1661 1660 1660 1660 1660 1660 1660 1661 1662 1664 1666 1668 1672 1676 1681 1683 1688 1692 1698 1702 1706 1709 1711 1713 1715 1716 1717 1717 1718 1718 1718 1718 1718 1718 1718 1718 1718 1718 1718 1718 1718 1718 1718 1718 1718 1718 1718 1717 1716 1716 1716 1715 1714 1714 1713 1713 1712 1712 1710 1710 1710 1710 1709 1709 1708 1708 1708 1708 1708 1708 1707 1707 1707 1707 1708 1709 1710 1711 1714 1716 1718 1726 1734 1745 1761 1775 1783 1783 1783 1783 1782 1781 1780 1778 1771 1766 1760 1751 1741 1734 1730 1726 1722 1718 1715 1712 1710 1707 1705 1702 1700 1697 1693 1690 1687 1684 1680 1678 1676 1668 1665 1661 1658 1655 1652 1650 1650 1647 1645 1642 1639 1637 1636 1635 1632 1629 1625 1622 1618 1614 1610 1608 1607 1604
2069 2082 2091 2112 2141 2164 2183 2198 2208 2212 2214 2228 2251 2270 2276 2285 2292 2300 2313 2320 2323 2330 2341 2342 2343 2346 2356 2371 2378 2393 2404 2407 2417 2428 2437 2451 2466 2475 2475 2476 2479 2482 2488 2508 2525 2529 2532 2532 2532 2538 2547 2554 2557 2561 2561 2562 2565 2567 2569 2569 2571 2572 2572 2571 2571 2569 2557 2538 2519 2508 2499 2476 2434 0 0 0 0 0 0 0 0 0 1079 1073 1071 1071 1071 1071 1070 1070 1071 1071 1071 1072 1073 1074 1075 1076 1077 1078 1078 1079 1080 1081 1081 1081 1082 1082 1082 1081 1078 1074 1074 1074 1075 1078 1078 1079 1081 1082 1084 1087 1089 1091 1093 1094 1097 1097 1099 1100 1101 1103 1105 1106 1107 1110 1112 1113 1114 1116 1118 1120 1121 1122 1122 1124 1124 1124 1124 1125 1125 1125 1127 1127 1128 1129 1129 1131 1133 1134 1136 1136 1137 1137 1138 1140 1143 1144 1146 1146 1147 1148 1148 1151 1156 1161 1166 1168 1171 1172 1174 1176 1178 1179 1181 1183 1184 1186 1187 1189 1190 1192 1194 1195 1197 1198 1200 1200 1202 1203 1204 1204 1204 1204 1204 1204 1203 1202 1201 1200 1200 1200 1200 1200 1200 1200 1200 1202 1204 1206 1208 1209 1210 1212 1214 1216 1217 1219 1222 1224 1228 1232 1236 1242 1249 1252 1256 1258 1262 1264 1267 1269 1270 1272 1273 1275 1277 1278 1280 1281 1283 1284 1285 1286 1287 1288 1289 1289 1290 1291 1291 1291 1291 1290 1290 1290 1291 1295 1297 1299 1301 1304 1306 1309 1314 1317 1319 1322 1326 1329 1330 1330 1330 1331 1334 1338 1341 1343 1345 1348 1350 1352 1354 1356 1358 1360 1361 1364 1365 1367 1368 1370 1372 1373 1374 1376 1378 1380 1382 1385 1387 1389 1390 1393 1395 1397 1399 1400 1402 1404 1408 1410 1413 1425 1451 0 0 0 1775 1775 1774 1765 1760 1752 1739 1733 1732 1731 1729 1722 1715 1710 1707 1703 1697 1693 1691 1688 1685 1682 1680 1678 1675 1674 1672 1671 1669 1667 1666 1666 1666 1666 1666 1666 1666 1666 1667 1668 1668 1670 1671 1673 1675 1678 1678 1681 1682 1683 1684 1684 1685 1685 1685 1684 1684 1684 1684 1684 1684 1683 1681 1680 1680 1679 1677 1677 1676 1675 1674 1673 1671 1670 1669 1667 1666 1664 1663 1661 1660 1658 1656 1654 1652 1650 1649 1647 1645 1644 1643 1643 1641 1641 1641 1643 1645 1646 1648 1649 1651 1653 1657 1664 1667 1671 1675 1682 1687 1692 1693 1694 1694 1694 1694 1694 1694 1694 1694 1694 1694 1694 1693 1693 1693 1693 1692 1692 1691 1690 1689 1687 1687 1686 1684 1683 1681 1680 1679 1678 1676 1675 1674 1672 1671 1669 1669 1668 1666 1664 1663 1662 1661 1660 1660 1660 1660 1660 1660 1660 1662 1662 1663 1666 1668 1673 1676 1680 1685 1688 1692 1701 1705 1708 1711 1714 1715 1716 1717 1717 1718 1718 1719 1719 1719 1719 1719 1719 1719 1719 1719 1719 1719 1719 1719 1719 1719 1719 1718 1718 1718 1718 1717 1716 1715 1715 1715 1714 1713 1713 1713 1712 1711 1711 1710 1709 1709 1709 1709 1708 1708 1708 1708 1708 1708 1708 1709 1709 1710 1711 1714 1716 1718 1726 1734 1743 1758 1772 1783 1783 1783 1783 1782 1781 1781 1778 1771 1766 1760 1750 1740 1734 1730 1726 1722 1718 1715 1712 1710 1708 1705 1703 1700 1697 1693 1690 1686 1682 1679 1675 1672 1668 1662 1660 1658 1655 1652 1650 1648 1647 1645 1642 1639 1637 1636 1635 1631 1626 1623 1619 1616 1612 1609 1606 1602 1601
2069 2082 2091 2112 2141 2164 2183 2198 2214 2220 2230 2242 2258 2270 2283 2287 2294 2302 2313 2329 2331 2339 2345 2348 2352 2357 2366 2371 2380 2393 2404 2409 2423 2438 2450 2470 2480 2480 2480 2481 2481 2483 2494 2511 2527 2535 2536 2536 2536 2541 2547 2554 2559 2561 2563 2568 2571 2573 2576 2576 2576 2575 2575 2575 2573 2573 2562 2544 2527 2513 2501 2478 2433 0 0 0 0 0 0 0 0 1079 1079 1071 1071 1071 1071 1071 1071 1070 1071 1071 1071 1072 1073 1074 1075 1076 1077 1078 1079 1079 1080 1081 1081 1081 1081 1081 1081 1081 1078 1074 1074 1074 1074 1076 1078 1078 1080 1081 1082 1083 1085 1088 1090 1092 1094 1095 1097 1099 1101 1103 1103 1105 1106 1108 1111 1111 1113 1115 1118 1119 1121 1122 1123 1124 1124 1125 1125 1126 1126 1128 1130 1130 1130 1130 1130 1131 1133 1134 1136 1138 1138 1139 1140 1141 1143 1146 1147 1148 1148 1148 1149 1151 1156 1162 1166 1169 1171 1172 1173 1175 1177 1179 1181 1182 1184 1185 1187 1188 1190 1192 1193 1195 1197 1198 1199 1200 1202 1202 1203 1204 1204 1204 1204 1204 1203 1202 1201 1201 1201 1201 1201 1201 1201 1201 1201 1203 1206 1207 1209 1210 1210 1212 1214 1216 1217 1219 1222 1224 1229 1232 1236 1242 1249 1252 1256 1258 1262 1264 1266 1268 1269 1271 1273 1275 1277 1278 1280 1281 1283 1284 1285 1286 1287 1288 1288 1289 1290 1290 1290 1290 1290 1290 1290 1290 1291 1294 1297 1298 1300 1303 1306 1309 1313 1315 1318 1321 1324 1327 1329 1330 1330 1331 1334 1338 1341 1343 1345 1348 1350 1352 1354 1356 1358 1360 1362 1364 1365 1367 1368 1370 1372 1373 1374 1376 1378 1380 1382 1385 1387 1389 1390 1393 1395 1397 1399 1400 1402 1404 1408 1410 1413 1425 1451 0 0 0 1779 1779 1775 1772 1765 1758 1747 1738 1732 1732 1731 1726 1720 1713 1710 1705 1697 1694 1692 1689 1685 1682 1680 1678 1675 1673 1671 1670 1667 1665 1665 1664 1664 1664 1663 1663 1663 1663 1664 1666 1666 1667 1667 1667 1671 1674 1675 1677 1678 1679 1679 1680 1682 1682 1683 1683 1683 1683 1683 1682 1682 1682 1681 1680 1680 1679 1677 1677 1676 1675 1674 1673 1671 1670 1669 1667 1666 1665 1663 1662 1660 1658 1656 1654 1652 1650 1648 1646 1645 1644 1643 1642 1641 1641 1641 1641 1642 1644 1646 1647 1649 1650 1652 1656 1661 1667 1670 1678 1683 1690 1693 1693 1693 1693 1692 1692 1692 1692 1692 1692 1692 1692 1692 1692 1692 1692 1692 1691 1690 1688 1688 1686 1686 1685 1683 1682 1681 1680 1679 1678 1676 1676 1674 1673 1671 1670 1669 1668 1666 1665 1663 1662 1661 1661 1660 1660 1660 1659 1659 1659 1659 1659 1659 1662 1667 1668 1673 1677 1683 1686 1687 1693 1702 1707 1711 1714 1715 1716 1716 1716 1717 1718 1719 1719 1719 1719 1720 1720 1720 1720 1720 1720 1720 1720 1720 1720 1720 1720 1720 1719 1719 1718 1718 1718 1717 1717 1716 1716 1714 1714 1714 1713 1712 1712 1711 1711 1709 1709 1709 1709 1709 1709 1708 1708 1708 1709 1709 1710 1711 1712 1714 1716 1718 1723 1729 1738 1753 1767 1779 1782 1784 1784 1784 1782 1781 1778 1769 1762 1752 1747 1739 1734 1730 1726 1722 1720 1716 1712 1711 1708 1706 1703 1700 1697 1693 1690 1685 1682 1677 1673 1670 1666 1662 1659 1658 1654 1652 1648 1646 1644 1641 1637 1636 1634 1633 1632 1629 1623 1619 1617 1614 1611 1608 1605 1601 1598
2092 2103 2106 2119 2144 2168 2183 2198 2214 2231 2246 2259 2267 2279 2290 2296 2298 2306 2317 2331 2336 2340 2349 2359 2362 2368 2372 2380 2385 2393 2405 2420 2439 2454 2465 2480 2483 2483 2483 2483 2483 2484 2495 2517 2529 2536 2539 2539 2545 2550 2552 2554 2560 2562 2565 2571 2575 2579 2580 2580 2580 2577 2576 2575 2574 2573 2566 2554 2540 2524 2512 2482 2437 0 0 0 0 0 0 0 0 1079 1078 1071 1071 1070 1071 1071 1071 1070 1071 1071 1071 1072 1073 1074 1075 1076 1077 1078 1079 1080 1080 1081 1081 1081 1081 1081 1081 1080 1078 1074 1074 1074 1074 1076 1077 1078 1079 1080 1080 1081 1083 1086 1087 1090 1092 1094 1095 1097 1099 1101 1101 1102 1105 1105 1107 1109 1111 1114 1118 1119 1120 1122 1124 1124 1125 1126 1126 1127 1128 1128 1130 1132 1132 1132 1134 1136 1136 1137 1138 1138 1139 1140 1144 1144 1145 1146 1147 1149 1151 1151 1151 1151 1157 1163 1168 1169 1171 1172 1173 1175 1176 1178 1180 1182 1183 1184 1186 1187 1189 1191 1193 1195 1196 1198 1199 1200 1202 1202 1203 1204 1204 1204 1204 1204 1203 1202 1202 1202 1202 1202 1202 1201 1201 1202 1203 1204 1207 1208 1210 1210 1210 1212 1214 1217 1218 1219 1222 1225 1229 1233 1236 1242 1249 1252 1256 1258 1262 1264 1266 1268 1269 1271 1273 1275 1277 1278 1280 1281 1283 1284 1285 1286 1287 1288 1288 1289 1289 1290 1290 1290 1290 1289 1289 1289 1291 1294 1296 1298 1300 1303 1306 1309 1313 1315 1316 1319 1322 1325 1328 1329 1330 1331 1334 1339 1341 1343 1345 1348 1350 1352 1354 1356 1359 1360 1362 1364 1365 1367 1368 1370 1372 1373 1374 1376 1378 1380 1382 1385 1387 1389 1391 1393 1396 1397 1399 1400 1402 1404 1408 1410 1413 1426 1453 0 0 0 1784 1784 1784 1773 1770 1767 1755 1744 1736 1733 1732 1729 1724 1719 1714 1707 1699 1694 1692 1689 1686 1683 1680 1678 1675 1673 1671 1668 1666 1664 1663 1663 1662 1661 1661 1661 1661 1661 1662 1663 1664 1664 1664 1665 1667 1670 1672 1673 1674 1674 1675 1676 1679 1680 1681 1681 1681 1681 1681 1681 1681 1680 1680 1679 1679 1678 1677 1677 1676 1675 1674 1673 1672 1670 1669 1668 1666 1665 1663 1662 1660 1658 1656 1654 1652 1650 1648 1646 1645 1644 1643 1642 1641 1640 1640 1640 1640 1641 1643 1643 1645 1648 1651 1653 1655 1661 1666 1673 1678 1684 1689 1691 1691 1691 1690 1690 1690 1690 1690 1691 1691 1691 1691 1691 1691 1690 1690 1690 1689 1688 1687 1686 1686 1684 1683 1682 1681 1680 1679 1678 1677 1676 1674 1673 1672 1671 1669 1668 1668 1666 1664 1664 1661 1661 1661 1660 1659 1658 1657 1657 1657 1657 1657 1657 1661 1662 1667 1673 1677 1682 1686 1688 1697 1702 1707 1714 1715 1715 1715 1716 1717 1718 1719 1719 1719 1720 1720 1721 1721 1721 1721 1721 1721 1721 1721 1721 1721 1721 1721 1720 1720 1720 1720 1719 1719 1719 1718 1717 1716 1715 1715 1714 1714 1713 1712 1712 1711 1710 1710 1710 1710 1709 1709 1709 1709 1709 1709 1711 1712 1713 1715 1717 1719 1723 1728 1737 1752 1767 1778 1782 1784 1784 1784 1782 1779 1775 1766 1758 1750 1744 1737 1734 1730 1726 1724 1720 1716 1712 1711 1709 1706 1703 1700 1697 1694 1689 1684 1681 1676 1671 1668 1664 1660 1659 1658 1654 1650 1648 1645 1642 1639 1636 1635 1632 1632 1630 1624 1619 1615 1612 1610 1608 1606 1600 1596 1591
2100 2116 2120 2134 2154 2168 2181 2197 2214 2231 2247 2263 2270 2280 2291 2299 2309 2316 2328 2332 2337 2344 2355 2363 2370 2378 2382 2386 2389 2400 2414 2434 2451 2466 2479 2484 2486 2486 2486 2485 2485 2485 2496 2519 2535 2539 2541 2544 2552 2558 2561 2561 2561 2564 2567 2573 2577 2583 2583 2583 2582 2577 2577 2577 2575 2575 2567 2559 2548 2541 2523 2484 2441 2379 0 0 0 0 0 0 0 1077 1076 1069 1069 1069 1070 1070 1070 1070 1070 1071 1071 1072 1073 1074 1075 1076 1077 1078 1079 1080 1080 1081 1081 1081 1081 1081 1081 1080 1078 1075 1074 1074 1074 1075 1076 1077 1077 1077 1078 1079 1082 1083 1085 1089 1090 1093 1094 1096 1097 1098 1099 1101 1103 1104 1104 1107 1110 1114 1119 1119 1120 1122 1124 1125 1126 1126 1127 1128 1128 1129 1131 1133 1134 1135 1137 1138 1138 1140 1140 1141 1142 1145 1146 1148 1149 1152 1155 1155 1155 1155 1155 1155 1158 1165 1168 1170 1170 1172 1173 1174 1176 1178 1179 1180 1182 1183 1185 1187 1189 1191 1192 1194 1195 1198 1199 1200 1201 1202 1203 1204 1205 1205 1205 1205 1204 1203 1203 1202 1202 1202 1202 1202 1202 1204 1204 1206 1207 1208 1210 1210 1211 1212 1214 1218 1220 1222 1224 1227 1230 1233 1236 1243 1249 1252 1256 1259 1262 1264 1266 1268 1269 1271 1273 1275 1277 1278 1280 1281 1283 1284 1285 1286 1287 1288 1288 1289 1289 1289 1290 1290 1290 1288 1288 1288 1289 1293 1296 1298 1300 1303 1307 1310 1313 1315 1316 1319 1322 1325 1327 1329 1329 1332 1335 1339 1341 1343 1345 1348 1351 1352 1355 1356 1359 1360 1362 1363 1365 1367 1368 1369 1372 1373 1375 1376 1378 1380 1382 1385 1387 1389 1391 1394 1396 1398 1400 1401 1403 1406 1409 1412 1417 1428 1453 0 0 0 1796 1796 1796 1785 1779 1775 1768 1755 1745 1739 1734 1730 1728 1722 1717 1711 1704 1697 1693 1689 1687 1684 1681 1678 1676 1673 1671 1668 1666 1663 1661 1661 1661 1660 1659 1658 1658 1658 1658 1659 1660 1660 1660 1662 1663 1666 1669 1670 1670 1671 1671 1673 1675 1677 1679 1679 1680 1680 1680 1680 1680 1679 1679 1678 1678 1678 1677 1676 1676 1675 1674 1673 1672 1670 1669 1668 1667 1665 1664 1662 1660 1658 1656 1654 1652 1650 1648 1646 1645 1644 1643 1642 1641 1639 1639 1639 1639 1639 1640 1641 1641 1643 1645 1647 1651 1656 1662 1666 1672 1677 1681 1686 1689 1689 1689 1688 1688 1688 1689 1689 1689 1689 1689 1689 1689 1689 1689 1689 1688 1687 1686 1685 1684 1683 1682 1681 1681 1680 1679 1678 1677 1676 1674 1674 1672 1672 1671 1669 1668 1666 1665 1664 1663 1662 1661 1660 1659 1658 1657 1656 1656 1656 1656 1656 1657 1660 1661 1666 1671 1677 1681 1686 1693 1699 1702 1708 1714 1715 1715 1715 1716 1718 1718 1719 1719 1720 1720 1721 1721 1722 1722 1722 1722 1722 1722 1722 1722 1722 1722 1722 1722 1722 1721 1721 1720 1720 1719 1719 1718 1717 1716 1716 1715 1715 1714 1713 1713 1712 1712 1712 1711 1710 1710 1710 1710 1710 1710 1712 1713 1714 1715 1718 1720 1723 1728 1735 1747 1766 1777 1782 1784 1784 1784 1783 1777 1773 1766 1758 1750 1744 1737 1734 1730 1726 1724 1720 1716 1713 1711 1709 1707 1704 1700 1697 1694 1689 1684 1680 1674 1670 1665 1662 1660 1659 1657 1654 1650 1647 1644 1642 1639 1635 1633 1630 1628 1625 1620 1615 1612 1609 1607 1603 1600 1594 1589 1585
2100 2118 2130 2136 2156 2170 2181 2197 2214 2235 2250 2264 2274 2281 2291 2300 2314 2327 2334 2341 2343 2351 2361 2369 2376 2386 2390 2402 2409 2416 2425 2439 2455 2469 2480 2486 2486 2486 2487 2487 2487 2488 2499 2521 2538 2542 2543 2546 2555 2565 2568 2568 2569 2569 2572 2583 2585 2594 2594 2594 2588 2587 2586 2583 2581 2575 2569 2563 2552 2543 2531 2490 2441 2388 0 0 0 0 0 0 0 1076 1075 1069 1069 1069 1069 1069 1070 1070 1070 1071 1071 1072 1073 1074 1075 1076 1077 1078 1079 1080 1080 1081 1081 1082 1082 1082 1081 1080 1079 1076 1075 1075 1075 1075 1075 1076 1077 1077 1078 1079 1081 1081 1084 1087 1089 1091 1093 1094 1096 1096 1099 1101 1103 1104 1104 1106 1110 1114 1119 1120 1120 1122 1124 1125 1126 1127 1129 1130 1130 1131 1133 1134 1136 1137 1138 1139 1141 1142 1142 1144 1147 1147 1148 1148 1150 1153 1156 1156 1157 1157 1158 1160 1163 1166 1168 1170 1170 1171 1172 1173 1174 1177 1178 1179 1180 1183 1184 1185 1188 1189 1191 1194 1195 1197 1199 1200 1201 1202 1203 1204 1205 1205 1205 1205 1205 1204 1204 1203 1203 1202 1202 1202 1203 1205 1205 1206 1207 1209 1210 1210 1211 1213 1214 1219 1223 1224 1227 1230 1232 1234 1237 1243 1249 1252 1256 1259 1262 1264 1266 1268 1270 1271 1273 1275 1277 1278 1280 1281 1282 1284 1285 1286 1287 1288 1289 1289 1289 1289 1290 1290 1290 1288 1288 1288 1289 1292 1294 1297 1300 1303 1307 1310 1312 1315 1316 1319 1322 1324 1326 1328 1329 1332 1336 1340 1342 1344 1347 1349 1351 1353 1355 1356 1359 1360 1362 1364 1365 1367 1368 1369 1371 1373 1375 1376 1378 1380 1383 1385 1387 1389 1391 1394 1396 1398 1400 1402 1403 1406 1409 1412 1417 1428 1451 0 0 0 1804 1804 1804 1795 1790 1783 1779 1767 1761 1753 1746 1739 1733 1727 1718 1714 1707 1701 1698 1693 1688 1684 1683 1680 1677 1673 1671 1668 1665 1663 1661 1660 1659 1659 1658 1658 1656 1655 1655 1655 1656 1656 1656 1656 1660 1660 1663 1667 1667 1667 1668 1669 1672 1675 1676 1678 1678 1678 1678 1678 1678 1678 1678 1678 1678 1678 1677 1676 1675 1675 1673 1673 1672 1670 1669 1668 1667 1665 1664 1662 1661 1659 1656 1655 1653 1650 1648 1647 1645 1644 1643 1641 1639 1638 1638 1638 1638 1638 1638 1638 1638 1639 1639 1642 1645 1650 1655 1661 1665 1671 1674 1678 1682 1686 1686 1686 1686 1686 1686 1688 1688 1688 1688 1688 1688 1688 1688 1687 1687 1686 1685 1684 1684 1683 1682 1681 1681 1680 1679 1678 1678 1677 1675 1674 1672 1672 1671 1670 1668 1668 1666 1665 1664 1663 1662 1660 1659 1658 1657 1656 1656 1655 1655 1655 1656 1657 1659 1661 1665 1670 1679 1683 1691 1697 1700 1704 1709 1713 1714 1714 1716 1717 1718 1719 1719 1720 1721 1721 1722 1722 1723 1723 1723 1724 1724 1724 1724 1723 1723 1723 1723 1722 1722 1722 1721 1721 1720 1720 1719 1719 1718 1717 1716 1716 1715 1715 1714 1713 1713 1713 1712 1712 1711 1711 1710 1710 1710 1712 1713 1715 1717 1719 1720 1725 1729 1733 1745 1766 1777 1782 1786 1786 1786 1783 1777 1773 1766 1758 1750 1744 1737 1734 1730 1727 1724 1721 1716 1714 1712 1710 1707 1704 1700 1697 1694 1689 1682 1678 1673 1669 1664 1661 1659 1658 1657 1652 1650 1646 1644 1640 1638 1635 1632 1628 1625 1622 1617 1612 1612 1609 1602 1597 1592 1588 1584 1582
2105 2121 2131 2144 2160 2171 2181 2197 2214 2236 2253 2264 2275 2286 2298 2307 2316 2327 2335 2345 2351 2364 2372 2380 2389 2392 2408 2419 2422 2424 2433 2444 2459 2473 2484 2491 2495 2495 2495 2495 2495 2495 2507 2522 2539 2545 2546 2549 2556 2566 2575 2577 2579 2580 2585 2593 2595 2603 2603 2603 2602 2601 2601 2600 2594 2582 2577 2570 2559 2544 2532 2514 2456 2455 0 0 0 0 0 0 0 1076 1075 1070 1068 1068 1068 1069 1070 1070 1070 1070 1071 1072 1073 1074 1075 1076 1077 1078 1079 1080 1080 1081 1082 1083 1083 1083 1082 1080 1080 1077 1076 1075 1075 1075 1075 1076 1076 1077 1078 1079 1081 1081 1084 1087 1089 1091 1091 1093 1095 1096 1099 1101 1103 1104 1104 1106 1110 1114 1119 1120 1120 1123 1125 1126 1127 1129 1130 1130 1131 1132 1134 1136 1137 1139 1139 1141 1143 1145 1145 1147 1149 1150 1151 1151 1152 1153 1157 1157 1159 1160 1161 1162 1163 1166 1168 1169 1169 1170 1172 1173 1173 1175 1177 1178 1179 1182 1184 1185 1187 1189 1191 1192 1195 1197 1199 1200 1201 1202 1203 1204 1205 1205 1205 1205 1205 1204 1204 1203 1203 1203 1203 1203 1205 1206 1206 1206 1208 1209 1211 1212 1213 1214 1217 1221 1224 1228 1230 1233 1235 1237 1240 1244 1249 1253 1256 1260 1262 1264 1266 1268 1270 1271 1273 1275 1276 1278 1280 1281 1282 1284 1285 1287 1287 1288 1289 1289 1289 1289 1290 1290 1290 1288 1288 1288 1289 1292 1294 1297 1300 1303 1307 1310 1313 1315 1316 1318 1321 1323 1326 1328 1329 1332 1336 1340 1342 1345 1348 1350 1352 1354 1356 1357 1359 1361 1362 1364 1365 1367 1368 1369 1371 1373 1375 1376 1378 1380 1383 1385 1387 1389 1391 1394 1396 1399 1400 1402 1404 1406 1409 1412 1417 1428 1449 0 0 0 1811 1811 1811 1805 1798 1794 1790 1779 1772 1765 1758 1751 1745 1733 1724 1717 1710 1704 1699 1696 1691 1686 1683 1681 1677 1674 1671 1668 1665 1662 1660 1659 1658 1657 1656 1655 1654 1653 1652 1652 1651 1651 1652 1652 1655 1657 1659 1662 1663 1664 1665 1667 1669 1672 1674 1675 1676 1676 1676 1677 1678 1678 1678 1678 1677 1676 1676 1676 1675 1675 1673 1672 1671 1670 1669 1668 1667 1665 1664 1662 1661 1659 1657 1655 1653 1650 1648 1647 1645 1644 1642 1641 1639 1638 1637 1636 1636 1635 1635 1635 1635 1636 1636 1637 1641 1646 1651 1655 1660 1664 1669 1672 1674 1678 1683 1684 1685 1685 1685 1686 1687 1687 1687 1687 1686 1686 1686 1686 1686 1686 1684 1683 1683 1682 1682 1681 1680 1680 1679 1678 1678 1677 1676 1674 1674 1672 1672 1671 1669 1668 1667 1666 1665 1663 1662 1661 1659 1658 1657 1656 1656 1655 1654 1654 1654 1656 1657 1659 1661 1665 1670 1681 1687 1694 1699 1702 1707 1711 1713 1713 1715 1716 1718 1718 1719 1720 1721 1722 1723 1723 1723 1724 1725 1725 1725 1725 1725 1724 1724 1724 1723 1723 1723 1723 1723 1722 1722 1722 1720 1720 1719 1718 1718 1717 1716 1716 1715 1715 1715 1714 1714 1713 1712 1712 1712 1712 1712 1713 1714 1716 1717 1719 1720 1725 1729 1733 1741 1764 1777 1784 1788 1788 1788 1783 1777 1773 1767 1760 1752 1744 1739 1735 1731 1727 1725 1721 1719 1718 1714 1711 1707 1704 1700 1696 1692 1687 1682 1677 1673 1669 1664 1660 1659 1658 1655 1652 1649 1645 1643 1640 1637 1632 1629 1625 1621 1618 1612 1612 1609 1606 1598 1593 1589 1585 1581 1578
2106 2122 2140 2151 2170 2183 2192 2204 2218 2238 2257 2276 2284 2302 2309 2314 2318 2328 2336 2345 2361 2378 2388 2393 2408 2413 2429 2442 2442 2444 2447 2458 2472 2482 2495 2512 2512 2515 2515 2511 2510 2510 2510 2526 2544 2548 2549 2553 2558 2568 2577 2585 2588 2591 2595 2599 2604 2610 2613 2613 2613 2612 2609 2606 2600 2592 2583 2575 2566 2554 2534 2515 2472 2472 0 0 0 0 0 0 0 1076 1075 1072 1069 1069 1069 1069 1070 1070 1070 1070 1071 1072 1073 1074 1075 1076 1077 1078 1079 1080 1081 1082 1082 1083 1083 1083 1082 1081 1080 1079 1078 1077 1076 1076 1076 1076 1076 1076 1078 1079 1081 1081 1084 1087 1089 1091 1091 1093 1095 1096 1099 1101 1103 1104 1105 1106 1110 1114 1119 1120 1120 1123 1126 1127 1128 1130 1131 1132 1133 1134 1136 1137 1138 1140 1140 1142 1143 1145 1146 1147 1149 1150 1151 1152 1153 1154 1157 1157 1159 1161 1162 1163 1164 1166 1168 1168 1169 1170 1171 1171 1172 1174 1176 1177 1178 1181 1183 1185 1187 1189 1190 1192 1194 1196 1199 1200 1201 1202 1203 1204 1205 1205 1205 1205 1205 1205 1205 1205 1205 1205 1205 1206 1206 1206 1206 1208 1209 1210 1211 1213 1214 1215 1219 1222 1226 1230 1234 1236 1236 1238 1240 1244 1249 1253 1257 1260 1262 1264 1265 1268 1270 1271 1273 1275 1276 1278 1280 1281 1282 1284 1285 1287 1287 1288 1289 1289 1290 1290 1290 1290 1290 1288 1288 1288 1290 1292 1294 1297 1300 1303 1308 1311 1313 1315 1316 1317 1320 1322 1325 1327 1329 1332 1336 1340 1344 1347 1348 1350 1352 1354 1356 1358 1359 1361 1362 1364 1365 1367 1368 1369 1371 1373 1375 1376 1378 1380 1383 1384 1387 1389 1391 1394 1396 1399 1401 1403 1404 1406 1408 1411 1416 1427 1449 0 0 0 1812 1813 1813 1813 1808 1805 1799 1793 1784 1775 1767 1763 1757 1747 1732 1726 1718 1708 1702 1699 1695 1690 1685 1681 1677 1674 1671 1668 1665 1662 1659 1657 1656 1655 1653 1653 1652 1651 1650 1650 1649 1649 1649 1649 1652 1653 1655 1656 1658 1660 1661 1664 1666 1668 1670 1673 1674 1675 1676 1676 1677 1677 1677 1676 1676 1676 1675 1675 1674 1674 1673 1672 1671 1670 1669 1668 1667 1665 1664 1662 1661 1659 1657 1655 1653 1650 1649 1647 1645 1644 1642 1640 1639 1638 1636 1636 1634 1634 1634 1634 1634 1634 1634 1635 1638 1643 1643 1648 1653 1656 1661 1666 1668 1671 1677 1682 1684 1684 1685 1685 1685 1686 1686 1686 1685 1685 1684 1684 1684 1684 1684 1683 1683 1682 1681 1681 1680 1680 1679 1678 1678 1677 1676 1675 1674 1673 1672 1671 1671 1669 1668 1667 1665 1664 1663 1661 1660 1659 1657 1656 1656 1655 1654 1654 1654 1655 1656 1658 1659 1662 1664 1671 1683 1690 1694 1700 1704 1707 1710 1712 1714 1716 1716 1718 1719 1720 1721 1722 1723 1724 1725 1725 1725 1725 1725 1725 1725 1725 1725 1725 1725 1724 1724 1724 1724 1723 1723 1723 1722 1721 1720 1720 1719 1718 1718 1717 1716 1716 1716 1715 1715 1715 1713 1713 1713 1713 1713 1714 1715 1718 1719 1720 1722 1725 1730 1733 1740 1761 1775 1784 1791 1791 1791 1783 1777 1773 1769 1763 1753 1746 1739 1736 1732 1728 1725 1723 1721 1718 1714 1711 1707 1704 1700 1695 1690 1686 1680 1676 1672 1667 1663 1660 1659 1658 1655 1652 1649 1645 1642 1639 1634 1629 1623 1619 1616 1612 1610 1609 1606 1600 1593 1590 1586 1582 1580 1578
2116 2132 2147 2166 2181 2191 2203 2213 2227 2249 2270 2278 2299 2310 2319 2324 2326 2331 2339 2356 2375 2391 2401 2408 2415 2427 2442 2459 2461 2462 2463 2472 2487 2499 2513 2531 2533 2537 2537 2533 2520 2520 2520 2539 2554 2556 2558 2560 2567 2577 2583 2594 2596 2599 2603 2605 2607 2610 2615 2615 2615 2614 2610 2606 2600 2592 2585 2578 2571 2557 2539 2517 2498 2486 0 0 0 0 0 0 0 0 1077 1073 1070 1069 1069 1069 1070 1070 1070 1070 1070 1071 1072 1074 1075 1076 1077 1078 1080 1080 1081 1082 1083 1083 1083 1082 1082 1081 1081 1079 1079 1079 1079 1078 1077 1076 1076 1076 1078 1080 1082 1083 1084 1087 1090 1091 1091 1093 1095 1098 1099 1102 1103 1104 1106 1107 1110 1114 1119 1120 1121 1124 1126 1127 1129 1130 1132 1133 1134 1135 1136 1138 1138 1140 1142 1143 1143 1145 1146 1147 1149 1150 1152 1153 1154 1156 1157 1158 1160 1161 1163 1164 1164 1165 1166 1167 1168 1169 1170 1170 1171 1174 1175 1177 1178 1180 1183 1185 1186 1188 1190 1191 1193 1195 1197 1199 1200 1201 1203 1204 1205 1206 1206 1206 1206 1206 1206 1206 1206 1206 1207 1207 1207 1207 1207 1208 1210 1211 1212 1213 1215 1216 1220 1224 1228 1231 1236 1238 1239 1239 1240 1244 1248 1253 1257 1261 1262 1264 1265 1267 1270 1271 1273 1275 1276 1278 1280 1281 1282 1284 1285 1287 1287 1288 1289 1290 1290 1290 1290 1290 1290 1290 1290 1290 1291 1294 1297 1300 1301 1303 1308 1310 1312 1315 1315 1317 1318 1320 1323 1325 1328 1332 1336 1340 1345 1347 1349 1350 1352 1354 1356 1358 1359 1361 1363 1364 1365 1367 1369 1369 1371 1373 1375 1376 1378 1380 1382 1384 1386 1388 1391 1394 1396 1399 1401 1403 1405 1406 1408 1409 1413 1427 1447 0 0 0 1821 1827 1827 1827 1821 1815 1808 1802 1797 1789 1780 1773 1767 1760 1750 1738 1724 1713 1707 1703 1698 1692 1686 1681 1678 1674 1671 1668 1665 1662 1659 1657 1656 1654 1652 1651 1650 1649 1648 1648 1648 1648 1648 1648 1648 1649 1651 1654 1655 1656 1657 1658 1662 1664 1667 1669 1670 1671 1674 1674 1675 1675 1675 1675 1675 1675 1675 1674 1674 1674 1672 1671 1671 1669 1669 1668 1666 1664 1664 1662 1661 1659 1657 1655 1653 1650 1649 1647 1645 1643 1642 1640 1639 1638 1636 1634 1634 1633 1633 1633 1633 1633 1633 1633 1635 1636 1638 1642 1645 1651 1654 1657 1661 1665 1670 1674 1678 1681 1682 1682 1682 1683 1683 1683 1683 1683 1683 1683 1683 1683 1683 1683 1682 1682 1681 1681 1680 1680 1679 1679 1678 1677 1677 1676 1674 1674 1673 1672 1671 1670 1669 1668 1666 1665 1664 1662 1661 1659 1658 1657 1656 1655 1654 1653 1653 1653 1655 1656 1657 1659 1662 1666 1673 1683 1688 1694 1703 1706 1709 1710 1712 1714 1716 1718 1719 1720 1721 1723 1724 1725 1725 1726 1726 1726 1726 1726 1726 1726 1726 1726 1726 1726 1725 1725 1724 1724 1723 1723 1723 1722 1721 1721 1720 1719 1719 1719 1718 1718 1718 1717 1716 1716 1716 1715 1715 1715 1715 1716 1717 1719 1721 1723 1724 1727 1731 1734 1738 1760 1775 1784 1791 1791 1791 1785 1780 1776 1770 1763 1754 1747 1741 1736 1733 1730 1726 1724 1721 1718 1714 1711 1707 1703 1699 1694 1689 1684 1679 1675 1669 1666 1662 1660 1658 1656 1651 1648 1647 1643 1638 1635 1632 1626 1619 1614 1611 1607 1605 1601 1598 1593 1590 1586 1583 1580 1579 1577
