1065 1065 1075 1085 1094 1098 1102 1108 1110 1121 1133 1142 1149 1156 1163 1173 1182 1188 1192 1195 1201 1205 1212 1217 1222 1229 1240 1256 1276 1298 1321 1343 1364 1381 1396 1401 1410 1419 1433 1451 1467 1478 1487 1492 1499 1508 1518 1526 1532 1540 1544 1549 1552 1558 1567 1575 1584 1593 1603 1608 1615 1619 1625 1631 1637 1641 1647 1651 1658 1664 1670 1674 1679 1683 1685 1686 1688 1692 1697 1703 1710 1716 1722 1729 1736 1740 1743 1747 1752 1758 1764 1771 1778 1787 1793 1797 1801 1803 1806 1810 1813 1816 1819 1821 1825 1829 1831 1832 1834 1838 1844 1851 1860 1867 1873 1879 1885 1893 1899 1904 1912 1917 1922 1928 1935 1943 1951 1958 1963 1966 1970 1974 1978 1980 1985 1989 1993 1997 2000 2002 2005 2008 2011 2011 2011 2012 2012 2014 2015 2019 2021 2022 2024 2025 2026 2027 2028 2030 2032 2033 2035 2037 2037 2037 2038 2039 2040 2042 2043 2043 2043 2042 2040 2034 2031 2026 2020 2013 2006 2004 2004 2002 2001 2000 1993 1984 1970 0 0 0 0 0 0 0 1376 1376 1376 0 0 0 1484 1486 1487 1487 1487 1484 1482 1477 1477 1477 1478 1478 1479 1479 1479 1481 1483 1483 1483 1481 1477 1475 1474 1474 1474 1474 1474 1474 1474 1474 1474 1474 1475 1475 1475 1475 1475 1464 1456 1445 0 0 0 0 0 0 1240 1226 1224 1217 1201 1184 1184 1182 1178 1174 1174 1174 1174 1178 1186 1196 1212 1238 1267 1280 0 0 0 1427 1450 1460 1465 1468 1469 1469 1469 0 0 0 0 0 0 1296 1281 1260 1245 1236 1234 1226 1226 1226 1226 1226 1237 1262 1273 1280 0 0 0 1400 1425 1443 1454 1459 1468 1469 1469 1469 1469 1469 1469 1469 1469 1462 1454 1449 1436 1416 0 0 0 0 1332 1322 1310 1310 1310 1311 1313 0 0 0 0 1442 1453 1455 1455 1455 1454 1453 1451 1449 1447 1445 1443 1442 1441 1440 1438 1437 1432 1422 1404 1393 1372 1342 1342 1342 1364 0 0 0 1660 1677 1677 1677 1672 1670 1667 1666 1664 1662 1660 1656 1653 1651 1648 1645 1642 1639 1635 1632 1629 1626 1623 1620 1618 1615 1612 1608 1605 1602 1600 1598 1596 1595 1593 1591 1588 1586 1584 1583 1581 1579 1577 1576 1573 1572 1570 1569 1567 1566 1565 1564 1562 1562 1560 1559 1558 1556 1555 1554 1553 1552 1550 1548 1547 1545 1544 1544 1542 1541 1540 1539 1538 1537 1536 1536 1535 1534 1533 1532 1530 1529 1529 1528 1527 1526 1525 1524 1524 1523 1523 1522 1521 1521 1520 1519 1518 1517 1517 1516 1515 1514 1514 1513 1512 1512 1511 1511 1511 1511 1511 1510 1510 1510 1509 1509 1509 1508 1508 1507 1507 1507 1506 1506 1506 1506 1506 1505 1505 1504 1504 1503 1503 1503 1502 1501 1501 1501 1500 1499 1499 1498 1497 1497 1496 1496 1495 1494 1494 1493 1493 1493 1493 1492 1492 1492 1491 1491 1490 1490 1490 1490 1489 1488 1488 1487 1487 1487 1486 1486 1485 1485 1484 1483 1483 1482 1482 1482 1481 1480 1480 1479 1479 1477 1477 1476 1475 1474 1474 1472 1472 1470 1470 1470 1469 1468 1468 1467 1467 1467 1467 1467 1467 1467 1468 1469 1470 1470 1471 1472 1472 1473 1474 1475 1475 1477 1477 1478 1479 1480 1481 1481 1482 1484 1484 1486 1486 1487 1488 1489 1490 1490 1490 1490 1489 1489 1489 1489 1488 1488 1486 1485 1485 1483 1482 1481 1481 1481 1481 1481 1481 1481 1480 1478 1477 1476 1474 1472 1469 1468 1466 1463 1459 1458 1456 1454 1453 1451 1449 1448 1443 1443 1440 1440 1440 0
1056 1056 1065 1076 1084 1089 1093 1100 1103 1115 1128 1138 1146 1155 1163 1172 1181 1188 1192 1194 1199 1205 1212 1217 1223 1230 1242 1259 1276 1298 1320 1341 1359 1376 1390 1401 1404 1413 1425 1440 1456 1465 1475 1481 1488 1498 1508 1516 1522 1531 1537 1541 1545 1550 1557 1566 1575 1587 1598 1607 1612 1615 1623 1627 1634 1638 1644 1651 1658 1663 1669 1674 1679 1683 1685 1686 1688 1692 1697 1703 1710 1716 1722 1728 1734 1736 1741 1745 1752 1758 1764 1771 1777 1785 1792 1796 1800 1803 1806 1810 1813 1816 1819 1822 1825 1829 1831 1832 1834 1838 1843 1851 1858 1864 1871 1877 1885 1893 1899 1905 1913 1917 1923 1928 1935 1943 1951 1958 1963 1966 1970 1974 1978 1980 1985 1989 1993 1997 2000 2002 2005 2008 2011 2012 2012 2012 2012 2014 2016 2020 2022 2024 2025 2025 2026 2028 2029 2030 2032 2034 2036 2038 2039 2041 2041 2043 2045 2045 2045 2045 2045 2043 2038 2033 2029 2026 2023 2019 2017 2014 2012 2011 2009 2003 1998 1988 1974 1956 0 0 0 0 0 0 0 0 0 0 0 0 0 0 0 0 0 1506 1492 1489 1486 1485 1485 1485 1482 1482 1482 1484 1484 1485 1485 1484 1483 1480 1480 1480 1480 1480 1479 1478 1477 1477 1477 1479 1480 1480 1480 1480 1480 1471 1471 1468 1465 1464 0 0 0 0 0 0 1244 1238 1215 1203 1201 1197 1195 1191 1188 1186 1186 1186 1192 1210 1228 1248 1267 0 0 0 1430 1451 1464 1474 1480 1480 1480 1480 1474 1467 1460 1446 0 0 0 0 0 0 0 1252 1251 1251 1245 1240 1240 1240 1260 1285 1292 1305 0 0 1407 1429 1449 1454 1463 1468 1474 1474 1474 1473 1473 1473 1474 1474 1474 1471 1466 1466 1465 1450 1441 0 0 0 0 1345 1322 1319 1319 1319 0 0 0 1445 1457 1458 1458 1458 1457 1456 1456 1455 1454 1450 1447 1447 1446 1443 1441 1440 1438 1437 1427 1410 1386 1369 1346 1337 1337 1337 0 0 0 0 1660 1674 1674 1674 1674 1670 1667 1666 1665 1662 1660 1657 1654 1651 1648 1645 1640 1638 1634 1631 1629 1626 1623 1620 1617 1614 1611 1607 1604 1601 1599 1598 1596 1595 1593 1589 1587 1586 1584 1582 1581 1579 1577 1575 1573 1572 1569 1568 1567 1566 1564 1564 1562 1561 1560 1559 1558 1556 1555 1554 1553 1551 1550 1548 1547 1545 1544 1544 1542 1541 1540 1539 1538 1537 1536 1535 1534 1534 1532 1531 1530 1529 1528 1528 1527 1526 1525 1524 1524 1523 1523 1522 1521 1520 1520 1519 1518 1517 1517 1515 1515 1514 1513 1512 1512 1512 1511 1511 1511 1511 1511 1510 1510 1510 1509 1509 1509 1508 1508 1507 1507 1507 1506 1506 1506 1506 1506 1505 1505 1504 1504 1503 1503 1503 1502 1501 1501 1501 1500 1499 1499 1498 1497 1497 1496 1496 1495 1494 1494 1494 1493 1493 1493 1493 1492 1492 1491 1491 1491 1490 1490 1490 1489 1488 1488 1488 1487 1487 1486 1486 1485 1485 1484 1483 1483 1482 1481 1481 1480 1480 1479 1478 1477 1477 1476 1476 1475 1474 1473 1472 1471 1470 1470 1470 1469 1468 1468 1467 1467 1467 1467 1467 1467 1467 1468 1469 1470 1470 1471 1472 1472 1473 1474 1474 1475 1476 1477 1478 1479 1480 1481 1481 1482 1483 1484 1485 1486 1487 1488 1489 1490 1490 1490 1489 1489 1488 1488 1488 1487 1486 1486 1485 1484 1483 1482 1481 1481 1481 1481 1481 1481 1480 1478 1477 1476 1474 1472 1469 1468 1467 1465 1462 1459 1456 1455 1454 1453 1452 1449 1447 1442 1436 1432 1431 1430 0
1047 1047 1056 1067 1076 1081 1087 1096 1103 1110 1124 1134 1144 1153 1163 1172 1181 1188 1191 1193 1198 1204 1211 1217 1223 1230 1242 1259 1276 1298 1317 1336 1351 1367 1381 1393 1396 1405 1416 1430 1442 1455 1463 1471 1478 1487 1496 1504 1512 1520 1530 1536 1539 1544 1549 1557 1567 1579 1591 1599 1607 1614 1617 1623 1629 1633 1640 1649 1656 1663 1669 1673 1678 1682 1685 1686 1689 1692 1697 1703 1710 1716 1722 1727 1731 1734 1738 1744 1750 1757 1763 1770 1777 1784 1790 1794 1798 1802 1806 1810 1814 1818 1821 1824 1826 1828 1831 1832 1834 1838 1843 1848 1855 1862 1870 1876 1884 1893 1899 1905 1913 1919 1923 1929 1936 1943 1951 1958 1963 1966 1970 1974 1978 1980 1984 1986 1991 1995 1998 2002 2005 2008 2011 2012 2012 2012 2013 2015 2017 2020 2022 2024 2025 2026 2027 2028 2030 2031 2033 2035 2036 2038 2040 2042 2044 2046 2048 2048 2048 2048 2046 2043 2038 2033 2028 2025 2024 2023 2021 2020 2018 2015 2012 2008 2001 1992 1980 1958 0 0 0 0 0 0 0 0 0 0 0 0 0 0 0 0 0 0 0 1510 1495 1488 1486 1486 1486 1485 1485 1488 1488 1488 1488 1487 1487 1485 1485 1485 1485 1484 1484 1483 1482 1482 1482 1483 1483 1483 1484 1484 1484 1484 1479 1477 1476 1472 1465 0 0 0 0 0 0 0 0 1241 1228 1220 1210 1194 1194 1194 1196 1200 1208 1228 1255 0 0 0 0 0 1454 1470 1477 1483 1483 1483 1483 1480 1475 1474 1473 1473 1469 0 0 0 0 0 0 0 0 1282 1277 1276 1277 1277 1293 1308 1315 1320 0 1416 1440 1454 1465 1471 1473 1473 1475 1475 1476 1476 1476 1476 1477 1479 1479 1479 1477 1476 1475 1473 1464 1462 1459 0 0 0 0 0 0 0 0 0 1440 1456 1466 1466 1466 1463 1461 1460 1459 1459 1457 1453 1449 1448 1447 1444 1441 1440 1438 1437 1425 1403 1370 1341 1312 1312 1312 0 0 0 0 0 1657 1673 1674 1674 1674 1671 1670 1669 1667 1664 1661 1659 1654 1651 1648 1644 1639 1636 1634 1631 1628 1626 1622 1619 1617 1614 1610 1607 1603 1601 1599 1596 1595 1593 1591 1589 1587 1586 1583 1581 1580 1579 1577 1575 1573 1571 1569 1567 1567 1565 1563 1562 1562 1561 1560 1558 1557 1556 1555 1554 1553 1551 1550 1548 1547 1545 1544 1544 1542 1541 1540 1539 1538 1537 1536 1535 1534 1533 1532 1531 1530 1529 1528 1527 1526 1526 1524 1524 1524 1523 1523 1522 1521 1520 1520 1519 1517 1517 1517 1515 1515 1514 1513 1512 1512 1512 1511 1511 1511 1511 1510 1510 1510 1510 1509 1509 1509 1508 1508 1507 1507 1506 1506 1506 1506 1505 1505 1504 1504 1504 1503 1503 1503 1502 1502 1501 1501 1501 1500 1499 1499 1498 1497 1497 1496 1496 1495 1494 1494 1494 1494 1493 1493 1493 1493 1492 1492 1491 1491 1491 1490 1490 1489 1489 1488 1488 1487 1487 1486 1486 1485 1484 1484 1483 1482 1482 1481 1480 1480 1480 1479 1478 1477 1476 1476 1476 1475 1474 1473 1472 1471 1470 1470 1470 1469 1468 1468 1467 1467 1467 1467 1467 1467 1467 1468 1468 1469 1470 1471 1471 1472 1473 1474 1474 1475 1476 1477 1477 1478 1479 1480 1481 1482 1483 1484 1485 1486 1487 1488 1489 1489 1489 1489 1489 1489 1488 1488 1488 1487 1486 1485 1485 1483 1483 1481 1481 1481 1481 1480 1480 1480 1478 1477 1475 1474 1473 1471 1468 1466 1466 1465 1460 1457 1456 1455 1454 1453 1452 1449 1447 1440 1432 1431 1430 1430 0
1044 1044 1054 1063 1073 1079 1087 1095 1103 1109 1120 1130 1140 1150 1161 1171 1180 1187 1189 1191 1197 1203 1209 1217 1223 1230 1242 1259 1276 1294 1311 1328 1344 1356 1371 1384 1388 1397 1408 1419 1432 1442 1450 1460 1468 1475 1485 1493 1499 1510 1520 1528 1533 1536 1540 1549 1559 1570 1582 1591 1598 1607 1613 1621 1623 1628 1634 1642 1651 1659 1666 1672 1676 1681 1685 1688 1689 1693 1697 1703 1710 1716 1722 1727 1730 1732 1736 1741 1747 1755 1762 1770 1777 1782 1787 1792 1798 1802 1806 1810 1814 1818 1821 1824 1826 1828 1831 1833 1835 1838 1843 1848 1855 1861 1869 1876 1883 1892 1900 1907 1913 1919 1924 1930 1936 1943 1950 1956 1961 1965 1969 1973 1976 1978 1981 1984 1988 1993 1997 1999 2002 2005 2008 2011 2012 2012 2013 2015 2017 2020 2022 2024 2025 2027 2028 2030 2031 2032 2035 2036 2038 2040 2041 2043 2045 2047 2050 2050 2050 2049 2047 2043 2038 2033 2028 2025 2024 2023 2023 2022 2020 2020 2017 2013 2004 1994 1985 1968 0 0 0 0 0 0 0 0 0 0 0 0 0 0 0 0 0 0 0 0 0 1513 1513 1513 1508 1499 1495 1494 1493 1493 1491 1490 1488 1487 1487 1486 1486 1486 1485 1484 1484 1484 1486 1486 1486 1486 1486 1487 1487 1487 1487 1482 1482 1479 1476 1474 1465 1447 0 0 0 0 0 0 1251 1239 1219 1206 1206 1206 1209 1216 1222 1233 1264 0 0 0 0 1455 1472 1478 1482 1487 1487 1487 1487 1485 1485 1482 1482 1482 1481 1481 1473 0 0 0 0 0 0 0 1313 1308 1308 1308 1321 1325 1338 1348 1406 1448 1464 1471 1477 1477 1477 1478 1477 1478 1478 1478 1478 1479 1481 1482 1482 1482 1481 1480 1479 1479 1479 1477 1472 1461 0 0 0 0 0 0 0 1447 1459 1467 1467 1468 1468 1467 1466 1466 1464 1464 1461 1456 1453 1449 1447 1444 1440 1439 1435 1431 1415 1398 1345 1316 1316 1316 0 0 0 0 0 0 1637 1673 1674 1674 1674 1673 1672 1669 1667 1664 1662 1659 1655 1651 1648 1644 1639 1636 1634 1631 1628 1625 1621 1619 1616 1613 1610 1606 1603 1600 1598 1596 1594 1593 1591 1589 1587 1585 1583 1581 1579 1578 1577 1574 1573 1571 1569 1567 1566 1565 1563 1562 1561 1560 1559 1558 1557 1556 1554 1553 1552 1551 1550 1548 1547 1545 1544 1543 1542 1541 1540 1539 1538 1537 1536 1535 1534 1532 1531 1530 1529 1528 1528 1527 1526 1525 1524 1524 1524 1523 1522 1522 1521 1520 1520 1518 1517 1517 1516 1515 1514 1514 1513 1512 1512 1511 1511 1511 1511 1510 1510 1510 1509 1509 1509 1509 1508 1508 1507 1507 1506 1506 1506 1505 1505 1505 1504 1504 1504 1503 1503 1503 1502 1502 1502 1501 1501 1501 1500 1499 1499 1498 1498 1497 1496 1496 1495 1495 1495 1494 1494 1493 1493 1493 1493 1492 1492 1492 1491 1491 1491 1490 1489 1489 1488 1488 1487 1487 1486 1486 1485 1484 1484 1482 1482 1481 1481 1480 1480 1479 1479 1478 1477 1476 1475 1475 1474 1474 1473 1472 1471 1470 1470 1470 1469 1468 1468 1467 1467 1467 1467 1467 1467 1467 1467 1468 1469 1470 1471 1471 1472 1473 1474 1474 1475 1476 1476 1477 1478 1479 1479 1480 1482 1483 1484 1485 1486 1486 1487 1488 1489 1489 1489 1489 1489 1488 1488 1487 1486 1486 1485 1484 1483 1483 1481 1481 1481 1480 1480 1480 1479 1478 1476 1475 1474 1472 1471 1468 1466 1464 1463 1460 1457 1456 1456 1455 1454 1453 1449 1446 1436 1432 1431 1430 1430 0
1040 1040 1050 1063 1071 1079 1087 1094 1101 1107 1119 1128 1135 1144 1156 1167 1176 1181 1184 1187 1194 1203 1208 1217 1223 1228 1237 1252 1269 1290 1310 1326 1337 1348 1362 1376 1379 1391 1398 1409 1419 1431 1438 1446 1456 1464 1474 1481 1486 1495 1506 1518 1525 1529 1534 1540 1551 1561 1572 1580 1588 1594 1605 1613 1620 1620 1627 1637 1645 1654 1663 1672 1676 1681 1685 1689 1691 1695 1697 1703 1709 1715 1722 1727 1729 1731 1734 1738 1744 1752 1759 1767 1774 1779 1784 1790 1797 1801 1806 1810 1814 1818 1821 1824 1826 1828 1831 1835 1838 1840 1844 1848 1855 1861 1868 1875 1882 1892 1900 1907 1913 1919 1925 1930 1936 1943 1950 1955 1960 1963 1967 1971 1973 1975 1977 1980 1985 1990 1994 1996 1998 2000 2004 2008 2010 2012 2013 2015 2017 2020 2022 2024 2026 2028 2030 2031 2031 2034 2035 2038 2040 2041 2042 2044 2045 2047 2050 2050 2050 2049 2048 2044 2039 2034 2028 2025 2024 2024 2023 2022 2022 2021 2021 2015 2011 2003 1996 1980 0 0 0 0 0 0 0 0 0 0 0 0 0 0 0 0 0 0 0 0 0 0 0 0 0 0 1518 1498 1497 1496 1495 1493 1493 1491 1490 1488 1488 1487 1487 1487 1489 1488 1488 1489 1489 1490 1490 1491 1491 1491 1491 1491 1491 1490 1490 1490 1483 1473 1460 1450 0 0 0 0 0 0 0 1216 1216 1216 1222 1223 1224 1242 0 0 0 0 1478 1484 1485 1485 1487 1488 1489 1490 1490 1490 1490 1490 1490 1489 1488 1487 1485 1481 1471 1460 1451 0 0 0 0 1314 1314 1314 1329 1338 1363 1396 1442 1460 1464 1473 1478 1479 1479 1479 1480 1480 1480 1480 1481 1484 1485 1485 1485 1485 1485 1484 1484 1484 1480 1478 1477 1475 1471 1464 1458 0 0 0 1445 1464 1469 1473 1473 1473 1472 1470 1470 1470 1470 1467 1463 1461 1455 1450 1447 1443 1436 1434 1428 1417 1411 1389 1338 1322 1322 0 0 0 0 0 0 0 1627 1671 1677 1677 1677 1676 1675 1670 1669 1668 1664 1660 1655 1651 1648 1643 1639 1636 1633 1631 1628 1624 1621 1619 1616 1613 1609 1606 1602 1600 1598 1596 1594 1592 1590 1589 1586 1585 1583 1580 1579 1577 1575 1574 1571 1570 1568 1567 1565 1563 1563 1561 1560 1559 1559 1557 1556 1555 1554 1552 1551 1550 1548 1547 1546 1545 1544 1543 1542 1541 1540 1539 1537 1537 1535 1534 1534 1532 1531 1530 1528 1528 1527 1526 1526 1525 1524 1524 1523 1522 1522 1522 1521 1520 1520 1518 1517 1516 1516 1515 1514 1513 1513 1512 1512 1511 1511 1510 1510 1510 1510 1509 1509 1509 1509 1508 1508 1507 1507 1507 1506 1506 1505 1505 1505 1504 1504 1504 1503 1503 1503 1503 1502 1502 1501 1501 1501 1500 1500 1499 1499 1498 1498 1497 1496 1496 1495 1495 1495 1494 1494 1494 1493 1493 1493 1493 1492 1492 1491 1491 1491 1490 1489 1489 1488 1488 1488 1487 1486 1486 1485 1484 1484 1482 1482 1481 1480 1480 1479 1478 1478 1477 1477 1476 1475 1475 1474 1474 1473 1472 1472 1471 1470 1470 1469 1469 1468 1468 1467 1467 1467 1467 1467 1467 1467 1468 1469 1470 1471 1471 1472 1473 1474 1474 1475 1476 1476 1476 1478 1478 1478 1479 1481 1483 1484 1485 1486 1486 1487 1488 1488 1488 1488 1488 1488 1487 1487 1487 1486 1485 1485 1484 1482 1482 1481 1481 1481 1480 1480 1479 1479 1477 1475 1474 1473 1471 1470 1468 1465 1464 1461 1458 1457 1457 1457 1457 1457 1455 1449 1447 1436 1431 1430 1430 1430 0
1035 1035 1049 1060 1071 1078 1087 1093 1101 1106 1117 1126 1134 1141 1151 1163 1171 1175 1178 1185 1194 1204 1208 1217 1223 1228 1235 1249 1269 1289 1309 1325 1336 1345 1356 1368 1372 1382 1390 1395 1406 1416 1426 1435 1447 1456 1462 1469 1475 1482 1492 1505 1516 1519 1527 1534 1542 1552 1562 1570 1579 1586 1596 1604 1610 1617 1620 1630 1640 1651 1662 1671 1675 1681 1685 1689 1692 1695 1699 1703 1709 1715 1722 1726 1728 1730 1733 1737 1744 1750 1757 1765 1772 1777 1783 1788 1795 1799 1805 1810 1814 1817 1821 1824 1827 1829 1833 1836 1839 1841 1845 1850 1855 1860 1866 1874 1882 1892 1901 1907 1914 1920 1926 1931 1938 1943 1950 1955 1959 1963 1967 1970 1971 1972 1975 1977 1981 1986 1989 1992 1994 1997 2000 2003 2007 2009 2012 2015 2018 2020 2023 2025 2028 2029 2030 2032 2032 2034 2035 2038 2040 2041 2042 2044 2045 2048 2050 2050 2050 2049 2048 2044 2040 2035 2030 2026 2024 2024 2023 2023 2023 2023 2023 2022 2018 2014 2008 1991 0 0 0 0 0 0 0 0 0 0 0 0 0 0 0 0 0 0 0 0 0 0 0 0 0 0 0 0 0 1502 1501 1501 1498 1497 1495 1494 1493 1493 1492 1492 1492 1492 1492 1492 1492 1493 1495 1496 1497 1497 1497 1496 1495 1495 1495 1494 1494 1491 1487 1482 1480 1473 0 0 0 0 0 0 1250 1240 1233 1233 1233 0 0 0 0 1468 1482 1488 1488 1490 1490 1491 1491 1493 1495 1495 1495 1495 1494 1493 1492 1491 1490 1489 1484 1478 1477 1468 1453 0 0 0 1330 1330 1339 1363 1396 1428 1443 1461 1466 1474 1479 1480 1480 1480 1482 1482 1483 1483 1483 1485 1487 1488 1488 1489 1489 1488 1488 1488 1487 1482 1482 1481 1481 1481 1481 1478 1475 1475 1475 1477 1477 1477 1477 1476 1474 1473 1473 1473 1470 1467 1464 1461 1455 1450 1446 1442 1434 1433 1428 1405 1391 1379 1338 1338 0 0 0 0 1491 1519 1558 0 0 1665 1679 1679 1679 1679 1676 1673 1673 1670 1666 1662 1656 1652 1648 1643 1640 1636 1633 1631 1628 1623 1620 1618 1616 1612 1609 1605 1602 1600 1598 1596 1594 1591 1589 1587 1585 1584 1582 1580 1579 1576 1574 1572 1570 1569 1567 1565 1563 1562 1561 1561 1560 1559 1557 1557 1555 1554 1553 1551 1550 1549 1548 1547 1545 1545 1543 1543 1542 1540 1539 1539 1537 1537 1535 1534 1533 1532 1531 1530 1528 1527 1527 1525 1525 1525 1524 1523 1523 1522 1522 1521 1521 1520 1518 1518 1517 1516 1515 1515 1513 1513 1513 1512 1511 1511 1511 1510 1510 1510 1509 1509 1508 1508 1508 1508 1507 1507 1507 1506 1506 1505 1505 1505 1504 1504 1503 1503 1503 1503 1502 1502 1502 1502 1501 1500 1500 1499 1499 1499 1498 1497 1497 1497 1496 1496 1495 1495 1494 1494 1494 1494 1494 1493 1493 1493 1492 1492 1491 1491 1491 1490 1489 1489 1488 1488 1487 1487 1486 1485 1485 1484 1483 1482 1482 1481 1480 1479 1479 1478 1478 1477 1476 1476 1475 1475 1474 1474 1473 1473 1472 1471 1470 1470 1469 1469 1468 1467 1467 1467 1467 1467 1467 1467 1467 1468 1469 1470 1471 1471 1472 1472 1473 1474 1475 1475 1475 1476 1476 1477 1478 1479 1481 1482 1483 1484 1485 1486 1487 1487 1488 1488 1488 1488 1487 1487 1487 1486 1485 1485 1485 1484 1482 1481 1481 1481 1480 1479 1479 1478 1478 1476 1474 1473 1472 1471 1469 1467 1465 1463 1461 1458 1458 1458 1458 1458 1457 1455 1450 1447 1436 1431 1430 1430 1430 0
1034 1034 1047 1060 1068 1078 1084 1091 1101 1104 1113 1122 1132 1140 1149 1158 1166 1170 1178 1185 1194 1203 1208 1216 1223 1228 1235 1249 1269 1289 1308 1324 1336 1345 1352 1362 1369 1373 1378 1382 1391 1401 1412 1426 1436 1444 1452 1459 1467 1476 1483 1495 1505 1509 1516 1523 1533 1542 1552 1563 1573 1580 1588 1594 1602 1609 1617 1627 1638 1650 1662 1670 1675 1680 1685 1689 1692 1695 1699 1703 1709 1715 1721 1725 1728 1729 1732 1737 1744 1750 1757 1764 1772 1777 1783 1788 1794 1798 1802 1808 1812 1815 1821 1824 1827 1829 1833 1837 1840 1844 1847 1851 1855 1860 1866 1874 1882 1892 1901 1907 1914 1920 1926 1933 1939 1945 1950 1955 1959 1963 1967 1970 1970 1972 1973 1975 1978 1981 1985 1988 1992 1995 1996 1997 2002 2006 2011 2014 2018 2021 2024 2027 2028 2029 2030 2032 2033 2034 2035 2038 2040 2041 2042 2044 2045 2048 2050 2050 2050 2049 2048 2044 2040 2035 2030 2027 2026 2024 2023 2023 2023 2024 2026 2026 2026 2024 2017 1997 0 0 0 0 0 0 0 0 0 0 0 0 0 0 0 0 0 0 0 0 0 0 0 0 0 0 0 0 0 0 1505 1503 1503 1501 1498 1498 1498 1498 1497 1497 1497 1496 1496 1496 1496 1496 1497 1498 1500 1500 1500 1500 1499 1499 1499 1499 1498 1498 1496 1494 1491 1481 1470 1469 0 0 0 0 0 0 0 0 0 0 0 0 1471 1485 1487 1488 1494 1494 1494 1495 1495 1497 1498 1498 1498 1497 1497 1497 1495 1495 1495 1494 1487 1482 1481 1481 1468 1457 0 0 1389 1389 1389 1401 1424 1436 1443 1461 1468 1474 1479 1480 1480 1480 1482 1482 1483 1483 1483 1486 1489 1491 1491 1492 1493 1493 1493 1491 1490 1490 1490 1490 1490 1490 1489 1487 1486 1483 1482 1481 1481 1480 1480 1479 1479 1478 1477 1473 1472 1469 1464 1461 1455 1450 1443 1433 1432 1431 1419 1398 1369 1360 1360 0 0 0 1460 1480 1491 1519 1536 1565 0 1665 1680 1681 1681 1680 1680 1679 1673 1670 1666 1662 1656 1652 1647 1643 1640 1636 1633 1630 1627 1623 1620 1618 1615 1611 1608 1605 1602 1599 1597 1594 1593 1590 1588 1586 1584 1582 1581 1578 1577 1575 1572 1570 1569 1567 1566 1564 1563 1562 1561 1560 1559 1558 1557 1556 1555 1554 1553 1551 1550 1549 1548 1547 1545 1544 1543 1542 1541 1540 1539 1538 1537 1536 1534 1534 1533 1531 1530 1529 1527 1527 1526 1525 1525 1524 1524 1523 1522 1522 1522 1521 1520 1520 1518 1517 1516 1516 1514 1514 1513 1513 1512 1512 1511 1510 1510 1509 1509 1509 1509 1509 1508 1508 1507 1507 1507 1506 1506 1505 1505 1504 1504 1504 1504 1503 1503 1503 1502 1502 1502 1502 1501 1501 1501 1500 1500 1499 1499 1499 1498 1497 1497 1497 1496 1495 1495 1494 1494 1494 1494 1494 1494 1493 1493 1493 1492 1492 1491 1491 1490 1490 1489 1489 1488 1488 1487 1487 1486 1485 1484 1484 1483 1482 1481 1481 1479 1479 1479 1478 1477 1477 1476 1476 1475 1475 1475 1474 1474 1473 1472 1472 1471 1470 1469 1469 1468 1467 1467 1467 1466 1466 1466 1467 1467 1468 1469 1470 1470 1471 1472 1472 1473 1473 1474 1475 1475 1475 1476 1477 1478 1478 1479 1481 1482 1484 1485 1485 1487 1487 1487 1487 1487 1487 1487 1486 1486 1486 1485 1485 1484 1483 1482 1481 1481 1480 1479 1479 1478 1477 1477 1475 1473 1472 1471 1470 1469 1467 1465 1463 1460 1458 1458 1458 1458 1458 1457 1455 1451 1449 1438 1430 1430 1428 1428 0
1033 1033 1046 1057 1066 1073 1077 1085 1095 1099 1110 1120 1128 1138 1147 1156 1164 1170 1177 1185 1193 1203 1207 1216 1223 1228 1235 1249 1269 1289 1308 1324 1336 1343 1352 1358 1362 1366 1367 1370 1377 1392 1406 1419 1428 1437 1444 1453 1460 1467 1475 1483 1491 1495 1504 1512 1521 1531 1543 1555 1566 1573 1579 1586 1594 1602 1612 1623 1636 1649 1661 1669 1675 1679 1684 1689 1692 1695 1699 1703 1709 1715 1720 1723 1725 1728 1732 1737 1744 1750 1757 1764 1771 1777 1783 1788 1794 1798 1802 1807 1811 1815 1820 1824 1827 1829 1833 1837 1840 1844 1848 1852 1855 1860 1866 1874 1882 1892 1901 1908 1914 1920 1927 1934 1941 1947 1952 1956 1959 1963 1965 1967 1970 1970 1971 1973 1975 1978 1981 1985 1988 1991 1993 1995 1999 2004 2009 2014 2018 2021 2025 2027 2028 2029 2030 2032 2033 2033 2035 2037 2039 2041 2042 2044 2046 2048 2048 2048 2048 2048 2046 2043 2040 2035 2030 2028 2027 2026 2025 2024 2024 2024 2026 2026 2026 2024 2017 1997 0 0 0 0 0 0 0 0 0 0 0 0 0 0 2718 2842 2842 2842 2798 2644 2644 2639 2639 2635 0 0 0 0 0 0 0 1509 1506 1505 1503 1503 1503 1503 1503 1503 1501 1500 1499 1498 1498 1498 1498 1499 1503 1504 1505 1505 1505 1505 1504 1503 1503 1503 1502 1500 1495 1491 1491 1490 1488 1480 1465 1443 0 0 0 0 0 0 0 1477 1492 1496 1497 1497 1497 1498 1499 1499 1500 1500 1500 1500 1500 1498 1498 1498 1498 1498 1496 1496 1496 1488 1484 1483 1474 1467 1455 0 1417 1401 1401 1401 1424 1436 1443 1460 1466 1473 1477 1480 1480 1480 1482 1483 1483 1483 1484 1487 1491 1492 1493 1495 1495 1495 1495 1494 1493 1493 1493 1493 1493 1493 1492 1491 1487 1486 1486 1486 1485 1483 1483 1483 1482 1481 1478 1475 1472 1469 1464 1461 1455 1450 1438 1429 1428 1424 1396 1362 1362 1362 0 0 0 1483 1485 1486 1498 1519 1528 1541 0 1649 1682 1684 1684 1683 1682 1679 1674 1670 1667 1663 1657 1652 1646 1643 1640 1636 1633 1629 1625 1622 1619 1616 1613 1610 1606 1604 1600 1598 1595 1594 1591 1590 1587 1584 1583 1581 1579 1577 1575 1573 1572 1569 1568 1566 1564 1563 1563 1561 1560 1559 1559 1557 1556 1554 1554 1552 1551 1551 1550 1548 1547 1545 1544 1543 1542 1542 1540 1539 1539 1538 1536 1535 1533 1532 1532 1531 1530 1529 1527 1526 1525 1525 1525 1524 1523 1523 1522 1521 1521 1521 1520 1519 1517 1517 1516 1515 1514 1513 1513 1512 1511 1510 1510 1510 1509 1509 1509 1508 1508 1508 1507 1507 1507 1506 1506 1506 1505 1505 1504 1504 1503 1503 1503 1502 1502 1502 1502 1501 1501 1501 1501 1500 1500 1499 1498 1498 1498 1498 1497 1497 1496 1496 1495 1495 1494 1494 1494 1494 1494 1494 1493 1493 1493 1492 1492 1492 1491 1490 1490 1490 1489 1488 1488 1488 1487 1487 1486 1485 1484 1484 1483 1482 1481 1480 1479 1479 1478 1478 1477 1476 1476 1476 1476 1475 1475 1474 1474 1473 1472 1472 1471 1470 1470 1469 1468 1467 1466 1466 1466 1466 1466 1467 1467 1467 1468 1468 1469 1470 1471 1471 1472 1473 1474 1474 1474 1475 1476 1476 1477 1478 1479 1480 1482 1482 1484 1485 1486 1486 1486 1486 1487 1487 1486 1486 1485 1485 1485 1484 1483 1482 1480 1480 1479 1479 1479 1477 1477 1476 1475 1475 1473 1472 1470 1470 1468 1467 1465 1463 1460 1458 1458 1457 1457 1457 1457 1455 1451 1449 1442 1431 1430 1428 1422 0
1033 1033 1042 1048 1057 1064 1071 1077 1089 1098 1104 1115 1126 1135 1144 1152 1161 1169 1177 1185 1193 1203 1207 1216 1223 1228 1237 1252 1268 1288 1306 1321 1334 1343 1350 1353 1356 1359 1360 1363 1373 1388 1402 1414 1424 1431 1438 1445 1451 1456 1463 1473 1479 1483 1490 1498 1508 1519 1533 1545 1556 1563 1571 1578 1588 1598 1609 1621 1634 1647 1659 1665 1672 1676 1681 1687 1690 1695 1699 1703 1709 1713 1716 1719 1722 1727 1732 1738 1744 1750 1757 1764 1771 1777 1784 1789 1794 1798 1802 1807 1811 1815 1820 1824 1827 1830 1834 1837 1840 1844 1848 1852 1857 1861 1867 1875 1883 1894 1903 1910 1916 1922 1928 1934 1941 1947 1952 1956 1959 1961 1964 1966 1966 1968 1968 1969 1971 1975 1979 1982 1986 1987 1991 1994 1999 2004 2009 2014 2018 2021 2025 2027 2028 2029 2030 2031 2032 2033 2034 2036 2038 2040 2042 2044 2046 2048 2048 2048 2047 2046 2043 2042 2038 2033 2030 2028 2027 2026 2025 2024 2024 2024 2026 2026 2026 2024 2017 1997 0 0 0 0 0 0 0 0 0 0 0 0 0 2507 2747 2866 2878 2878 2878 2869 2868 2866 2865 2846 2793 2525 0 0 0 0 0 0 1516 1511 1509 1507 1509 1507 1507 1504 1503 1502 1501 1500 1500 1500 1500 1501 1505 1507 1508 1508 1508 1507 1507 1507 1507 1506 1506 1505 1502 1498 1497 1495 1495 1492 1487 1480 0 0 0 0 0 0 1476 1495 1503 1504 1504 1504 1502 1502 1502 1502 1504 1504 1504 1503 1502 1500 1500 1500 1500 1500 1500 1500 1500 1492 1488 1484 1474 1467 1455 0 0 1401 1401 1401 1424 1434 1436 1457 1466 1473 1474 1474 1477 1478 1480 1483 1484 1484 1486 1490 1495 1496 1497 1497 1497 1497 1496 1495 1495 1495 1495 1495 1495 1494 1493 1493 1493 1491 1490 1487 1487 1487 1487 1487 1484 1482 1478 1475 1470 1467 1464 1461 1454 1446 1433 1424 1422 1400 1362 1358 1358 1362 0 0 1501 1501 1501 1501 1501 1519 1528 0 0 1649 1685 1686 1686 1685 1684 1679 1674 1670 1667 1663 1658 1652 1646 1643 1639 1636 1632 1628 1624 1621 1617 1614 1612 1609 1605 1602 1600 1597 1595 1593 1590 1588 1585 1583 1581 1580 1577 1575 1573 1573 1571 1569 1566 1565 1564 1562 1562 1560 1560 1559 1557 1556 1555 1554 1552 1551 1550 1549 1549 1548 1547 1545 1543 1541 1541 1541 1540 1539 1538 1537 1535 1534 1533 1532 1531 1530 1529 1527 1526 1525 1524 1524 1524 1523 1523 1522 1522 1521 1520 1520 1519 1518 1517 1516 1516 1514 1514 1513 1511 1511 1510 1510 1509 1509 1508 1508 1508 1507 1507 1507 1507 1507 1506 1506 1505 1505 1505 1504 1503 1503 1502 1502 1502 1502 1502 1501 1501 1501 1500 1500 1500 1499 1499 1498 1498 1498 1497 1496 1496 1496 1495 1495 1494 1494 1494 1494 1494 1494 1493 1493 1493 1492 1492 1492 1492 1491 1490 1490 1489 1489 1488 1488 1488 1488 1487 1486 1485 1485 1484 1483 1483 1482 1481 1479 1479 1478 1478 1478 1477 1476 1476 1476 1476 1475 1475 1474 1474 1473 1472 1472 1471 1470 1470 1469 1467 1467 1466 1466 1466 1466 1466 1466 1466 1466 1467 1468 1469 1469 1470 1471 1471 1472 1472 1472 1473 1473 1474 1475 1476 1477 1478 1479 1480 1482 1482 1483 1484 1485 1486 1486 1486 1486 1486 1485 1485 1485 1484 1483 1482 1481 1480 1479 1479 1478 1477 1477 1476 1476 1475 1474 1472 1472 1470 1469 1467 1466 1464 1462 1459 1458 1457 1457 1457 1456 1456 1455 1451 1449 1442 1441 1433 1428 1416 0
1027 1027 1031 1033 1041 1052 1063 1073 1085 1095 1102 1112 1121 1131 1138 1146 1156 1167 1177 1185 1192 1200 1207 1211 1220 1228 1237 1252 1268 1286 1300 1316 1330 1341 1347 1351 1351 1356 1357 1362 1371 1388 1401 1412 1419 1426 1433 1437 1441 1446 1452 1462 1470 1477 1481 1489 1500 1511 1525 1537 1547 1555 1562 1572 1584 1596 1608 1619 1631 1644 1655 1663 1669 1673 1680 1685 1688 1693 1698 1703 1708 1711 1714 1717 1721 1726 1732 1739 1745 1752 1757 1764 1772 1779 1784 1789 1794 1798 1802 1806 1811 1815 1820 1824 1827 1830 1834 1837 1841 1844 1848 1854 1859 1864 1869 1877 1886 1895 1905 1912 1917 1922 1928 1934 1941 1947 1952 1956 1958 1961 1962 1964 1964 1965 1966 1967 1969 1972 1976 1980 1982 1985 1989 1994 1999 2003 2009 2013 2017 2021 2025 2027 2028 2029 2030 2031 2033 2033 2034 2036 2038 2040 2042 2044 2046 2048 2048 2048 2047 2044 2042 2040 2036 2032 2030 2028 2027 2026 2025 2024 2024 2024 2024 2024 2024 2022 2013 1990 0 0 0 0 0 0 0 0 0 0 0 0 0 2530 2789 2893 2893 2893 2893 2891 2891 2889 2889 2887 2875 2847 2606 0 0 0 0 0 0 1524 1514 1514 1511 1510 1509 1507 1504 1503 1502 1502 1501 1501 1502 1503 1505 1510 1510 1511 1511 1510 1511 1510 1510 1510 1510 1509 1506 1503 1501 1501 1500 1500 1500 1502 1502 1502 1502 1491 1491 1491 1500 1506 1509 1510 1510 1510 1509 1508 1508 1507 1506 1506 1506 1505 1504 1503 1502 1502 1503 1503 1503 1503 1502 1495 1488 1484 1474 1467 1455 0 0 0 1384 1384 1399 1416 1423 1435 1451 1468 1468 1471 1472 1476 1480 1482 1483 1485 1490 1494 1497 1498 1499 1499 1499 1499 1498 1498 1497 1497 1497 1497 1497 1496 1496 1495 1495 1494 1492 1491 1489 1488 1488 1488 1486 1482 1478 1475 1470 1466 1459 1447 1433 1431 1426 1407 1390 1368 1362 1362 1362 1406 1466 1499 1512 1512 1512 1512 1512 1522 0 0 0 1649 1686 1687 1687 1687 1685 1679 1674 1671 1668 1663 1658 1652 1646 1641 1639 1635 1631 1628 1624 1620 1617 1614 1610 1608 1604 1601 1599 1596 1594 1592 1589 1587 1584 1582 1579 1578 1576 1573 1571 1571 1568 1567 1565 1564 1563 1562 1560 1560 1558 1558 1556 1555 1554 1553 1551 1550 1549 1549 1547 1546 1545 1544 1542 1541 1539 1538 1537 1537 1536 1535 1535 1533 1532 1531 1529 1529 1528 1527 1526 1524 1524 1523 1522 1522 1521 1521 1521 1520 1520 1519 1518 1518 1517 1516 1514 1514 1513 1511 1510 1510 1510 1509 1508 1508 1507 1507 1507 1507 1507 1507 1506 1506 1505 1505 1505 1504 1504 1504 1503 1502 1502 1501 1501 1501 1501 1500 1500 1499 1499 1499 1498 1498 1498 1498 1497 1496 1496 1496 1495 1495 1495 1494 1494 1493 1493 1493 1493 1493 1493 1493 1492 1492 1492 1491 1491 1490 1490 1489 1489 1489 1488 1488 1487 1487 1486 1486 1485 1485 1484 1483 1482 1481 1481 1479 1478 1478 1478 1477 1477 1476 1476 1476 1476 1475 1475 1474 1474 1473 1473 1472 1471 1470 1469 1468 1467 1467 1466 1466 1466 1466 1465 1465 1465 1465 1466 1467 1467 1468 1469 1470 1470 1471 1471 1472 1472 1473 1473 1474 1476 1477 1478 1479 1480 1480 1481 1482 1483 1484 1485 1485 1485 1485 1485 1485 1484 1484 1484 1482 1482 1480 1478 1478 1477 1477 1476 1476 1476 1474 1474 1473 1472 1471 1470 1469 1467 1466 1463 1460 1457 1457 1456 1456 1456 1456 1454 1450 1448 1445 1442 1441 1439 1429 1416 0
1016 1016 1018 1022 1033 1046 1061 1070 1082 1092 1098 1109 1120 1126 1132 1140 1149 1160 1171 1180 1189 1196 1206 1210 1219 1228 1237 1252 1267 1281 1295 1312 1327 1338 1344 1346 1349 1352 1355 1361 1371 1385 1398 1408 1417 1423 1428 1431 1436 1443 1450 1458 1466 1474 1478 1486 1496 1509 1522 1534 1543 1551 1558 1567 1579 1592 1604 1616 1626 1637 1647 1657 1667 1671 1676 1681 1686 1691 1697 1702 1707 1711 1714 1717 1721 1726 1733 1740 1747 1752 1757 1765 1772 1779 1785 1789 1794 1799 1803 1807 1811 1815 1820 1824 1828 1832 1835 1838 1841 1844 1849 1855 1861 1866 1872 1878 1888 1896 1905 1912 1918 1923 1928 1935 1941 1946 1951 1955 1958 1960 1960 1960 1961 1963 1965 1966 1968 1971 1975 1978 1982 1985 1989 1994 1999 2003 2007 2012 2016 2020 2024 2027 2029 2030 2030 2031 2033 2033 2034 2036 2038 2040 2042 2045 2047 2047 2047 2047 2047 2044 2041 2039 2035 2032 2029 2028 2027 2026 2025 2023 2023 2023 2023 2022 2021 2017 2011 1986 0 0 0 0 0 0 0 0 0 0 0 0 0 2570 2823 2913 2913 2913 2911 2911 2910 2909 2909 2902 2896 2894 2882 2698 0 0 0 0 0 0 0 1518 1517 1515 1512 1511 1511 1511 1512 1512 1512 1508 1508 1508 1508 1511 1514 1514 1514 1514 1514 1514 1514 1514 1513 1513 1511 1508 1507 1507 1507 1507 1508 1509 1510 1510 1510 1504 1504 1504 1508 1511 1515 1515 1515 1513 1513 1512 1511 1510 1509 1509 1509 1509 1508 1507 1506 1506 1506 1506 1505 1504 1502 1495 1488 1479 1463 1451 1442 0 0 0 0 0 0 0 1388 1408 1424 1434 1451 1463 1470 1475 1477 1481 1482 1485 1490 1494 1497 1501 1501 1501 1501 1501 1501 1501 1500 1500 1500 1500 1499 1499 1499 1499 1498 1497 1496 1493 1492 1490 1490 1489 1487 1482 1477 1472 1468 1465 1457 1441 1429 1427 1418 1405 1390 1380 1380 1390 1406 1434 1478 1499 1512 1512 1518 1524 0 0 0 0 0 1680 1690 1690 1690 1687 1685 1681 1677 1673 1669 1665 1659 1652 1646 1641 1638 1635 1631 1627 1623 1620 1616 1613 1610 1606 1604 1601 1598 1596 1594 1591 1588 1586 1583 1581 1578 1576 1574 1572 1570 1569 1568 1565 1565 1563 1561 1561 1559 1559 1558 1557 1556 1554 1554 1552 1550 1549 1548 1547 1545 1545 1544 1544 1541 1540 1539 1538 1537 1536 1536 1534 1534 1533 1531 1531 1529 1528 1527 1526 1525 1524 1522 1522 1522 1521 1520 1520 1520 1519 1519 1518 1517 1517 1516 1515 1514 1513 1512 1510 1510 1510 1509 1508 1508 1507 1507 1507 1506 1506 1506 1506 1505 1505 1504 1504 1504 1503 1503 1502 1502 1502 1501 1501 1500 1500 1499 1499 1499 1499 1498 1498 1498 1498 1497 1497 1497 1496 1495 1495 1494 1494 1494 1493 1493 1493 1493 1493 1493 1492 1492 1492 1491 1491 1491 1491 1490 1490 1489 1489 1489 1489 1488 1488 1487 1487 1486 1485 1485 1484 1483 1482 1481 1481 1480 1478 1478 1478 1477 1477 1477 1476 1476 1476 1475 1475 1475 1474 1474 1473 1473 1472 1471 1470 1469 1468 1466 1466 1465 1465 1465 1464 1464 1464 1464 1464 1465 1466 1466 1467 1468 1468 1470 1470 1470 1471 1471 1472 1473 1473 1476 1476 1477 1477 1478 1479 1480 1480 1481 1483 1484 1485 1485 1484 1484 1483 1483 1482 1482 1482 1482 1479 1478 1477 1477 1476 1476 1475 1475 1474 1473 1472 1471 1469 1469 1468 1466 1463 1461 1458 1456 1456 1456 1456 1456 1456 1454 1450 1445 1442 1441 1439 1438 1429 1416 0
1004 1004 1007 1016 1030 1046 1057 1066 1077 1087 1090 1102 1115 1122 1128 1135 1146 1155 1166 1175 1186 1196 1206 1210 1219 1227 1237 1249 1262 1274 1290 1307 1324 1336 1340 1342 1345 1350 1354 1361 1370 1381 1393 1403 1411 1418 1425 1431 1436 1443 1450 1458 1466 1473 1478 1485 1496 1509 1521 1532 1541 1549 1557 1564 1574 1585 1597 1610 1619 1630 1641 1652 1662 1669 1675 1678 1684 1689 1695 1699 1706 1710 1714 1717 1721 1726 1733 1740 1747 1752 1757 1765 1772 1779 1785 1790 1795 1799 1803 1807 1811 1815 1820 1825 1829 1834 1837 1839 1842 1845 1851 1857 1863 1868 1874 1881 1890 1898 1906 1912 1918 1923 1928 1935 1941 1945 1950 1953 1956 1958 1958 1959 1960 1960 1962 1964 1967 1969 1973 1977 1982 1985 1989 1994 1998 2002 2007 2011 2015 2020 2024 2027 2030 2031 2031 2032 2033 2034 2036 2036 2039 2041 2043 2045 2048 2048 2048 2047 2046 2044 2041 2039 2035 2031 2028 2027 2026 2025 2023 2021 2021 2020 2020 2019 2015 2010 2009 1980 0 0 0 0 0 0 0 0 0 0 0 0 0 2586 2836 2925 2925 2926 2928 2928 2931 2931 2931 2924 2917 2911 2899 2887 2720 0 0 0 0 0 0 0 0 1520 1516 1514 1514 1515 1515 1517 1518 1518 1517 1517 1516 1516 1516 1517 1517 1517 1517 1517 1517 1517 1517 1516 1515 1515 1514 1512 1512 1512 1511 1511 1512 1511 1511 1510 1510 1510 1516 1516 1517 1517 1517 1517 1517 1516 1515 1513 1513 1512 1511 1511 1511 1511 1510 1510 1510 1510 1506 1505 1502 1495 1480 1465 1453 1433 0 0 0 0 0 0 0 0 0 0 1389 1406 1425 1438 1443 1453 1466 1473 1482 1485 1490 1494 1497 1501 1504 1504 1505 1505 1505 1505 1505 1504 1504 1503 1503 1502 1501 1501 1500 1498 1497 1495 1494 1493 1492 1491 1488 1482 1475 1469 1466 1460 1452 1439 1426 1425 1418 1405 1405 1405 1413 1435 1444 1463 1478 1499 1512 1526 1528 0 0 0 0 0 1702 1702 1699 1695 1692 1687 1686 1681 1677 1673 1669 1665 1659 1653 1647 1641 1638 1634 1631 1627 1623 1620 1616 1613 1610 1606 1603 1601 1597 1595 1593 1590 1587 1585 1583 1580 1578 1575 1573 1572 1569 1567 1566 1564 1563 1561 1560 1559 1558 1558 1556 1556 1554 1553 1552 1550 1550 1547 1546 1545 1543 1542 1542 1541 1540 1539 1537 1537 1535 1534 1534 1533 1532 1531 1531 1530 1528 1528 1525 1524 1523 1522 1521 1521 1520 1520 1519 1518 1518 1518 1517 1517 1516 1515 1515 1514 1514 1513 1511 1510 1509 1508 1508 1507 1507 1506 1506 1506 1506 1505 1505 1504 1504 1504 1503 1503 1503 1502 1502 1502 1502 1501 1500 1500 1500 1499 1499 1498 1498 1498 1497 1497 1497 1497 1497 1496 1495 1495 1495 1495 1494 1493 1493 1493 1492 1492 1492 1492 1492 1492 1492 1491 1491 1491 1491 1491 1490 1489 1489 1488 1488 1487 1487 1487 1486 1486 1486 1485 1485 1484 1483 1482 1481 1481 1480 1478 1478 1477 1477 1477 1476 1476 1476 1475 1475 1475 1475 1474 1474 1473 1472 1472 1471 1470 1468 1467 1466 1465 1465 1464 1464 1463 1463 1463 1463 1464 1464 1464 1465 1466 1466 1468 1468 1468 1469 1470 1470 1471 1472 1473 1475 1476 1476 1476 1477 1478 1479 1479 1480 1481 1482 1483 1483 1483 1483 1483 1483 1482 1482 1482 1481 1479 1478 1477 1475 1475 1475 1475 1475 1474 1473 1471 1471 1469 1468 1466 1464 1462 1460 1458 1456 1456 1456 1456 1456 1455 1452 1447 1444 1441 1439 1437 1436 1429 1418 0
1003 1003 1007 1015 1030 1044 1054 1061 1069 1075 1078 1093 1109 1120 1127 1135 1145 1155 1162 1172 1184 1195 1204 1210 1219 1227 1235 1245 1258 1271 1286 1303 1320 1333 1338 1339 1344 1350 1354 1361 1370 1378 1389 1398 1407 1416 1424 1430 1435 1442 1450 1458 1466 1473 1478 1485 1495 1506 1518 1529 1538 1546 1553 1561 1570 1580 1592 1603 1616 1626 1636 1647 1658 1667 1672 1676 1682 1687 1692 1697 1703 1709 1715 1718 1724 1728 1735 1742 1747 1752 1758 1765 1772 1780 1787 1791 1795 1799 1803 1807 1811 1815 1821 1825 1830 1834 1837 1840 1843 1847 1853 1857 1863 1868 1875 1883 1892 1899 1906 1912 1918 1923 1928 1935 1941 1945 1948 1950 1953 1954 1956 1957 1958 1959 1959 1961 1964 1968 1971 1976 1982 1985 1989 1993 1997 2002 2007 2011 2015 2019 2024 2027 2030 2031 2032 2033 2034 2035 2037 2039 2041 2042 2044 2046 2048 2048 2048 2047 2045 2043 2041 2038 2035 2030 2027 2026 2025 2022 2020 2018 2018 2018 2017 2013 2008 2006 2000 1980 0 0 0 0 0 1202 0 0 0 0 0 0 0 2587 2841 2928 2938 2940 2940 2940 2943 2945 2945 2945 2935 2923 2910 2892 2886 2769 0 0 0 0 0 0 0 0 1532 1523 1519 1519 1519 1520 1522 1522 1520 1520 1518 1518 1518 1518 1518 1519 1520 1520 1520 1520 1519 1519 1519 1519 1519 1518 1516 1515 1515 1515 1515 1516 1518 1519 1521 1521 1521 1521 1521 1521 1521 1520 1520 1518 1517 1516 1516 1515 1515 1515 1515 1513 1513 1512 1512 1511 1509 1506 1501 1483 1461 1449 1436 0 0 0 0 1253 1253 1253 1256 1270 0 0 0 0 1388 1409 1419 1435 1449 1463 1476 1479 1483 1489 1495 1501 1507 1508 1508 1508 1508 1509 1509 1509 1508 1507 1507 1506 1505 1504 1503 1501 1499 1497 1496 1495 1493 1491 1488 1482 1475 1469 1465 1460 1450 1432 1426 1418 1418 1426 1429 1443 1457 1467 1470 1476 1485 1499 1512 1528 0 0 0 0 1731 1731 1731 1715 1704 1696 1694 1687 1685 1681 1677 1673 1669 1665 1659 1654 1648 1641 1638 1634 1631 1627 1623 1619 1616 1613 1610 1606 1603 1601 1597 1595 1592 1590 1587 1584 1582 1578 1576 1575 1572 1570 1568 1566 1564 1563 1562 1560 1559 1557 1557 1556 1555 1553 1553 1552 1551 1549 1547 1546 1544 1543 1542 1541 1540 1539 1538 1537 1536 1536 1535 1534 1533 1532 1532 1530 1530 1529 1528 1527 1525 1524 1523 1522 1521 1520 1520 1519 1518 1517 1517 1517 1517 1516 1515 1514 1513 1513 1512 1512 1511 1509 1508 1508 1507 1507 1506 1506 1505 1505 1504 1504 1504 1504 1504 1503 1503 1503 1502 1502 1502 1501 1501 1500 1500 1500 1499 1498 1498 1498 1497 1497 1497 1496 1496 1496 1495 1495 1495 1495 1494 1493 1493 1493 1492 1492 1492 1491 1491 1491 1491 1491 1491 1490 1490 1490 1490 1490 1489 1489 1488 1488 1486 1486 1486 1486 1486 1485 1485 1485 1484 1483 1482 1482 1481 1480 1480 1478 1477 1477 1477 1477 1476 1476 1475 1475 1475 1475 1475 1474 1474 1472 1472 1471 1470 1469 1468 1467 1466 1464 1464 1463 1462 1462 1462 1462 1462 1462 1462 1463 1463 1464 1464 1465 1467 1467 1468 1469 1469 1469 1470 1471 1473 1474 1475 1475 1475 1476 1478 1478 1479 1479 1479 1480 1481 1481 1482 1482 1482 1481 1480 1479 1478 1477 1476 1476 1475 1474 1474 1474 1473 1473 1472 1471 1470 1468 1467 1464 1463 1460 1459 1457 1455 1455 1455 1455 1455 1455 1452 1445 1444 1439 1435 1432 1432 1426 1418 0
998 998 1006 1015 1029 1037 1046 1055 1062 1070 1078 1082 1103 1117 1126 1135 1144 1154 1160 1169 1180 1195 1204 1210 1218 1226 1233 1243 1253 1265 1281 1298 1315 1329 1335 1338 1343 1349 1354 1361 1369 1377 1386 1395 1406 1413 1424 1430 1435 1442 1450 1458 1466 1472 1478 1484 1493 1502 1515 1525 1533 1540 1548 1557 1567 1575 1586 1598 1611 1623 1634 1645 1654 1663 1668 1676 1680 1686 1690 1695 1701 1708 1715 1721 1726 1731 1738 1743 1748 1752 1758 1765 1774 1782 1789 1793 1796 1800 1804 1807 1811 1815 1821 1826 1831 1835 1839 1843 1846 1849 1855 1859 1863 1868 1875 1883 1892 1899 1906 1912 1917 1921 1927 1935 1939 1943 1946 1947 1949 1951 1952 1954 1955 1957 1958 1960 1963 1968 1971 1976 1982 1985 1989 1993 1997 2000 2007 2011 2015 2019 2023 2027 2030 2031 2032 2034 2035 2036 2038 2039 2041 2042 2044 2046 2048 2048 2048 2047 2045 2042 2040 2038 2033 2028 2024 2022 2022 2020 2017 2017 2017 2017 2017 2013 2004 1996 1992 1976 0 0 0 0 1244 1198 1167 0 0 0 0 0 0 2612 2860 2940 2949 2951 2952 2953 2958 2958 2958 2953 2940 2933 2918 2913 2907 2903 2798 2516 0 0 0 0 0 0 0 0 0 1527 1524 1524 1524 1523 1522 1522 1520 1520 1520 1522 1523 1523 1526 1527 1527 1527 1525 1525 1525 1524 1524 1524 1522 1521 1520 1520 1520 1520 1521 1522 1523 1524 1525 1525 1525 1525 1525 1525 1524 1521 1520 1519 1518 1518 1518 1518 1517 1516 1516 1514 1514 1513 1511 1507 1496 1474 1461 1438 0 0 0 0 1261 1253 1253 1253 1255 1259 1269 1306 1309 1311 1340 1384 1400 1415 1433 1450 1469 1473 1479 1486 1495 1501 1510 1511 1511 1511 1511 1511 1512 1512 1512 1510 1510 1508 1507 1506 1505 1504 1503 1500 1498 1496 1494 1491 1488 1481 1474 1468 1462 1453 1437 1426 1419 1419 1426 1436 1453 1466 1473 1479 1484 1487 1488 1499 1512 0 0 0 0 1746 1746 1746 1731 1715 1704 1696 1694 1687 1685 1680 1673 1672 1669 1664 1659 1654 1648 1641 1638 1634 1630 1626 1623 1619 1616 1613 1609 1606 1603 1600 1596 1593 1591 1588 1586 1584 1580 1578 1576 1574 1571 1569 1566 1565 1564 1562 1561 1559 1558 1557 1555 1555 1553 1553 1552 1551 1549 1548 1546 1545 1544 1542 1541 1540 1539 1537 1537 1536 1536 1535 1534 1533 1533 1532 1531 1529 1528 1527 1526 1526 1524 1523 1523 1521 1520 1519 1519 1518 1518 1517 1517 1516 1515 1515 1514 1513 1513 1512 1511 1510 1509 1508 1508 1506 1506 1506 1505 1505 1505 1504 1504 1503 1503 1503 1503 1502 1502 1502 1501 1501 1501 1500 1500 1500 1499 1499 1499 1497 1497 1497 1496 1496 1496 1495 1495 1495 1495 1494 1494 1494 1493 1493 1492 1492 1492 1491 1491 1491 1491 1491 1490 1490 1490 1490 1490 1490 1490 1489 1488 1488 1487 1486 1486 1485 1485 1485 1485 1484 1484 1484 1484 1482 1482 1481 1481 1480 1479 1478 1477 1477 1477 1477 1476 1476 1475 1475 1475 1475 1475 1474 1473 1472 1472 1471 1469 1468 1468 1466 1465 1464 1463 1462 1461 1461 1461 1461 1461 1461 1461 1462 1462 1463 1463 1464 1465 1465 1466 1467 1467 1467 1469 1469 1471 1473 1473 1473 1473 1474 1475 1476 1476 1477 1478 1478 1478 1478 1479 1479 1479 1478 1478 1478 1477 1476 1475 1474 1473 1472 1472 1472 1472 1471 1469 1469 1468 1467 1466 1463 1461 1458 1457 1455 1455 1455 1454 1452 1450 1444 1443 1443 1443 1439 1434 1431 1429 1423 1418 0
998 998 1006 1015 1028 1036 1045 1050 1061 1069 1077 1081 1096 1112 1122 1131 1141 1151 1159 1167 1178 1191 1204 1210 1216 1223 1230 1239 1250 1263 1278 1294 1309 1321 1330 1337 1343 1349 1354 1361 1368 1377 1385 1394 1403 1413 1422 1429 1435 1442 1450 1458 1464 1472 1478 1484 1491 1499 1509 1520 1527 1535 1544 1553 1564 1575 1584 1595 1607 1621 1633 1644 1652 1661 1666 1674 1680 1685 1689 1693 1699 1708 1715 1722 1728 1735 1742 1746 1749 1752 1759 1767 1776 1784 1790 1795 1798 1801 1804 1808 1811 1815 1821 1826 1831 1836 1840 1843 1847 1851 1856 1859 1864 1868 1875 1883 1892 1899 1906 1911 1914 1919 1924 1932 1938 1941 1943 1943 1946 1949 1951 1953 1954 1956 1957 1959 1963 1968 1971 1976 1980 1984 1987 1991 1995 2000 2005 2010 2015 2019 2022 2026 2029 2031 2032 2034 2035 2037 2038 2039 2041 2042 2044 2046 2048 2048 2048 2047 2044 2042 2038 2035 2030 2026 2022 2021 2018 2018 2017 2017 2017 2017 2017 2013 2004 1996 1988 1974 0 0 0 0 1241 1198 1172 0 0 0 0 0 0 2656 2880 2947 2960 2963 2963 2963 2963 2963 2962 2954 2946 2939 2939 2939 2940 2940 2940 2846 2613 0 0 0 0 0 0 0 0 0 1543 1536 1527 1527 1526 1525 1525 1525 1525 1526 1526 1526 1527 1535 1535 1535 1533 1531 1530 1530 1528 1528 1526 1526 1526 1525 1525 1525 1525 1525 1527 1527 1527 1527 1528 1528 1528 1528 1527 1525 1524 1523 1522 1522 1522 1521 1521 1520 1518 1517 1516 1515 1512 1507 1495 1473 1456 0 0 0 0 1266 1255 1252 1247 1247 1247 1256 1266 1274 1287 1309 1327 1342 1371 1391 1406 1426 1453 1466 1478 1486 1495 1501 1511 1516 1516 1516 1514 1514 1514 1514 1513 1513 1512 1511 1510 1508 1507 1506 1504 1503 1501 1497 1494 1490 1485 1480 1472 1467 1457 1444 1414 1414 1414 1426 1444 1462 1470 1475 1479 1481 1489 1496 1500 1506 1518 0 0 0 1752 1752 1752 1749 1731 1715 1704 1696 1694 1687 1685 1679 1673 1668 1666 1664 1659 1654 1648 1641 1637 1633 1629 1626 1622 1618 1616 1612 1608 1605 1602 1599 1596 1593 1591 1588 1586 1583 1580 1577 1575 1573 1571 1568 1566 1564 1563 1561 1560 1558 1558 1556 1555 1554 1552 1551 1551 1550 1548 1548 1545 1545 1543 1542 1541 1539 1539 1537 1536 1535 1535 1534 1533 1532 1531 1531 1531 1529 1528 1527 1526 1525 1524 1523 1521 1520 1520 1519 1517 1517 1516 1516 1515 1515 1514 1513 1513 1512 1511 1510 1509 1508 1508 1506 1506 1506 1505 1504 1504 1504 1503 1503 1503 1502 1502 1502 1502 1501 1501 1501 1501 1501 1500 1499 1499 1499 1498 1498 1497 1497 1497 1496 1495 1495 1495 1495 1495 1495 1494 1494 1493 1493 1492 1492 1492 1491 1491 1491 1491 1490 1490 1490 1489 1489 1489 1489 1489 1489 1489 1489 1487 1486 1486 1486 1485 1484 1484 1484 1484 1484 1484 1484 1482 1482 1481 1480 1479 1479 1479 1478 1477 1477 1477 1476 1476 1476 1475 1475 1475 1475 1475 1474 1473 1471 1471 1470 1469 1468 1466 1465 1464 1463 1462 1461 1460 1460 1460 1460 1460 1460 1460 1460 1461 1461 1462 1462 1462 1463 1464 1465 1466 1466 1466 1467 1469 1470 1471 1471 1472 1472 1473 1474 1474 1474 1475 1475 1475 1477 1477 1477 1476 1475 1474 1474 1474 1474 1472 1472 1471 1470 1469 1469 1469 1469 1467 1466 1465 1464 1463 1460 1457 1453 1453 1453 1453 1453 1452 1450 1443 1438 1438 1437 1437 1435 1433 1420 1416 1410 1409 0
998 998 1006 1017 1027 1033 1040 1050 1060 1069 1077 1080 1094 1106 1115 1124 1135 1147 1159 1167 1178 1187 1199 1208 1213 1221 1230 1239 1249 1261 1275 1289 1302 1313 1323 1332 1341 1348 1354 1361 1367 1376 1383 1392 1401 1411 1421 1427 1434 1441 1450 1458 1464 1470 1478 1484 1491 1499 1507 1516 1524 1532 1543 1553 1563 1574 1583 1593 1606 1619 1631 1641 1649 1657 1666 1670 1678 1683 1686 1691 1698 1708 1715 1722 1729 1737 1743 1747 1749 1753 1760 1770 1779 1787 1792 1797 1801 1803 1805 1808 1812 1816 1821 1826 1831 1836 1840 1843 1847 1851 1856 1861 1865 1870 1876 1883 1891 1899 1904 1908 1913 1918 1924 1930 1936 1939 1941 1943 1945 1947 1949 1952 1953 1954 1957 1959 1963 1968 1971 1976 1979 1983 1985 1990 1994 1999 2005 2010 2014 2018 2022 2026 2029 2030 2032 2034 2036 2037 2038 2039 2041 2041 2043 2046 2048 2048 2048 2046 2044 2040 2035 2030 2026 2023 2020 2019 2018 2017 2017 2017 2017 2017 2017 2013 2004 1996 1988 1974 0 0 0 0 1241 1198 1172 0 0 0 0 0 0 2659 2880 2947 2960 2963 2966 2966 2966 2964 2963 2959 2957 2956 2956 2956 2961 2969 2969 2969 2959 2828 2585 0 0 0 0 0 0 0 0 0 0 1537 1529 1530 1530 1530 1531 1532 1533 1533 1535 1536 1540 1540 1540 1535 1533 1533 1533 1532 1531 1530 1530 1530 1529 1529 1529 1530 1530 1531 1531 1531 1531 1531 1532 1532 1532 1532 1529 1526 1526 1526 1525 1525 1525 1524 1522 1521 1520 1516 1512 1507 1494 1467 0 0 0 0 1265 1260 1255 1251 1247 1247 1247 1253 1260 1261 1262 1270 1295 1317 1338 1344 1352 0 0 1446 1464 1484 1494 1501 1512 1517 1517 1517 1516 1516 1516 1516 1516 1515 1515 1514 1512 1511 1510 1509 1508 1505 1503 1498 1495 1490 1485 1477 1469 1456 1435 1434 1434 1434 1437 1459 1474 1487 1492 1492 1492 1492 1492 1504 1515 1524 1524 0 0 0 1758 1758 1758 1749 1730 1713 1700 1693 1688 1687 1684 1679 1673 1668 1664 1661 1656 1653 1647 1641 1636 1632 1629 1625 1621 1617 1614 1611 1608 1604 1601 1597 1594 1592 1590 1587 1585 1581 1579 1577 1575 1572 1570 1568 1565 1563 1562 1561 1559 1558 1557 1556 1554 1553 1552 1551 1549 1549 1548 1546 1545 1544 1543 1541 1541 1539 1537 1536 1535 1535 1534 1533 1532 1532 1531 1530 1529 1529 1528 1527 1526 1524 1524 1522 1521 1520 1519 1518 1517 1516 1516 1515 1514 1514 1513 1513 1512 1511 1510 1510 1508 1508 1507 1506 1505 1505 1505 1504 1504 1503 1503 1503 1503 1502 1501 1501 1501 1501 1501 1501 1501 1500 1499 1499 1499 1498 1498 1497 1497 1497 1496 1495 1494 1494 1494 1494 1494 1494 1494 1493 1492 1492 1492 1492 1492 1491 1491 1490 1490 1489 1489 1489 1489 1489 1489 1489 1489 1488 1488 1487 1487 1486 1485 1485 1484 1484 1484 1483 1483 1483 1483 1482 1482 1481 1480 1480 1479 1478 1478 1478 1477 1477 1477 1476 1476 1476 1475 1475 1475 1475 1475 1474 1472 1471 1471 1470 1469 1467 1466 1464 1463 1463 1461 1460 1459 1459 1458 1458 1458 1458 1459 1459 1459 1460 1460 1461 1461 1461 1462 1463 1464 1464 1465 1465 1467 1468 1469 1470 1470 1470 1470 1471 1471 1472 1472 1473 1474 1474 1474 1473 1472 1471 1470 1470 1469 1469 1469 1468 1467 1467 1466 1466 1466 1464 1463 1463 1461 1461 1458 1455 1450 1446 1446 1446 1447 1447 1447 1442 1436 1431 1430 1430 1428 1427 1419 1401 1397 1393 1390 0
998 998 1007 1017 1026 1033 1039 1049 1060 1069 1077 1080 1092 1102 1112 1123 1133 1147 1159 1167 1178 1187 1199 1208 1213 1221 1230 1239 1249 1260 1272 1283 1296 1307 1319 1328 1334 1343 1352 1355 1363 1373 1379 1388 1397 1406 1416 1425 1433 1440 1448 1454 1461 1469 1477 1484 1491 1499 1507 1513 1522 1531 1543 1553 1563 1572 1582 1592 1606 1618 1629 1639 1646 1653 1660 1665 1672 1679 1683 1689 1697 1706 1715 1722 1730 1737 1744 1748 1750 1754 1761 1772 1782 1789 1795 1798 1802 1805 1808 1811 1813 1818 1823 1827 1831 1836 1840 1843 1847 1851 1856 1861 1867 1871 1877 1883 1889 1897 1902 1907 1912 1917 1924 1929 1934 1934 1936 1939 1942 1944 1947 1949 1951 1953 1956 1959 1963 1968 1970 1975 1978 1981 1985 1989 1994 1999 2004 2008 2013 2018 2022 2025 2028 2030 2032 2034 2036 2037 2038 2039 2040 2041 2043 2046 2048 2048 2048 2046 2044 2039 2033 2027 2023 2020 2019 2019 2017 2017 2017 2017 2017 2017 2017 2013 2004 1996 1987 1969 0 0 0 0 1228 1185 1172 0 0 0 0 0 0 2661 2880 2947 2960 2963 2966 2966 2966 2966 2966 2966 2969 2969 2970 2972 2976 2984 2984 2984 2976 2967 2943 2790 2564 0 0 0 0 0 0 0 0 0 0 0 1544 1543 1542 1540 1540 1538 1538 1541 1542 1541 1541 1539 1538 1538 1536 1536 1535 1535 1534 1533 1533 1533 1533 1534 1534 1534 1534 1534 1534 1534 1535 1535 1535 1534 1532 1531 1530 1530 1530 1530 1530 1529 1527 1527 1526 1523 1514 1507 1487 1454 0 0 0 1276 1265 1260 1255 1253 1247 1247 1247 1253 1260 1261 1262 1270 1272 1292 1303 1304 1307 0 0 0 0 1459 1482 1501 1512 1518 1520 1520 1520 1518 1518 1518 1518 1518 1518 1517 1516 1516 1514 1511 1509 1507 1503 1498 1495 1490 1485 1476 1463 1440 1435 1435 1435 1446 1481 1494 1502 1509 1512 1512 1512 1508 1508 1508 1523 1530 1530 0 0 0 1761 1761 1761 1746 1727 1712 1700 1691 1684 1679 1678 1676 1671 1667 1663 1660 1655 1652 1645 1639 1636 1632 1628 1624 1620 1617 1612 1609 1606 1603 1599 1596 1594 1592 1589 1586 1583 1581 1578 1575 1573 1571 1569 1566 1564 1563 1561 1559 1558 1557 1556 1555 1554 1552 1551 1549 1549 1548 1546 1545 1544 1543 1542 1540 1540 1538 1537 1536 1535 1534 1534 1533 1532 1531 1531 1530 1529 1528 1526 1526 1524 1524 1522 1522 1520 1520 1518 1517 1516 1515 1515 1514 1514 1513 1513 1512 1511 1510 1509 1509 1508 1507 1506 1505 1505 1504 1504 1504 1503 1503 1503 1502 1502 1502 1501 1501 1501 1501 1501 1500 1500 1500 1499 1499 1498 1498 1497 1497 1496 1495 1495 1494 1494 1494 1493 1493 1493 1493 1493 1493 1492 1492 1492 1491 1490 1490 1489 1489 1489 1488 1488 1488 1488 1488 1488 1488 1487 1487 1487 1487 1486 1486 1485 1485 1484 1484 1483 1483 1483 1483 1482 1482 1481 1480 1480 1480 1479 1478 1478 1477 1477 1477 1477 1476 1476 1475 1475 1475 1475 1474 1474 1472 1471 1471 1469 1468 1468 1467 1465 1464 1463 1462 1460 1459 1458 1457 1457 1457 1457 1457 1457 1457 1458 1459 1459 1459 1460 1460 1461 1461 1462 1463 1463 1464 1466 1466 1466 1467 1467 1467 1467 1467 1467 1469 1470 1470 1470 1470 1468 1468 1467 1467 1466 1465 1464 1464 1464 1464 1464 1464 1464 1463 1462 1461 1458 1458 1457 1456 1454 1449 1445 1442 1442 1442 1442 1442 1438 1433 1427 1423 1422 1420 1417 1413 1406 1398 1390 1382 1382 0
998 998 1007 1017 1025 1031 1039 1049 1059 1068 1077 1081 1091 1102 1112 1123 1133 1147 1159 1169 1178 1187 1199 1208 1213 1221 1231 1242 1249 1259 1268 1279 1291 1306 1319 1328 1334 1342 1351 1355 1363 1373 1379 1387 1396 1406 1416 1424 1432 1438 1445 1451 1458 1466 1475 1485 1490 1499 1506 1512 1520 1531 1543 1553 1563 1572 1582 1592 1604 1615 1627 1636 1643 1648 1655 1661 1668 1673 1679 1685 1694 1705 1715 1723 1731 1739 1745 1749 1753 1756 1764 1775 1785 1793 1796 1800 1803 1807 1811 1813 1816 1820 1823 1827 1831 1836 1840 1843 1847 1851 1856 1862 1867 1872 1877 1883 1887 1893 1899 1904 1911 1915 1921 1925 1928 1930 1932 1936 1939 1942 1945 1946 1950 1952 1954 1956 1960 1965 1969 1972 1976 1980 1985 1989 1994 1999 2003 2008 2013 2017 2022 2025 2027 2030 2032 2034 2035 2037 2038 2039 2040 2041 2043 2046 2048 2048 2048 2046 2044 2039 2033 2026 2023 2020 2017 2016 2016 2015 2015 2015 2017 2017 2017 2013 2004 1996 1987 1959 0 0 0 0 1228 1183 1172 0 0 0 0 0 0 2659 2880 2938 2950 2959 2967 2967 2967 2970 2971 2971 2979 2980 2982 2984 2989 2989 2989 2987 2987 2987 2986 2986 2928 2879 2605 0 0 0 0 0 0 0 0 0 0 0 0 1558 1555 1545 1545 1545 1544 1544 1544 1541 1540 1540 1539 1539 1538 1538 1538 1538 1538 1538 1538 1537 1537 1536 1536 1536 1537 1537 1537 1537 1537 1536 1535 1535 1535 1535 1536 1536 1536 1535 1533 1533 1533 1530 1522 1508 1472 1437 0 0 1305 1276 1265 1260 1255 1254 1248 1248 1248 1253 1260 1261 1262 1270 1272 1291 1301 1303 1307 1320 0 0 0 0 1482 1502 1513 1521 1523 1523 1523 1521 1520 1520 1520 1520 1520 1520 1519 1518 1514 1511 1509 1507 1503 1498 1495 1490 1484 1476 1463 1440 1440 1440 1455 1495 1516 1518 1519 1519 1522 1522 1522 1522 1522 1522 1526 1536 1536 0 0 0 1760 1760 1760 1741 1724 1708 1697 1690 1684 1679 1676 1674 1668 1664 1662 1659 1654 1649 1643 1639 1635 1631 1627 1623 1617 1615 1611 1608 1606 1601 1598 1596 1593 1590 1588 1585 1582 1580 1578 1575 1573 1570 1568 1566 1564 1562 1561 1559 1558 1557 1555 1554 1553 1552 1551 1549 1548 1547 1546 1545 1543 1542 1541 1540 1538 1537 1536 1535 1535 1533 1533 1533 1531 1531 1529 1528 1528 1527 1525 1524 1523 1522 1521 1520 1520 1518 1518 1516 1515 1514 1514 1513 1513 1513 1512 1511 1510 1509 1509 1508 1507 1506 1506 1505 1504 1504 1504 1503 1503 1503 1502 1502 1502 1502 1501 1501 1500 1500 1500 1500 1499 1499 1499 1498 1498 1498 1497 1497 1495 1495 1494 1494 1494 1493 1493 1493 1493 1493 1492 1492 1492 1492 1492 1490 1490 1489 1489 1488 1488 1487 1487 1487 1487 1487 1486 1486 1486 1486 1486 1485 1485 1484 1484 1484 1483 1483 1483 1483 1482 1481 1481 1481 1480 1480 1480 1479 1479 1478 1478 1477 1477 1477 1476 1476 1475 1475 1475 1475 1475 1474 1472 1472 1470 1469 1469 1468 1467 1466 1464 1463 1462 1460 1460 1459 1457 1456 1456 1455 1455 1455 1456 1456 1456 1457 1457 1458 1458 1459 1460 1460 1461 1461 1462 1464 1464 1464 1464 1464 1464 1464 1465 1464 1464 1464 1464 1464 1464 1464 1464 1464 1464 1464 1463 1461 1461 1461 1461 1462 1462 1462 1461 1459 1458 1457 1454 1453 1451 1450 1449 1447 1442 1439 1437 1435 1432 1430 1428 1427 1423 1418 1416 1415 1415 1407 1399 1396 1385 1376 1376 0
998 998 1009 1018 1025 1031 1039 1049 1059 1066 1076 1081 1091 1102 1112 1123 1133 1147 1160 1171 1181 1190 1199 1209 1219 1223 1234 1245 1251 1259 1268 1278 1290 1304 1319 1328 1334 1342 1351 1355 1363 1373 1379 1387 1396 1406 1416 1424 1430 1436 1443 1448 1455 1463 1475 1485 1491 1500 1506 1512 1520 1531 1543 1553 1563 1572 1582 1593 1603 1613 1622 1631 1638 1643 1650 1655 1662 1667 1674 1682 1691 1704 1715 1724 1733 1741 1747 1752 1755 1760 1768 1777 1786 1793 1799 1804 1808 1811 1813 1816 1818 1821 1823 1826 1830 1835 1839 1843 1847 1851 1856 1862 1867 1872 1877 1881 1886 1891 1896 1902 1907 1912 1917 1921 1923 1926 1929 1934 1938 1942 1943 1944 1947 1950 1953 1955 1957 1961 1965 1969 1973 1977 1982 1987 1992 1998 2003 2007 2012 2017 2021 2023 2026 2029 2032 2033 2035 2037 2037 2039 2040 2040 2043 2045 2047 2047 2047 2046 2044 2038 2031 2025 2022 2019 2015 2013 2011 2010 2010 2011 2011 2011 2011 2008 2004 1996 1982 1944 0 0 0 0 1228 1183 1175 0 0 0 0 0 0 2656 2872 2930 2946 2959 2967 2967 2967 2971 2971 2971 2980 2987 2991 2996 3000 3000 3000 3002 3002 3007 3011 3013 3013 3011 3006 2922 2714 2564 0 0 0 0 0 0 0 0 0 0 0 0 1562 1553 1552 1547 1544 1544 1543 1543 1543 1541 1541 1540 1540 1540 1540 1540 1540 1539 1539 1539 1539 1539 1539 1539 1539 1539 1539 1539 1539 1539 1539 1539 1539 1539 1539 1539 1539 1538 1537 1535 1529 1509 1472 1437 0 0 1305 1293 1284 1268 1263 1260 1260 1255 1255 1255 1268 1272 1272 1274 1275 1291 1301 1303 1307 1320 0 0 0 0 1482 1502 1519 1527 1527 1527 1527 1525 1524 1523 1522 1522 1522 1522 1521 1519 1514 1511 1509 1509 1505 1498 1494 1488 1484 1476 1463 1463 1463 1464 1495 1524 1524 1524 1526 1526 1526 1526 1526 1526 1526 1526 1527 1536 1551 0 0 1741 1759 1759 1759 1741 1721 1704 1697 1689 1683 1679 1676 1670 1665 1663 1660 1656 1652 1647 1642 1639 1634 1631 1626 1620 1617 1612 1609 1606 1604 1601 1597 1594 1592 1589 1587 1584 1581 1579 1576 1575 1572 1570 1567 1566 1564 1562 1560 1559 1557 1556 1555 1553 1553 1552 1550 1549 1547 1546 1545 1544 1543 1542 1540 1539 1537 1537 1536 1534 1534 1533 1533 1531 1531 1530 1529 1528 1528 1526 1525 1524 1523 1522 1520 1520 1519 1518 1517 1516 1515 1514 1513 1512 1512 1512 1511 1510 1510 1508 1508 1507 1507 1506 1505 1505 1504 1503 1503 1503 1503 1502 1502 1501 1501 1501 1501 1500 1500 1500 1500 1499 1499 1499 1498 1498 1498 1498 1497 1496 1495 1495 1494 1494 1494 1493 1492 1492 1492 1492 1492 1492 1491 1491 1491 1490 1489 1489 1488 1488 1488 1487 1486 1486 1486 1486 1486 1486 1486 1486 1485 1484 1484 1484 1484 1484 1483 1483 1483 1483 1482 1481 1481 1481 1480 1480 1480 1479 1479 1478 1478 1477 1477 1477 1476 1476 1475 1475 1475 1475 1474 1474 1472 1471 1469 1469 1468 1467 1465 1464 1463 1462 1461 1460 1459 1457 1457 1456 1454 1454 1454 1454 1454 1455 1455 1455 1455 1456 1456 1458 1459 1459 1460 1460 1462 1462 1463 1463 1463 1463 1463 1463 1463 1462 1462 1462 1462 1462 1461 1461 1460 1460 1460 1460 1460 1460 1460 1460 1460 1458 1457 1456 1456 1456 1455 1453 1452 1451 1449 1448 1447 1445 1441 1437 1433 1430 1425 1425 1424 1424 1418 1417 1414 1414 1409 1402 1390 1386 1384 1376 1370 0
997 997 1009 1018 1025 1031 1041 1051 1059 1066 1076 1086 1091 1102 1112 1124 1136 1150 1161 1173 1183 1193 1202 1211 1220 1225 1234 1245 1252 1259 1268 1278 1290 1304 1319 1328 1335 1342 1351 1355 1364 1373 1380 1387 1396 1406 1416 1424 1430 1436 1442 1446 1453 1463 1475 1487 1492 1500 1506 1512 1520 1531 1544 1553 1564 1573 1583 1592 1601 1608 1617 1626 1633 1641 1648 1653 1658 1664 1671 1679 1690 1704 1716 1726 1734 1743 1750 1755 1758 1764 1771 1782 1790 1797 1802 1807 1811 1813 1815 1817 1819 1821 1823 1825 1828 1832 1838 1842 1847 1852 1857 1862 1867 1872 1875 1879 1884 1889 1895 1899 1903 1907 1912 1917 1921 1925 1928 1933 1937 1940 1942 1944 1947 1949 1951 1953 1956 1958 1962 1965 1968 1972 1977 1981 1986 1992 1999 2005 2010 2017 2019 2023 2025 2028 2031 2033 2035 2035 2036 2038 2039 2040 2042 2045 2047 2047 2047 2046 2044 2035 2028 2023 2020 2017 2010 2005 2005 2005 2006 2007 2007 2007 2007 2006 2003 1994 1973 1937 0 0 0 0 0 1183 0 0 0 0 0 0 0 2646 2860 2930 2946 2959 2976 2976 2976 2974 2974 2974 2981 2989 2997 3008 3014 3014 3014 3015 3015 3023 3037 3037 3037 3028 3024 3020 3007 3004 2857 2597 0 0 0 0 0 0 0 0 0 0 0 1570 1569 1560 1551 1549 1547 1544 1544 1544 1544 1541 1541 1541 1542 1542 1542 1542 1542 1542 1542 1542 1542 1542 1542 1542 1542 1542 1542 1542 1542 1542 1542 1543 1543 1543 1542 1542 1539 1537 1531 1511 1472 0 0 0 1311 1303 1293 1291 1284 1279 1274 1258 1258 1258 1270 1280 1280 1283 1284 1291 1301 1316 1324 1331 0 0 0 0 1489 1516 1529 1529 1529 1529 1529 1529 1528 1526 1524 1524 1524 1524 1524 1519 1513 1510 1509 1508 1503 1497 1492 1487 1485 1478 1478 1478 1487 1501 1529 1534 1534 1534 1529 1529 1529 1530 1530 1530 1530 1530 1534 1552 0 0 0 1754 1758 1758 1758 1737 1717 1703 1696 1687 1683 1679 1674 1669 1665 1660 1656 1652 1648 1644 1640 1638 1634 1629 1624 1619 1615 1612 1608 1605 1602 1600 1597 1593 1590 1587 1585 1582 1580 1578 1576 1574 1572 1570 1567 1566 1564 1562 1560 1559 1557 1556 1554 1553 1552 1551 1550 1548 1547 1545 1544 1543 1542 1541 1540 1539 1537 1536 1536 1534 1534 1533 1532 1531 1530 1529 1529 1528 1527 1526 1524 1523 1522 1521 1520 1519 1518 1517 1516 1515 1513 1513 1512 1511 1511 1511 1511 1509 1509 1508 1508 1507 1507 1506 1505 1504 1503 1503 1503 1503 1502 1502 1502 1501 1501 1500 1500 1500 1500 1500 1500 1499 1498 1498 1498 1498 1498 1497 1497 1496 1495 1495 1494 1494 1493 1493 1492 1492 1492 1491 1491 1491 1491 1490 1490 1490 1489 1488 1488 1488 1487 1487 1486 1486 1486 1486 1486 1485 1485 1485 1485 1484 1484 1484 1484 1484 1483 1483 1482 1482 1482 1481 1481 1481 1480 1480 1480 1479 1479 1479 1478 1478 1477 1477 1476 1476 1476 1475 1475 1475 1474 1473 1472 1471 1469 1468 1467 1467 1465 1464 1462 1461 1460 1460 1458 1457 1456 1453 1453 1453 1453 1453 1452 1452 1452 1452 1453 1453 1455 1456 1457 1458 1458 1460 1461 1462 1462 1463 1463 1463 1463 1462 1462 1462 1461 1461 1461 1461 1461 1459 1458 1458 1458 1459 1459 1459 1458 1457 1456 1456 1454 1454 1453 1453 1451 1448 1446 1445 1444 1442 1441 1441 1438 1436 1433 1430 1425 1423 1422 1418 1416 1414 1412 1409 1404 1395 1390 1386 1384 1376 1370 0
996 996 1009 1018 1025 1036 1041 1051 1058 1066 1076 1086 1091 1103 1113 1124 1136 1150 1161 1173 1183 1193 1202 1211 1220 1225 1234 1245 1252 1264 1270 1278 1290 1305 1320 1329 1336 1343 1351 1362 1365 1374 1381 1389 1398 1407 1416 1423 1430 1436 1442 1446 1453 1463 1476 1488 1493 1502 1508 1513 1521 1532 1545 1554 1564 1573 1583 1592 1599 1605 1611 1619 1627 1637 1646 1651 1656 1661 1668 1677 1689 1703 1718 1728 1735 1745 1754 1756 1761 1767 1776 1786 1795 1802 1807 1810 1813 1815 1817 1817 1819 1821 1823 1825 1828 1832 1838 1842 1847 1853 1857 1862 1866 1871 1874 1877 1883 1888 1893 1896 1900 1904 1910 1915 1920 1924 1928 1933 1936 1939 1941 1944 1946 1948 1949 1951 1953 1956 1959 1962 1965 1968 1971 1975 1980 1985 1993 2000 2007 2014 2016 2021 2024 2027 2029 2030 2032 2033 2033 2035 2038 2040 2042 2044 2046 2046 2046 2044 2039 2031 2021 2017 2013 2008 2002 1996 1996 1996 1999 2003 2005 2005 2005 2003 1998 1986 1966 1933 0 0 0 0 0 0 0 0 0 0 0 0 0 2646 2860 2930 2946 2968 2976 2983 2983 2983 2984 2984 2987 3000 3009 3018 3023 3024 3027 3027 3028 3034 3042 3042 3042 3042 3042 3042 3038 3038 3038 3015 3000 2766 2593 0 0 0 0 0 0 0 0 1570 1569 1560 1556 1554 1554 1554 1548 1547 1546 1544 1544 1544 1544 1544 1544 1545 1545 1545 1545 1545 1545 1545 1545 1545 1545 1545 1545 1545 1545 1546 1546 1547 1547 1547 1546 1546 1542 1542 1539 1535 1508 0 0 0 0 1334 1327 1305 1305 1304 1304 1278 1278 1278 1283 1293 1294 1296 1296 1297 1311 1321 1344 0 0 0 0 0 1508 1527 1531 1531 1531 1531 1531 1530 1530 1530 1529 1528 1527 1526 1524 1519 1513 1510 1509 1508 1503 1495 1492 1492 1492 1510 1519 1527 1529 1534 1545 1545 1545 1535 1529 1529 1529 1539 1539 1541 1542 1542 1554 1574 0 0 1721 1756 1756 1756 1755 1734 1717 1703 1694 1686 1683 1679 1674 1669 1663 1659 1655 1650 1645 1640 1636 1634 1631 1627 1623 1619 1614 1610 1606 1602 1600 1598 1594 1591 1588 1586 1584 1581 1580 1578 1575 1574 1571 1569 1567 1565 1564 1562 1560 1558 1557 1556 1554 1553 1551 1550 1548 1547 1547 1545 1544 1543 1542 1541 1539 1538 1537 1536 1535 1534 1533 1532 1531 1531 1530 1529 1528 1527 1526 1525 1524 1523 1521 1520 1519 1517 1517 1516 1515 1514 1513 1512 1511 1511 1510 1510 1509 1508 1508 1508 1507 1507 1506 1506 1505 1504 1503 1503 1502 1502 1502 1502 1501 1501 1501 1500 1500 1500 1500 1499 1499 1499 1498 1498 1498 1498 1497 1497 1497 1496 1495 1494 1494 1494 1493 1493 1492 1492 1492 1491 1491 1491 1490 1490 1490 1490 1489 1488 1488 1487 1487 1487 1486 1486 1486 1486 1485 1485 1485 1485 1485 1484 1484 1484 1484 1484 1483 1483 1482 1482 1482 1482 1482 1481 1481 1481 1480 1480 1479 1479 1479 1478 1477 1477 1477 1476 1476 1475 1475 1474 1474 1473 1472 1471 1469 1468 1466 1466 1464 1463 1462 1460 1459 1459 1458 1456 1455 1453 1453 1452 1452 1452 1452 1452 1452 1452 1452 1453 1454 1455 1457 1458 1458 1459 1461 1462 1462 1463 1463 1463 1463 1462 1462 1462 1461 1461 1461 1461 1460 1459 1458 1458 1458 1458 1458 1458 1457 1456 1455 1454 1454 1453 1451 1450 1448 1447 1444 1442 1440 1438 1438 1438 1438 1435 1433 1429 1425 1423 1420 1418 1415 1413 1411 1408 1403 1395 1390 1386 1384 1378 1370 0
996 996 1009 1018 1025 1036 1041 1051 1055 1065 1075 1086 1091 1103 1113 1126 1140 1150 1161 1173 1183 1193 1202 1211 1220 1225 1233 1240 1252 1264 1274 1282 1293 1306 1320 1330 1336 1345 1355 1363 1368 1374 1382 1390 1400 1408 1416 1424 1430 1437 1442 1446 1453 1466 1480 1492 1501 1506 1512 1517 1525 1534 1545 1554 1564 1573 1583 1591 1596 1601 1606 1615 1625 1634 1643 1649 1654 1659 1667 1676 1688 1703 1718 1730 1739 1748 1754 1757 1762 1771 1781 1790 1799 1806 1811 1813 1816 1818 1818 1819 1821 1822 1824 1825 1828 1832 1838 1842 1848 1854 1858 1862 1865 1870 1873 1877 1882 1887 1890 1894 1898 1904 1910 1915 1920 1924 1928 1931 1934 1937 1939 1942 1945 1946 1947 1948 1950 1953 1956 1959 1963 1965 1968 1971 1975 1980 1987 1995 2004 2010 2015 2018 2022 2024 2026 2027 2029 2029 2031 2033 2035 2037 2039 2041 2042 2042 2042 2041 2035 2024 2014 2006 1999 1995 1990 1988 1988 1988 1993 1996 1998 1998 1998 1991 1984 1970 1945 0 0 0 0 0 0 0 0 0 0 0 0 0 0 2646 2860 2933 2959 2968 2976 2983 2983 2983 2984 2984 2989 3004 3017 3031 3035 3035 3036 3036 3036 3039 3043 3046 3046 3046 3046 3046 3046 3046 3046 3046 3044 3044 3034 3028 2877 2635 0 0 0 0 0 0 1570 1560 1556 1556 1554 1554 1548 1548 1548 1548 1548 1548 1548 1548 1548 1548 1548 1548 1548 1548 1548 1548 1550 1550 1550 1549 1549 1549 1549 1549 1550 1550 1550 1550 1550 1549 1547 1547 1543 1542 1541 0 0 0 0 0 0 0 1333 1322 1319 1315 1315 1309 1309 1309 1309 1310 1312 1312 1317 1330 0 0 0 0 0 1516 1533 1534 1534 1534 1534 1533 1533 1533 1533 1532 1530 1528 1527 1526 1524 1520 1518 1513 1512 1508 1503 1495 1495 1495 1527 1547 1558 1558 1558 1557 1555 1553 1547 1538 1538 1538 1540 1545 1550 1551 1553 1564 1577 1606 0 0 1731 1756 1756 1756 1755 1732 1715 1703 1694 1685 1683 1678 1673 1668 1662 1656 1653 1650 1645 1638 1633 1630 1629 1626 1622 1618 1614 1608 1605 1601 1599 1597 1593 1590 1587 1585 1583 1581 1579 1578 1575 1573 1571 1569 1567 1565 1563 1562 1560 1558 1556 1555 1554 1553 1551 1550 1548 1547 1546 1545 1544 1543 1542 1540 1539 1538 1537 1536 1535 1534 1533 1532 1531 1530 1530 1528 1527 1526 1525 1524 1524 1522 1521 1520 1519 1517 1517 1516 1515 1514 1513 1512 1511 1510 1510 1510 1509 1508 1507 1507 1506 1506 1506 1505 1505 1504 1503 1503 1502 1502 1502 1502 1501 1501 1501 1500 1500 1500 1499 1499 1499 1498 1498 1498 1498 1497 1497 1497 1496 1496 1495 1494 1494 1494 1493 1493 1492 1492 1492 1491 1491 1491 1490 1490 1489 1489 1489 1488 1487 1487 1487 1487 1486 1486 1486 1486 1486 1486 1485 1485 1485 1485 1484 1484 1484 1484 1483 1483 1483 1483 1483 1483 1482 1482 1481 1481 1481 1481 1481 1480 1479 1478 1478 1478 1477 1477 1476 1476 1475 1474 1474 1473 1472 1471 1469 1468 1466 1465 1464 1463 1462 1460 1459 1457 1457 1456 1455 1453 1451 1451 1451 1451 1451 1451 1451 1451 1452 1453 1454 1455 1457 1457 1458 1459 1460 1461 1462 1463 1463 1463 1463 1462 1462 1461 1461 1461 1461 1461 1459 1458 1457 1457 1457 1457 1457 1457 1456 1455 1454 1453 1453 1453 1451 1448 1447 1446 1444 1442 1439 1438 1437 1437 1436 1433 1432 1428 1424 1423 1420 1418 1415 1412 1409 1406 1401 1395 1390 1387 1384 1378 1371 0
996 996 1009 1018 1025 1036 1040 1044 1053 1065 1075 1086 1091 1103 1113 1126 1140 1151 1161 1173 1182 1191 1199 1208 1217 1223 1228 1235 1248 1264 1275 1285 1295 1306 1320 1332 1340 1349 1358 1367 1372 1378 1385 1392 1400 1408 1416 1424 1431 1437 1444 1449 1458 1469 1481 1492 1501 1506 1514 1523 1530 1536 1545 1554 1564 1572 1580 1586 1592 1599 1606 1615 1623 1630 1638 1646 1652 1656 1665 1674 1688 1703 1718 1730 1739 1748 1754 1759 1763 1774 1784 1795 1804 1810 1814 1817 1819 1820 1821 1822 1823 1823 1825 1827 1830 1836 1840 1845 1849 1854 1858 1861 1864 1868 1873 1877 1882 1887 1890 1894 1898 1904 1910 1915 1919 1923 1926 1930 1933 1936 1938 1941 1942 1944 1945 1946 1948 1951 1954 1957 1961 1963 1966 1967 1971 1976 1982 1992 2001 2008 2012 2015 2018 2021 2023 2024 2025 2027 2028 2031 2033 2035 2038 2038 2038 2038 2038 2037 2031 2021 2010 1995 1986 1981 1977 1977 1976 1976 1975 1964 1964 1964 1964 1964 1930 0 0 0 0 0 0 0 0 0 0 0 0 0 0 0 0 2646 2860 2933 2959 2968 2976 2983 2983 2983 2984 2984 2989 3006 3023 3032 3038 3040 3040 3040 3040 3041 3044 3048 3049 3050 3052 3053 3054 3054 3054 3054 3056 3056 3063 3063 3063 3034 2932 0 0 0 0 0 0 1554 1554 1554 1554 1554 1548 1548 1548 1548 1550 1551 1551 1551 1551 1551 1551 1551 1551 1551 1551 1552 1552 1552 1552 1551 1551 1551 1552 1552 1553 1553 1553 1553 1553 1552 1552 1549 1546 1544 1544 1539 1523 0 0 0 0 0 0 0 1331 1331 1331 1328 1331 1332 1331 1331 1331 1331 1331 1346 0 0 0 0 1522 1536 1536 1536 1536 1536 1536 1536 1536 1534 1533 1532 1530 1528 1527 1526 1524 1524 1520 1518 1516 1512 1510 1510 1510 1548 1571 1581 1581 1581 1576 1573 1566 1558 1553 1553 1553 1553 1556 1560 1561 1561 1563 1570 1589 1621 0 0 1752 1766 1766 1766 1754 1730 1715 1703 1694 1684 1681 1676 1671 1666 1659 1656 1652 1650 1645 1638 1633 1629 1627 1625 1621 1616 1613 1608 1604 1601 1599 1596 1592 1589 1587 1585 1583 1580 1578 1577 1575 1572 1570 1568 1566 1564 1563 1561 1560 1558 1556 1555 1554 1552 1551 1550 1548 1547 1546 1545 1543 1542 1542 1540 1539 1537 1537 1536 1535 1534 1533 1532 1531 1530 1529 1528 1526 1525 1525 1524 1523 1521 1520 1520 1519 1517 1516 1515 1515 1513 1512 1511 1511 1510 1510 1509 1509 1508 1507 1507 1506 1506 1505 1505 1504 1504 1503 1503 1502 1502 1502 1502 1501 1501 1501 1500 1500 1499 1499 1499 1498 1498 1498 1497 1497 1497 1497 1496 1496 1496 1495 1494 1494 1494 1493 1493 1492 1492 1492 1491 1491 1491 1490 1490 1489 1489 1488 1488 1487 1487 1487 1487 1486 1486 1486 1486 1486 1486 1485 1485 1485 1485 1485 1485 1485 1484 1483 1483 1483 1483 1483 1483 1482 1482 1482 1482 1481 1481 1481 1481 1480 1479 1479 1478 1477 1477 1476 1476 1475 1474 1474 1473 1471 1470 1469 1468 1466 1465 1464 1462 1462 1460 1458 1457 1456 1455 1455 1453 1451 1451 1450 1450 1450 1450 1450 1451 1451 1452 1454 1455 1456 1457 1458 1459 1460 1461 1462 1463 1463 1463 1463 1463 1462 1461 1460 1460 1460 1460 1459 1457 1457 1456 1456 1456 1455 1455 1455 1454 1453 1453 1453 1451 1450 1447 1445 1445 1444 1442 1439 1437 1436 1435 1434 1432 1428 1426 1424 1422 1420 1418 1414 1411 1409 1402 1400 1395 1393 1387 1384 1378 1371 0
995 995 1006 1017 1025 1029 1032 1042 1053 1065 1074 1083 1089 1099 1111 1126 1140 1150 1161 1173 1182 1190 1199 1208 1217 1223 1228 1235 1248 1263 1275 1286 1295 1309 1324 1337 1346 1353 1363 1370 1376 1383 1389 1395 1403 1409 1416 1424 1431 1438 1445 1453 1460 1469 1481 1492 1501 1506 1514 1523 1530 1536 1545 1551 1560 1570 1578 1585 1592 1599 1606 1614 1622 1627 1632 1641 1652 1656 1665 1674 1687 1703 1718 1730 1739 1748 1754 1759 1764 1774 1785 1796 1805 1812 1817 1819 1821 1822 1822 1823 1825 1826 1827 1828 1832 1836 1842 1847 1850 1854 1858 1860 1864 1868 1873 1878 1882 1886 1890 1894 1898 1904 1910 1914 1919 1922 1925 1928 1931 1934 1937 1939 1940 1941 1943 1944 1946 1949 1952 1956 1959 1962 1964 1966 1968 1974 1980 1988 1996 2003 2007 2011 2015 2017 2021 2022 2023 2024 2026 2029 2031 2033 2033 2033 2033 2032 2031 2030 2026 2017 2004 1989 1974 1963 1963 1962 1958 1958 1941 1933 0 0 0 0 0 0 0 0 0 0 0 0 0 0 0 0 0 0 0 0 0 2646 2860 2933 2954 2954 2954 2954 2954 2968 2971 2977 2989 3006 3023 3032 3039 3041 3044 3045 3048 3048 3049 3050 3056 3060 3064 3066 3068 3068 3068 3063 3063 3063 3071 3073 3073 3073 2932 2735 0 0 0 0 0 0 0 1526 1532 1532 1541 1541 1543 1548 1550 1551 1551 1551 1551 1551 1552 1552 1552 1554 1554 1556 1556 1556 1554 1553 1553 1553 1555 1555 1555 1556 1557 1557 1557 1557 1553 1553 1548 1548 1548 1548 1546 1544 1542 1530 0 0 0 0 0 0 1343 1343 1345 1348 1348 1348 1350 1352 1362 0 0 0 0 1536 1542 1542 1542 1540 1540 1539 1539 1538 1536 1536 1533 1533 1530 1528 1526 1524 1524 1524 1524 1524 1518 1518 1518 1522 1557 1587 1612 1612 1612 1601 1595 1589 1580 1569 1561 1561 1561 1567 1569 1569 1569 1569 1569 1572 1590 1621 0 1718 1758 1767 1767 1767 1751 1728 1716 1703 1694 1684 1678 1675 1669 1664 1659 1655 1652 1649 1644 1638 1633 1629 1625 1624 1620 1615 1611 1607 1604 1601 1598 1596 1592 1589 1587 1585 1582 1580 1578 1577 1575 1572 1570 1568 1566 1564 1563 1561 1560 1558 1556 1555 1553 1552 1550 1549 1547 1547 1545 1545 1543 1542 1541 1540 1538 1537 1537 1536 1535 1534 1533 1532 1531 1530 1529 1527 1526 1525 1524 1523 1522 1521 1520 1519 1518 1517 1516 1515 1514 1513 1512 1511 1510 1510 1509 1509 1509 1508 1507 1506 1506 1506 1505 1504 1504 1503 1503 1503 1502 1502 1502 1502 1501 1501 1500 1500 1500 1499 1499 1498 1498 1497 1497 1497 1496 1496 1496 1496 1496 1495 1494 1494 1494 1494 1493 1492 1492 1492 1492 1491 1491 1490 1490 1490 1489 1488 1488 1487 1487 1487 1487 1487 1486 1486 1486 1486 1486 1486 1486 1485 1485 1485 1485 1485 1485 1484 1483 1483 1483 1483 1483 1483 1483 1483 1482 1482 1482 1481 1481 1481 1480 1480 1479 1478 1478 1477 1477 1476 1475 1474 1474 1473 1471 1470 1469 1468 1466 1465 1463 1462 1461 1459 1458 1457 1455 1455 1454 1453 1451 1450 1449 1449 1449 1449 1449 1450 1451 1452 1453 1455 1456 1457 1458 1459 1460 1461 1462 1463 1463 1463 1463 1463 1462 1461 1460 1459 1459 1459 1459 1457 1456 1456 1455 1455 1454 1454 1453 1452 1452 1452 1452 1451 1450 1446 1445 1444 1442 1441 1439 1436 1434 1434 1431 1429 1427 1424 1423 1421 1419 1416 1412 1411 1407 1402 1400 1395 1393 1387 1380 1377 1371 0
995 995 1003 1012 1024 1029 1032 1042 1053 1064 1074 1080 1088 1094 1105 1121 1138 1150 1162 1172 1182 1190 1198 1207 1216 1223 1228 1235 1248 1263 1275 1286 1297 1312 1328 1341 1351 1358 1366 1374 1382 1386 1393 1398 1403 1409 1416 1424 1432 1439 1445 1453 1460 1469 1481 1490 1500 1504 1514 1523 1530 1536 1542 1549 1560 1570 1578 1585 1592 1599 1606 1614 1622 1627 1632 1641 1652 1656 1665 1674 1687 1703 1715 1727 1738 1748 1754 1759 1764 1774 1785 1796 1806 1813 1818 1820 1823 1824 1825 1826 1826 1828 1828 1830 1834 1837 1843 1847 1851 1853 1857 1860 1863 1868 1873 1878 1882 1886 1890 1894 1898 1904 1910 1914 1918 1921 1923 1926 1930 1934 1936 1938 1939 1940 1942 1943 1944 1947 1951 1954 1957 1960 1963 1964 1967 1972 1978 1984 1992 1998 2003 2008 2012 2017 2019 2020 2022 2023 2024 2027 2028 2030 2030 2030 2028 2025 2023 2021 2014 2003 1987 1966 1945 0 0 0 0 0 0 0 0 0 0 0 0 0 0 0 0 0 0 0 0 0 0 0 0 0 0 0 0 0 2836 2872 2872 2872 2830 2830 2830 2923 2960 2970 2988 3006 3023 3032 3039 3043 3046 3049 3053 3058 3059 3061 3065 3071 3074 3077 3079 3079 3079 3073 3073 3073 3080 3080 3080 3073 2932 2735 0 0 0 0 0 0 0 1470 1478 1502 1528 1530 1531 1539 1550 1551 1551 1551 1551 1551 1552 1552 1553 1554 1554 1556 1556 1556 1556 1554 1554 1554 1557 1557 1558 1558 1560 1560 1560 1559 1558 1556 1555 1555 1555 1555 1556 1556 1552 1552 1542 0 0 0 0 0 0 0 0 1373 1373 1376 1378 1380 1401 0 0 0 1539 1543 1544 1544 1544 1542 1542 1542 1542 1541 1537 1536 1533 1533 1532 1528 1525 1525 1525 1525 1525 1525 1521 1521 1521 0 0 1628 1632 1632 1632 1621 1612 1605 1595 1579 1569 1569 1569 1569 1574 1574 1574 1573 1573 1573 1591 1624 0 1724 1759 1770 1770 1770 1750 1728 1714 1701 1694 1684 1677 1673 1669 1663 1659 1654 1652 1649 1644 1637 1633 1628 1625 1622 1618 1614 1611 1606 1602 1599 1597 1595 1592 1589 1587 1585 1582 1580 1578 1576 1574 1572 1570 1568 1566 1564 1562 1561 1560 1558 1556 1555 1553 1551 1550 1548 1547 1546 1545 1544 1542 1541 1540 1539 1538 1537 1536 1535 1535 1533 1533 1532 1531 1530 1528 1527 1525 1524 1523 1522 1520 1519 1519 1518 1517 1516 1515 1515 1514 1513 1512 1511 1510 1509 1509 1508 1508 1507 1507 1506 1506 1505 1505 1504 1503 1503 1503 1503 1502 1502 1502 1502 1501 1501 1501 1500 1500 1499 1498 1498 1497 1497 1497 1496 1496 1496 1495 1495 1495 1495 1494 1494 1494 1494 1493 1493 1492 1492 1492 1491 1491 1490 1490 1490 1488 1488 1488 1487 1487 1487 1486 1486 1486 1486 1486 1486 1486 1486 1486 1486 1485 1485 1485 1485 1485 1484 1483 1483 1483 1483 1483 1483 1483 1483 1482 1482 1482 1482 1482 1481 1481 1480 1479 1478 1478 1478 1477 1476 1475 1474 1473 1472 1471 1470 1468 1467 1466 1465 1463 1462 1461 1459 1458 1457 1455 1454 1453 1453 1451 1449 1449 1449 1449 1449 1449 1449 1450 1452 1453 1455 1456 1456 1458 1459 1460 1461 1462 1462 1463 1463 1463 1463 1462 1460 1460 1459 1458 1458 1458 1457 1455 1455 1454 1454 1454 1452 1452 1452 1452 1452 1452 1450 1448 1445 1444 1443 1441 1439 1437 1436 1433 1433 1431 1428 1426 1424 1422 1420 1419 1415 1411 1410 1407 1402 1400 1397 1393 1386 1380 1374 1370 0
995 995 1002 1012 1024 1029 1032 1042 1054 1064 1073 1079 1086 1091 1100 1115 1133 1150 1162 1172 1182 1190 1198 1207 1216 1225 1229 1237 1249 1263 1275 1286 1297 1312 1328 1343 1355 1361 1368 1377 1384 1389 1394 1398 1404 1410 1416 1425 1433 1440 1446 1453 1460 1469 1477 1485 1494 1501 1507 1517 1526 1532 1540 1549 1559 1570 1577 1584 1592 1599 1607 1614 1622 1627 1632 1641 1652 1657 1667 1677 1687 1703 1715 1727 1737 1747 1754 1759 1764 1774 1785 1796 1806 1813 1820 1822 1824 1826 1827 1827 1828 1828 1829 1831 1834 1839 1843 1847 1851 1853 1855 1858 1863 1868 1873 1878 1882 1886 1890 1894 1898 1904 1909 1913 1917 1919 1923 1925 1929 1933 1936 1937 1937 1939 1941 1942 1944 1945 1948 1952 1956 1958 1961 1963 1966 1970 1976 1981 1986 1992 1999 2004 2009 2013 2015 2017 2018 2020 2022 2023 2024 2024 2024 2024 2024 2020 2015 2011 2001 1990 1971 0 0 0 0 0 0 0 0 0 0 0 0 0 0 0 0 0 0 0 0 0 0 0 0 0 0 0 0 0 0 0 0 0 0 0 0 0 2605 2800 2884 2957 2987 3003 3017 3031 3040 3048 3053 3057 3059 3065 3067 3069 3072 3076 3077 3077 3079 3080 3080 3082 3082 3082 3097 3097 3097 3073 2912 2576 0 0 0 0 1394 1394 1430 1458 1473 1477 1507 1507 1511 1511 1527 1528 1539 1548 1550 1550 1552 1552 1553 1554 1556 1557 1557 1557 1557 1557 1557 1560 1560 1560 1561 1561 1561 1562 1562 1562 1562 1560 1559 1559 1559 1559 1559 1558 1558 1558 1558 1558 1548 1539 0 0 0 0 0 0 0 1393 1393 1414 0 0 0 1541 1546 1551 1551 1551 1549 1546 1546 1545 1544 1541 1536 1533 1533 1533 1530 1528 1523 1523 1523 1525 1530 1535 1535 1545 0 0 1647 1647 1647 1641 1632 1621 1612 1606 1595 1579 1569 1569 1569 1569 1574 1574 1574 1573 1573 1573 1591 1625 0 1727 1761 1771 1771 1771 1749 1727 1713 1701 1696 1686 1677 1673 1668 1663 1658 1654 1651 1649 1642 1637 1632 1628 1624 1621 1617 1614 1609 1606 1602 1599 1597 1594 1591 1589 1587 1585 1582 1580 1577 1575 1573 1571 1569 1567 1566 1564 1562 1560 1559 1557 1555 1554 1553 1551 1549 1548 1546 1545 1544 1543 1542 1541 1540 1539 1538 1537 1536 1535 1534 1532 1531 1531 1530 1528 1527 1526 1525 1523 1522 1521 1520 1519 1518 1518 1517 1516 1515 1514 1512 1512 1511 1510 1509 1509 1508 1508 1508 1507 1507 1506 1506 1505 1504 1504 1503 1503 1503 1503 1502 1502 1502 1501 1501 1501 1501 1500 1500 1499 1498 1497 1497 1497 1496 1496 1495 1495 1495 1495 1495 1494 1494 1494 1493 1493 1493 1493 1492 1492 1492 1491 1491 1490 1490 1489 1488 1488 1488 1487 1487 1486 1486 1486 1486 1486 1486 1486 1486 1486 1486 1486 1486 1485 1485 1485 1485 1484 1484 1484 1483 1483 1483 1483 1483 1483 1483 1483 1482 1482 1482 1482 1481 1480 1479 1479 1478 1478 1477 1476 1475 1474 1473 1472 1471 1470 1468 1466 1465 1464 1463 1462 1460 1459 1458 1457 1455 1454 1453 1452 1451 1449 1449 1448 1448 1448 1449 1449 1450 1451 1453 1453 1455 1456 1458 1458 1460 1461 1462 1462 1463 1463 1463 1462 1462 1460 1460 1459 1458 1458 1457 1456 1455 1454 1453 1453 1453 1452 1452 1451 1450 1450 1450 1449 1447 1444 1444 1442 1440 1438 1437 1434 1432 1432 1430 1428 1426 1424 1422 1420 1417 1413 1411 1409 1406 1402 1400 1397 1393 1385 1378 1373 1369 0
995 995 1002 1012 1024 1031 1035 1043 1054 1064 1072 1078 1085 1090 1098 1111 1129 1146 1162 1172 1181 1190 1197 1207 1217 1225 1236 1245 1252 1263 1275 1286 1297 1312 1328 1343 1355 1364 1371 1379 1387 1391 1395 1399 1404 1411 1419 1426 1434 1441 1446 1453 1460 1469 1475 1481 1489 1498 1502 1511 1520 1529 1538 1549 1559 1570 1577 1584 1592 1600 1608 1615 1622 1630 1637 1645 1652 1660 1667 1677 1689 1703 1715 1726 1737 1747 1754 1759 1764 1772 1782 1795 1806 1813 1820 1823 1827 1828 1830 1830 1830 1830 1830 1833 1835 1839 1844 1847 1851 1853 1855 1858 1862 1867 1873 1878 1881 1885 1889 1894 1898 1902 1907 1911 1914 1916 1920 1923 1928 1930 1933 1934 1936 1938 1940 1941 1944 1945 1947 1951 1954 1956 1959 1962 1964 1969 1972 1977 1982 1988 1993 1999 2005 2008 2010 2013 2015 2017 2017 2018 2018 2018 2019 2019 2019 2015 2008 2003 1993 1976 1955 0 0 0 0 0 0 0 0 0 0 0 0 0 0 0 0 0 0 0 0 0 0 0 0 0 0 0 0 0 0 0 0 0 0 0 0 0 0 0 2607 2902 2984 3002 3015 3031 3046 3055 3061 3065 3069 3071 3074 3075 3077 3077 3077 3078 3079 3081 3082 3084 3084 3094 3109 3109 3109 3056 2890 2544 0 0 0 1384 1384 1384 1430 1442 1442 1442 1454 1454 1471 1471 1478 1504 1512 1517 1528 1544 1551 1551 1553 1554 1557 1557 1557 1557 1557 1560 1563 1563 1563 1564 1564 1564 1565 1565 1565 1565 1565 1562 1561 1561 1561 1561 1561 1561 1561 1561 1562 1562 1562 1562 1554 1541 1541 0 0 0 0 0 0 0 0 0 1550 1552 1554 1554 1554 1553 1552 1551 1548 1545 1544 1541 1536 1532 1529 1525 1524 1524 1523 1523 1523 1525 1530 1546 0 0 0 1652 1657 1657 1657 1641 1632 1621 1612 1606 1595 1580 1570 1570 1570 1576 1576 1576 1574 1574 1574 1577 1599 1634 0 1743 1768 1770 1770 1770 1747 1725 1712 1701 1696 1686 1677 1672 1667 1663 1658 1654 1648 1645 1640 1635 1631 1627 1623 1620 1616 1612 1608 1604 1601 1599 1595 1593 1591 1589 1587 1584 1582 1579 1576 1574 1572 1570 1568 1566 1565 1563 1562 1560 1559 1557 1555 1554 1552 1550 1549 1547 1546 1544 1543 1543 1542 1540 1540 1538 1537 1536 1534 1534 1533 1532 1531 1530 1528 1528 1526 1525 1524 1522 1522 1521 1520 1519 1518 1517 1517 1515 1514 1514 1512 1511 1511 1510 1509 1509 1508 1508 1507 1507 1507 1506 1505 1505 1504 1504 1503 1503 1502 1502 1502 1502 1501 1501 1501 1501 1501 1500 1499 1499 1498 1497 1496 1496 1496 1496 1495 1495 1494 1494 1494 1494 1494 1493 1493 1493 1493 1492 1492 1492 1491 1491 1491 1490 1489 1489 1488 1487 1487 1487 1486 1486 1486 1486 1486 1486 1486 1486 1486 1486 1486 1486 1486 1486 1485 1485 1485 1484 1484 1484 1484 1483 1483 1483 1483 1483 1483 1483 1483 1483 1482 1482 1481 1481 1480 1479 1478 1478 1477 1476 1474 1474 1472 1471 1471 1469 1468 1466 1465 1464 1463 1461 1460 1459 1457 1456 1455 1453 1453 1452 1450 1448 1448 1447 1447 1447 1447 1448 1449 1451 1452 1453 1454 1456 1457 1458 1459 1461 1462 1462 1462 1462 1462 1462 1462 1460 1460 1459 1458 1458 1457 1456 1455 1454 1453 1453 1453 1451 1451 1450 1450 1449 1447 1447 1445 1444 1444 1441 1440 1438 1436 1433 1431 1430 1430 1428 1426 1424 1422 1420 1416 1412 1409 1406 1405 1401 1400 1397 1389 1382 1376 1372 1369 0
995 995 1002 1017 1026 1031 1035 1043 1054 1061 1070 1076 1083 1089 1095 1107 1123 1143 1157 1167 1176 1186 1196 1207 1217 1226 1240 1247 1257 1265 1275 1285 1297 1309 1325 1343 1355 1364 1373 1383 1390 1394 1398 1402 1407 1414 1421 1427 1434 1441 1446 1453 1460 1468 1474 1479 1487 1493 1499 1508 1516 1524 1535 1547 1559 1570 1577 1585 1593 1602 1611 1619 1626 1634 1639 1645 1652 1660 1668 1677 1689 1703 1715 1726 1737 1746 1753 1758 1762 1771 1782 1795 1805 1814 1820 1823 1827 1829 1830 1831 1832 1832 1833 1835 1837 1840 1844 1847 1850 1853 1854 1857 1861 1867 1873 1878 1880 1883 1887 1892 1897 1901 1905 1909 1912 1914 1917 1921 1925 1928 1930 1932 1934 1937 1939 1941 1944 1945 1947 1949 1951 1955 1957 1959 1963 1966 1970 1973 1977 1983 1990 1996 2001 2005 2007 2010 2011 2012 2012 2012 2012 2013 2016 2016 2016 2013 2007 1998 1986 1968 1932 0 0 0 0 0 0 0 0 0 0 0 0 0 0 0 0 0 0 0 0 0 0 0 0 0 0 0 0 0 0 0 0 0 0 0 0 0 0 0 0 2828 2968 3002 3014 3031 3048 3063 3067 3069 3069 3071 3074 3076 3077 3079 3079 3079 3080 3082 3084 3086 3087 3117 3117 3117 3115 3044 2886 2527 0 0 0 1382 1382 1382 1400 1415 1421 1428 1431 1432 1467 1468 1469 1486 1496 1505 1522 1526 1530 1540 1542 1548 1552 1556 1556 1556 1559 1570 1570 1570 1572 1572 1572 1571 1571 1571 1567 1567 1567 1567 1565 1565 1565 1564 1564 1562 1562 1562 1563 1566 1566 1566 1565 1558 1558 1558 1557 0 0 0 0 0 1530 1549 1555 1556 1556 1556 1555 1553 1553 1551 1548 1545 1544 1542 1534 1523 1523 1523 1521 1521 1519 1519 1519 1520 0 0 0 0 1653 1668 1668 1668 1657 1634 1609 1606 1604 1602 1596 1580 1573 1573 1573 1576 1576 1576 1571 1571 1571 1578 1600 1635 0 1747 1768 1768 1768 1767 1744 1724 1706 1698 1696 1686 1677 1671 1666 1663 1658 1653 1648 1643 1639 1635 1630 1626 1622 1619 1615 1612 1608 1604 1601 1598 1595 1593 1590 1588 1585 1583 1580 1578 1576 1574 1572 1570 1568 1566 1565 1563 1562 1560 1559 1556 1555 1553 1552 1550 1548 1546 1545 1544 1543 1542 1541 1539 1538 1537 1536 1535 1534 1533 1532 1530 1530 1529 1528 1526 1526 1524 1523 1522 1522 1521 1520 1519 1518 1517 1516 1515 1513 1512 1512 1511 1511 1510 1509 1509 1508 1507 1507 1507 1506 1505 1505 1505 1504 1504 1503 1503 1502 1502 1502 1502 1501 1501 1501 1501 1500 1499 1499 1498 1498 1496 1496 1495 1495 1495 1494 1494 1494 1494 1494 1494 1494 1493 1493 1493 1493 1492 1492 1491 1491 1491 1490 1489 1489 1488 1488 1487 1487 1486 1486 1486 1486 1486 1486 1486 1486 1486 1486 1487 1487 1487 1486 1486 1486 1485 1485 1484 1484 1484 1484 1484 1483 1484 1484 1484 1484 1484 1483 1483 1482 1482 1482 1481 1480 1479 1478 1478 1477 1475 1474 1474 1472 1471 1470 1469 1467 1466 1465 1463 1462 1461 1460 1458 1457 1456 1454 1453 1452 1451 1449 1448 1446 1446 1446 1446 1446 1448 1448 1449 1451 1453 1454 1455 1456 1458 1459 1460 1462 1462 1462 1462 1462 1461 1461 1460 1460 1459 1458 1458 1457 1456 1454 1453 1453 1453 1452 1451 1451 1450 1450 1449 1447 1446 1445 1444 1444 1441 1440 1437 1434 1432 1430 1430 1429 1428 1426 1424 1422 1419 1415 1410 1407 1403 1401 1400 1400 1395 1387 1379 1376 1372 1369 0
998 998 1008 1018 1026 1031 1035 1043 1051 1059 1068 1074 1081 1086 1093 1105 1121 1139 1153 1163 1169 1175 1189 1203 1216 1226 1240 1247 1257 1265 1275 1285 1297 1309 1325 1339 1354 1364 1373 1383 1390 1395 1399 1406 1411 1417 1421 1427 1434 1441 1446 1454 1460 1468 1473 1479 1486 1493 1499 1505 1513 1521 1532 1543 1554 1566 1577 1586 1596 1606 1615 1622 1629 1635 1639 1645 1651 1660 1668 1676 1689 1703 1715 1726 1733 1743 1749 1754 1760 1771 1782 1795 1805 1814 1820 1823 1827 1829 1830 1831 1832 1834 1835 1837 1839 1841 1844 1847 1849 1852 1854 1856 1860 1866 1873 1876 1880 1883 1885 1890 1894 1898 1903 1907 1909 1912 1915 1918 1923 1926 1928 1930 1932 1936 1939 1941 1943 1944 1946 1947 1950 1953 1956 1958 1961 1964 1966 1970 1974 1980 1986 1993 1997 2001 2003 2005 2005 2005 2006 2006 2006 2007 2012 2012 2012 2008 2003 1996 1983 1959 1932 0 0 0 0 0 0 0 0 0 0 0 0 0 0 0 0 0 0 2504 2504 2504 0 0 0 0 0 0 0 0 0 0 0 0 0 0 0 0 0 0 0 2810 2962 2991 3011 3031 3048 3063 3067 3069 3069 3071 3074 3076 3079 3079 3079 3079 3080 3084 3086 3087 3096 3128 3128 3128 3115 3027 2864 0 0 0 0 1365 1365 1365 1384 1402 1421 1428 1431 1432 1453 1459 1468 1486 1496 1505 1513 1520 1522 1533 1538 1545 1552 1552 1556 1556 1575 1576 1576 1576 1576 1575 1574 1574 1578 1576 1577 1578 1577 1577 1577 1575 1573 1569 1567 1567 1567 1567 1570 1572 1572 1572 1572 1572 1573 1573 1573 1572 1564 1551 1551 1551 1553 1562 1562 1562 1560 1556 1556 1555 1555 1553 1548 1542 1538 1536 1532 1520 1514 1513 1511 1511 1487 1486 1486 0 0 0 0 1670 1677 1677 1677 1668 1644 1619 1604 1603 1602 1602 1596 1580 1577 1577 1577 1577 1577 1576 1571 1571 1571 1580 1601 1635 0 1747 1768 1768 1768 1759 1742 1719 1706 1698 1687 1679 1677 1671 1664 1660 1655 1650 1646 1642 1638 1634 1630 1626 1622 1618 1614 1611 1607 1603 1600 1597 1594 1591 1589 1586 1584 1582 1580 1577 1575 1573 1571 1569 1567 1566 1564 1563 1561 1560 1557 1556 1554 1553 1552 1550 1548 1546 1545 1544 1542 1541 1540 1538 1537 1535 1535 1534 1533 1532 1531 1530 1529 1529 1527 1526 1525 1524 1523 1522 1521 1520 1520 1518 1517 1516 1515 1514 1513 1512 1511 1511 1510 1509 1509 1508 1508 1507 1507 1506 1506 1505 1505 1504 1504 1503 1503 1503 1502 1502 1502 1501 1501 1501 1500 1500 1500 1499 1499 1498 1496 1495 1495 1494 1494 1494 1493 1493 1493 1493 1493 1493 1493 1493 1493 1493 1492 1492 1492 1491 1491 1490 1490 1489 1489 1488 1487 1487 1487 1486 1486 1486 1486 1486 1486 1486 1486 1486 1486 1487 1487 1487 1487 1487 1486 1486 1485 1485 1484 1484 1484 1484 1483 1483 1483 1484 1484 1484 1483 1483 1482 1482 1482 1481 1480 1479 1478 1477 1476 1475 1474 1472 1472 1471 1469 1468 1467 1465 1464 1463 1461 1460 1459 1458 1456 1456 1454 1453 1452 1450 1449 1447 1446 1446 1446 1446 1446 1447 1448 1449 1450 1451 1452 1454 1455 1458 1459 1460 1460 1461 1461 1461 1461 1461 1461 1460 1460 1459 1458 1457 1457 1456 1454 1453 1453 1452 1452 1451 1451 1450 1449 1448 1447 1446 1445 1444 1443 1441 1440 1437 1434 1432 1430 1429 1428 1428 1426 1424 1422 1419 1415 1410 1407 1403 1398 1397 1395 1389 1382 1378 1376 1372 1370 0
998 998 1009 1018 1026 1031 1031 1038 1046 1054 1062 1070 1076 1084 1088 1101 1116 1134 1146 1156 1162 1170 1182 1195 1208 1226 1240 1247 1257 1265 1276 1285 1298 1309 1325 1338 1351 1362 1373 1383 1390 1395 1399 1407 1413 1417 1422 1428 1434 1440 1446 1454 1460 1468 1473 1478 1485 1492 1499 1505 1511 1518 1529 1540 1552 1565 1577 1590 1602 1610 1618 1624 1630 1635 1640 1644 1648 1656 1666 1674 1688 1703 1715 1723 1730 1737 1745 1754 1760 1771 1783 1795 1805 1813 1818 1823 1827 1829 1830 1832 1833 1835 1837 1839 1840 1843 1844 1847 1849 1852 1854 1856 1860 1865 1871 1875 1880 1883 1885 1888 1892 1896 1900 1904 1908 1911 1914 1917 1920 1923 1924 1927 1931 1934 1938 1939 1941 1942 1944 1947 1950 1952 1955 1957 1959 1961 1963 1966 1970 1976 1981 1985 1990 1994 1999 2001 2001 2001 2000 2000 2000 2003 2004 2004 2004 2002 1997 1991 1978 1959 1920 0 0 0 0 0 0 0 0 0 0 0 0 0 0 0 0 0 2551 2587 2587 2587 0 0 0 0 0 0 0 0 0 0 0 0 0 0 0 0 0 0 0 2810 2962 2991 3011 3031 3048 3063 3067 3067 3069 3070 3074 3077 3080 3080 3080 3082 3082 3084 3089 3095 3108 3128 3128 3128 3115 3005 2817 0 0 0 0 1363 1363 1363 1384 1402 1421 1431 1442 1453 1458 1459 1468 1486 1496 1505 1513 1520 1522 1533 1538 1539 1543 1548 1550 1554 1579 1599 1599 1599 1592 1586 1578 1578 1578 1579 1581 1581 1580 1580 1579 1579 1577 1575 1574 1572 1572 1572 1575 1575 1575 1575 1575 1575 1575 1575 1575 1574 1574 1569 1569 1568 1566 1566 1566 1563 1561 1561 1561 1559 1559 1553 1544 1536 1533 1532 1517 1502 1501 1495 1486 1475 1448 1448 1448 0 0 0 0 1687 1687 1687 1680 1662 1635 1613 1604 1603 1602 1602 1596 1591 1591 1591 1591 1591 1589 1579 1569 1569 1569 1580 1601 1634 0 1747 1768 1768 1768 1759 1742 1719 1706 1695 1687 1679 1670 1669 1663 1657 1653 1649 1645 1642 1638 1633 1630 1624 1620 1617 1613 1610 1606 1602 1600 1596 1593 1591 1588 1585 1583 1582 1579 1577 1575 1572 1571 1569 1567 1566 1564 1562 1561 1559 1557 1555 1554 1553 1551 1549 1547 1545 1544 1542 1541 1540 1539 1538 1537 1535 1534 1533 1532 1532 1530 1529 1529 1528 1527 1526 1525 1524 1522 1522 1521 1520 1519 1518 1517 1516 1515 1513 1513 1512 1511 1510 1509 1509 1509 1508 1507 1506 1506 1506 1505 1505 1504 1504 1504 1503 1502 1502 1502 1502 1501 1501 1501 1500 1500 1500 1499 1499 1498 1496 1495 1495 1495 1494 1493 1493 1493 1493 1493 1493 1493 1493 1493 1493 1492 1492 1492 1492 1492 1491 1491 1490 1489 1489 1488 1488 1487 1487 1487 1486 1486 1486 1486 1486 1486 1486 1486 1486 1486 1487 1487 1487 1487 1487 1487 1486 1485 1485 1485 1484 1484 1484 1484 1484 1484 1484 1484 1484 1483 1483 1482 1482 1482 1480 1480 1479 1478 1476 1475 1475 1473 1472 1471 1470 1469 1467 1466 1465 1464 1463 1461 1460 1459 1458 1456 1455 1454 1453 1452 1450 1449 1447 1446 1446 1446 1446 1446 1447 1448 1448 1450 1450 1451 1453 1454 1456 1457 1459 1459 1460 1460 1460 1460 1460 1460 1460 1460 1459 1458 1457 1457 1455 1454 1453 1453 1452 1452 1451 1451 1449 1449 1448 1447 1446 1445 1444 1442 1441 1439 1437 1434 1431 1430 1429 1428 1427 1426 1423 1421 1418 1415 1410 1407 1403 1398 1393 1389 1385 1380 1378 1377 1377 1373 0
1001 1001 1009 1018 1023 1023 1024 1030 1039 1049 1058 1066 1072 1080 1084 1096 1113 1129 1139 1148 1157 1164 1176 1185 1198 1219 1238 1243 1256 1265 1277 1285 1303 1315 1325 1337 1347 1358 1368 1376 1386 1395 1400 1407 1413 1417 1422 1428 1434 1439 1446 1454 1460 1467 1472 1477 1483 1491 1499 1505 1511 1518 1526 1537 1550 1565 1579 1593 1607 1614 1620 1626 1630 1636 1640 1644 1646 1652 1662 1672 1682 1699 1711 1719 1725 1734 1741 1754 1760 1773 1787 1797 1805 1813 1817 1822 1827 1829 1830 1832 1834 1836 1838 1840 1842 1844 1846 1848 1849 1852 1854 1856 1859 1863 1870 1875 1878 1883 1885 1888 1891 1893 1897 1902 1906 1909 1912 1914 1917 1919 1921 1924 1927 1931 1934 1936 1938 1940 1944 1946 1949 1951 1953 1955 1957 1958 1961 1963 1968 1972 1976 1979 1982 1987 1993 1996 1996 1996 1996 1995 1995 1995 1995 1995 1991 1990 1988 1982 1969 1957 1920 1881 0 0 0 0 0 0 0 0 0 0 0 0 0 0 0 2553 2610 2610 2610 2607 2566 0 0 0 0 0 0 0 0 0 0 0 0 0 0 0 0 0 0 2810 2962 2991 3011 3030 3042 3054 3062 3066 3067 3070 3074 3077 3082 3086 3087 3088 3089 3089 3096 3102 3115 3128 3128 3128 3114 3003 2799 0 0 0 0 0 1363 1363 1384 1402 1429 1462 1483 1483 1483 1485 1485 1497 0 0 0 0 0 0 0 1539 1539 1543 1548 1554 1602 1608 1609 1609 1609 1609 1609 1600 1588 1588 1587 1587 1587 1587 1583 1583 1581 1580 1577 1577 1577 1578 1579 1579 1579 1579 1579 1577 1577 1576 1576 1575 1575 1574 1574 1572 1571 1569 1566 1566 1566 1566 1566 1565 1559 1551 1541 1533 1532 1520 1499 1492 1486 1480 1475 1461 1448 1448 1448 0 0 0 0 1687 1687 1687 1680 1655 1628 1608 1602 1602 1600 1600 1600 1600 1598 1598 1594 1594 1589 1579 1569 1569 1569 1580 1601 1629 0 0 1766 1766 1766 1759 1742 1723 1707 1691 1687 1679 1669 1665 1660 1656 1653 1649 1645 1642 1638 1633 1629 1623 1619 1616 1612 1610 1606 1602 1598 1596 1593 1590 1587 1585 1583 1581 1579 1577 1574 1572 1571 1568 1567 1565 1564 1562 1560 1559 1556 1555 1553 1552 1550 1549 1547 1545 1543 1542 1541 1539 1539 1538 1536 1535 1533 1532 1532 1531 1530 1528 1527 1527 1526 1525 1524 1523 1522 1521 1520 1519 1519 1518 1517 1516 1515 1513 1512 1511 1510 1509 1509 1508 1508 1507 1507 1506 1506 1506 1505 1504 1504 1503 1502 1502 1502 1502 1501 1501 1500 1500 1500 1500 1500 1499 1498 1498 1496 1496 1495 1494 1494 1493 1493 1492 1492 1493 1492 1492 1492 1492 1492 1492 1492 1492 1492 1491 1491 1491 1490 1489 1489 1488 1488 1488 1487 1487 1486 1486 1486 1486 1486 1486 1486 1486 1486 1486 1486 1487 1487 1487 1487 1487 1487 1486 1485 1485 1485 1484 1484 1484 1484 1484 1484 1484 1483 1483 1483 1483 1482 1482 1482 1480 1479 1479 1478 1476 1475 1474 1472 1472 1471 1470 1468 1467 1465 1465 1463 1462 1461 1460 1459 1458 1456 1455 1454 1453 1452 1450 1449 1447 1446 1446 1446 1446 1446 1447 1447 1448 1449 1449 1451 1452 1453 1454 1456 1457 1459 1459 1460 1460 1460 1460 1460 1460 1460 1459 1457 1457 1456 1455 1454 1452 1452 1452 1451 1450 1449 1449 1448 1447 1446 1446 1444 1443 1440 1439 1438 1436 1433 1431 1430 1429 1427 1425 1424 1421 1420 1418 1415 1410 1407 1402 1397 1392 1387 1381 1377 1377 1377 1377 1374 0
