1957 1957 1958 1973 1986 1997 1999 2001 2003 2003 2009 2015 2018 2023 2028 2033 2043 2055 2069 2079 2090 2098 2104 2107 2113 2121 2130 2140 2155 2161 2169 2174 2181 2190 2200 2208 2215 2220 2222 2227 2231 2239 2243 2249 2253 2258 2264 2270 2277 2283 2288 2294 2299 2306 2317 2327 2335 2340 2346 2353 2362 2368 2377 2386 2390 2397 2401 2402 2403 2403 2406 2414 2424 2436 2444 2447 2447 2449 2455 2466 2474 2480 2487 2495 2502 2506 2510 2513 2513 2516 2522 2526 2532 2538 2544 2552 2558 2563 2568 2574 2576 2579 2582 2585 2586 2589 2593 2598 2603 2608 2612 2614 2616 2617 2617 2618 2620 2622 2624 2625 2625 2626 2628 2630 2632 2634 2636 2636 2637 2638 2638 2638 2638 2638 2637 2636 2635 2634 2633 2632 2631 2630 2629 2629 2627 2627 2625 2624 2622 2621 2620 2615 2611 2608 2601 2595 2587 2582 2575 2567 2560 2545 2532 0 0 0 0 0 0 0 0 1369 1366 1341 1320 1313 1308 1302 1295 1292 1285 1280 1279 1274 1268 1264 1259 1257 1257 1253 1251 1248 1246 1242 1241 1239 1235 1231 1229 1227 1225 1224 1223 1220 1219 1218 1217 1216 1215 1214 1213 1213 1213 1212 1211 1211 1210 1209 1209 1208 1208 1206 1206 1204 1202 1201 1200 1200 1199 1197 1197 1196 1195 1194 1193 1192 1191 1189 1188 1187 1184 1182 1179 1176 1173 1171 1170 1170 1168 1168 1168 1165 1164 1163 1162 1162 1162 1161 1161 1161 1161 1162 1163 1163 1163 1163 1164 1166 1168 1170 1172 1174 1175 1176 1178 1178 1178 1179 1179 1179 1179 1179 1179 1179 1179 1179 1179 1178 1177 1177 1177 1177 1176 1175 1175 1173 1172 1170 1169 1167 1165 1164 1161 1159 1156 1155 1155 1155 1154 1153 1152 1150 1149 1149 1149 1149 1148 1148 1148 1148 1148 1148 1148 1148 1148 1148 1148 1149 1152 1153 1154 1155 1156 1158 1160 1161 1161 1161 1161 1161 1162 1162 1162 1162 1162 1161 1161 1161 1161 1161 1160 1160 1160 1160 1160 1160 1160 1159 1157 1156 1156 1155 1153 1152 1151 1148 1147 1145 1144 1143 1141 1141 1141 1140 1138 1138 1138 1138 1138 1137 1136 1136 1135 1135 1135 1134 1135 1135 1135 1135 1136 1138 1140 1141 1141 1143 1143 1144 1146 1146 1147 1147 1147 1147 1147 1146 1146 1146 1146 1146 1146 1146 1145 1145 1145 1144 1144 1144 1144 1143 1143 1143 1142 1141 1140 1139 1138 1138 1137 1136 1134 1133 1131 1130 1129 1126 1123 1121 1119 1119 1119 1119 1119 1117 1116 1116 1116 1116 1116 1116 1117 1117 1117 1118 1119 1121 1121 1122 1124 1124 1125 1126 1127 1129 1130 1131 1131 1132 1132 1132 1133 1133 1133 1133 1133 1133 1133 1133 1133 1133 1133 1133 1134 1134 1134 1135 1135 1136 1136 1137 1137 1137 1138 1138 1138 1138 1138 1138 1138 1137 1137 1136 1135 1135 1134 1134 1134 1133 1133 1132 1130 1129 1127 1127 1126 1125 1124 1123 1122 1121 1121 1120 1119 1118 1117 1116 1115 1115 1114 1114 1113 1113 1113 1113 1113 1113 1113 1113 1114 1115 1115 1116 1117 1118 1119 1120 1121 1123 1125 1126 1127 1129 1130 1132 1134 1135 1137 1140 1144 1146 1148 1151 1153 1154 1156 1157 1158 1159 1160 1161 1162 1162 1163 1164 1164 1166 1167 1168 1171 1172 1175 1176 1178 1181 1184 1185 1193 1201 1213 1231 1247 1281 1292 1295 1308 1316 1335 1351 1362 1372 1379 1387 1393 1399 1404 1410 1415 1419 1422 1425 1427 1431 1435 1437 1438 1442 1445 1445 1447 1447 1448 1449 1451 1454 1458 1460 1462 1464 1464 1464 1470 1475 1475 1475 1473 1473 1468 0
1943 1943 1946 1965 1980 1993 1997 1997 1998 2000 2007 2014 2018 2023 2029 2034 2043 2055 2066 2079 2090 2098 2104 2108 2113 2121 2130 2138 2148 2155 2164 2171 2178 2188 2199 2208 2215 2218 2222 2227 2231 2240 2248 2253 2257 2262 2267 2273 2281 2287 2291 2294 2299 2306 2313 2322 2329 2336 2343 2352 2359 2368 2377 2385 2390 2395 2399 2400 2401 2401 2406 2414 2424 2434 2442 2445 2446 2448 2455 2466 2474 2480 2487 2493 2501 2506 2510 2514 2515 2519 2522 2526 2532 2539 2544 2551 2557 2563 2568 2574 2576 2578 2580 2583 2584 2588 2593 2598 2603 2608 2613 2616 2617 2618 2618 2618 2619 2622 2624 2626 2626 2626 2628 2630 2631 2634 2635 2636 2637 2638 2639 2639 2639 2638 2637 2636 2635 2634 2633 2633 2631 2630 2629 2629 2628 2627 2626 2624 2623 2622 2620 2616 2612 2609 2603 2596 2589 2582 2578 2571 2556 2534 2515 0 0 0 0 0 0 0 1377 1366 1355 1328 1317 1309 1308 1297 1295 1292 1287 1286 1285 1281 1275 1271 1263 1261 1260 1258 1254 1251 1250 1247 1245 1242 1238 1234 1229 1227 1227 1225 1223 1222 1220 1218 1218 1218 1216 1215 1215 1214 1213 1213 1213 1212 1212 1211 1210 1209 1208 1207 1207 1205 1203 1202 1202 1200 1200 1199 1198 1197 1196 1195 1195 1194 1192 1192 1190 1188 1186 1185 1181 1179 1176 1175 1174 1174 1174 1173 1171 1168 1166 1164 1164 1164 1163 1163 1163 1163 1164 1165 1165 1165 1165 1165 1165 1168 1170 1172 1174 1174 1177 1178 1179 1179 1179 1180 1180 1180 1180 1180 1180 1180 1180 1180 1180 1179 1179 1178 1178 1178 1177 1177 1176 1175 1173 1172 1170 1168 1166 1165 1162 1160 1159 1158 1157 1156 1156 1155 1154 1153 1152 1152 1152 1151 1151 1151 1150 1150 1150 1150 1150 1150 1150 1150 1150 1151 1154 1155 1156 1157 1158 1159 1161 1162 1162 1163 1163 1163 1163 1163 1163 1163 1163 1163 1162 1162 1162 1162 1162 1161 1161 1161 1161 1160 1160 1160 1159 1158 1156 1155 1154 1153 1153 1151 1150 1148 1146 1144 1143 1143 1141 1140 1139 1139 1139 1139 1139 1139 1138 1137 1136 1136 1136 1136 1135 1135 1135 1135 1136 1139 1140 1141 1142 1143 1144 1145 1147 1147 1148 1148 1148 1148 1148 1147 1147 1147 1147 1147 1147 1146 1146 1146 1145 1145 1145 1145 1144 1144 1144 1143 1143 1142 1141 1140 1139 1138 1137 1137 1135 1133 1133 1131 1130 1127 1124 1123 1121 1120 1120 1120 1120 1118 1117 1117 1117 1118 1118 1118 1118 1118 1118 1119 1121 1121 1123 1123 1126 1126 1127 1127 1129 1131 1131 1132 1132 1132 1133 1133 1133 1134 1134 1134 1134 1134 1134 1134 1134 1134 1134 1134 1134 1134 1135 1135 1135 1136 1136 1137 1137 1137 1137 1138 1138 1138 1138 1138 1138 1138 1137 1137 1137 1136 1136 1135 1135 1134 1133 1133 1132 1130 1130 1128 1128 1127 1125 1124 1124 1122 1122 1120 1120 1119 1118 1117 1117 1115 1115 1115 1114 1114 1114 1113 1113 1113 1114 1114 1114 1115 1115 1116 1117 1118 1119 1120 1121 1124 1125 1126 1127 1129 1131 1133 1135 1137 1139 1142 1144 1146 1149 1151 1153 1154 1156 1157 1158 1159 1160 1161 1162 1162 1163 1164 1164 1166 1167 1169 1170 1172 1172 1174 1178 1181 1185 1187 1196 1201 1228 1239 1268 1283 1292 1295 1308 1316 1335 1351 1361 1370 1379 1386 1393 1398 1404 1409 1414 1419 1421 1423 1426 1430 1433 1436 1438 1440 1445 1445 1447 1447 1448 1450 1450 1452 1457 1460 1462 1464 1464 1464 1464 1466 1471 1471 1471 1472 1468 0
1943 1943 1945 1958 1969 1982 1986 1992 1995 2000 2006 2013 2018 2025 2029 2036 2043 2055 2066 2077 2086 2097 2104 2110 2115 2121 2128 2136 2147 2151 2161 2170 2177 2186 2198 2207 2213 2217 2221 2225 2234 2241 2248 2254 2258 2263 2269 2276 2284 2292 2294 2296 2299 2306 2312 2317 2324 2332 2342 2349 2358 2367 2375 2384 2387 2393 2398 2398 2398 2401 2406 2414 2424 2434 2440 2443 2445 2448 2455 2465 2471 2480 2486 2492 2499 2506 2510 2514 2517 2521 2524 2528 2534 2540 2544 2551 2556 2563 2568 2574 2576 2578 2580 2581 2584 2588 2593 2598 2603 2608 2613 2616 2617 2618 2618 2618 2619 2622 2624 2626 2626 2626 2627 2628 2629 2632 2633 2636 2637 2638 2639 2639 2639 2638 2637 2636 2635 2634 2633 2633 2631 2631 2630 2629 2629 2628 2626 2625 2623 2622 2620 2616 2614 2610 2604 2597 2589 2582 2578 2571 2556 2534 2515 0 0 0 0 0 0 0 1368 1352 1344 1317 1306 1302 1296 1293 1292 1290 1287 1286 1285 1281 1278 1274 1271 1269 1264 1260 1257 1254 1253 1252 1249 1245 1241 1235 1231 1229 1228 1226 1224 1223 1221 1220 1218 1218 1217 1216 1216 1215 1214 1214 1213 1213 1213 1212 1211 1211 1209 1209 1207 1206 1205 1203 1203 1202 1201 1201 1200 1199 1198 1197 1196 1195 1195 1193 1191 1189 1188 1186 1185 1183 1180 1179 1179 1178 1176 1175 1174 1171 1168 1167 1167 1167 1167 1166 1166 1166 1166 1168 1168 1168 1168 1168 1168 1169 1172 1174 1175 1176 1178 1179 1179 1180 1181 1181 1181 1181 1181 1181 1181 1181 1181 1181 1181 1180 1180 1180 1179 1179 1179 1177 1177 1176 1175 1174 1173 1170 1167 1165 1165 1163 1162 1160 1159 1159 1158 1157 1156 1156 1155 1155 1155 1154 1154 1153 1153 1153 1153 1153 1153 1153 1153 1153 1153 1154 1155 1157 1158 1160 1160 1161 1162 1164 1164 1164 1164 1164 1164 1164 1164 1164 1164 1164 1164 1163 1163 1163 1162 1162 1162 1162 1162 1161 1161 1160 1159 1159 1158 1157 1156 1155 1154 1153 1151 1150 1148 1145 1145 1144 1143 1142 1140 1140 1140 1140 1140 1139 1138 1137 1137 1137 1137 1137 1137 1136 1136 1136 1137 1140 1140 1141 1142 1145 1145 1147 1148 1149 1149 1149 1149 1149 1149 1149 1149 1148 1148 1148 1148 1147 1147 1147 1146 1146 1145 1145 1145 1145 1145 1144 1143 1143 1141 1141 1140 1139 1138 1137 1136 1135 1133 1132 1131 1129 1127 1125 1122 1120 1120 1120 1120 1119 1119 1119 1119 1120 1120 1120 1120 1120 1120 1121 1122 1123 1124 1125 1126 1128 1129 1130 1131 1132 1133 1133 1134 1134 1134 1134 1134 1135 1135 1135 1135 1135 1135 1135 1135 1135 1135 1135 1135 1135 1135 1136 1136 1136 1136 1137 1137 1137 1138 1138 1138 1138 1138 1138 1138 1138 1138 1138 1137 1136 1136 1136 1136 1136 1134 1134 1134 1133 1132 1131 1129 1129 1128 1126 1125 1123 1122 1121 1120 1119 1118 1118 1117 1116 1116 1116 1115 1114 1114 1114 1114 1114 1114 1114 1114 1115 1115 1116 1117 1118 1119 1120 1122 1124 1125 1127 1128 1129 1132 1134 1136 1138 1140 1143 1145 1147 1149 1151 1152 1154 1156 1156 1157 1158 1160 1160 1162 1162 1163 1164 1164 1166 1167 1169 1170 1172 1172 1174 1178 1182 1185 1189 1196 1212 1232 1248 1273 1285 1292 1295 1308 1318 1335 1348 1361 1370 1379 1386 1393 1398 1404 1408 1413 1418 1421 1423 1426 1430 1433 1435 1438 1439 1443 1445 1447 1447 1448 1449 1450 1452 1456 1460 1461 1464 1464 1464 1464 1464 1467 1467 1469 1471 1467 0
1940 1940 1942 1950 1961 1969 1979 1985 1991 1998 2006 2013 2018 2025 2030 2036 2045 2056 2066 2075 2082 2092 2103 2110 2115 2122 2128 2136 2146 2150 2160 2170 2177 2184 2196 2205 2212 2216 2220 2225 2234 2241 2248 2254 2258 2264 2270 2279 2286 2292 2296 2299 2303 2307 2312 2317 2324 2332 2339 2349 2358 2367 2375 2383 2387 2392 2395 2396 2397 2401 2407 2416 2424 2434 2439 2443 2445 2448 2455 2465 2471 2479 2484 2492 2498 2506 2510 2514 2517 2521 2526 2530 2535 2541 2544 2550 2554 2561 2568 2573 2576 2578 2579 2580 2583 2588 2592 2597 2603 2608 2613 2616 2618 2618 2618 2618 2619 2621 2624 2626 2626 2626 2627 2628 2629 2631 2632 2634 2637 2638 2639 2639 2639 2638 2638 2636 2635 2634 2634 2633 2631 2631 2630 2629 2629 2628 2626 2625 2623 2622 2620 2616 2614 2610 2604 2598 2593 2586 2580 2571 2556 2534 2515 0 0 0 0 0 0 1361 1360 1344 1337 1314 1304 1299 1295 1292 1289 1288 1287 1286 1285 1282 1280 1278 1276 1274 1271 1268 1263 1258 1255 1253 1250 1246 1243 1237 1232 1230 1229 1228 1225 1223 1221 1220 1220 1219 1217 1216 1216 1215 1215 1215 1214 1213 1213 1212 1212 1212 1211 1210 1209 1207 1206 1205 1204 1203 1203 1201 1201 1200 1199 1198 1198 1196 1196 1195 1193 1191 1189 1188 1186 1185 1183 1183 1182 1181 1180 1178 1176 1175 1172 1171 1171 1170 1170 1170 1168 1168 1168 1170 1171 1171 1171 1171 1171 1172 1174 1176 1178 1178 1179 1180 1181 1181 1182 1182 1182 1182 1182 1182 1182 1181 1182 1182 1181 1181 1181 1181 1180 1180 1179 1179 1178 1177 1177 1175 1174 1172 1169 1167 1167 1166 1165 1163 1161 1160 1160 1159 1159 1158 1158 1158 1158 1157 1156 1156 1156 1156 1156 1156 1156 1156 1156 1156 1156 1157 1157 1159 1160 1160 1161 1161 1163 1165 1165 1165 1165 1165 1165 1165 1165 1165 1165 1164 1164 1164 1163 1163 1163 1163 1163 1163 1163 1162 1162 1162 1161 1160 1159 1158 1156 1156 1155 1155 1152 1151 1149 1147 1147 1147 1146 1143 1142 1141 1141 1141 1141 1140 1139 1138 1138 1138 1138 1138 1138 1138 1138 1138 1138 1140 1141 1142 1144 1146 1147 1149 1149 1149 1150 1150 1150 1150 1150 1150 1150 1149 1149 1148 1148 1148 1148 1147 1147 1147 1146 1146 1146 1145 1145 1144 1144 1144 1143 1142 1141 1140 1139 1138 1137 1136 1134 1134 1131 1129 1128 1127 1125 1123 1123 1121 1121 1120 1120 1120 1120 1121 1121 1122 1122 1122 1122 1123 1124 1125 1126 1126 1128 1130 1131 1133 1134 1134 1134 1134 1134 1134 1135 1135 1135 1136 1136 1136 1136 1136 1136 1136 1135 1135 1135 1135 1136 1136 1136 1136 1137 1137 1137 1137 1137 1137 1138 1138 1138 1138 1138 1138 1138 1139 1139 1139 1138 1138 1137 1137 1137 1137 1136 1136 1135 1135 1134 1133 1132 1131 1130 1129 1127 1126 1124 1123 1121 1120 1119 1118 1117 1116 1116 1116 1115 1115 1114 1114 1114 1114 1114 1114 1114 1115 1116 1116 1117 1118 1119 1120 1122 1125 1126 1127 1129 1130 1133 1135 1138 1139 1141 1143 1145 1147 1148 1151 1152 1154 1155 1156 1157 1158 1159 1160 1161 1162 1163 1164 1165 1166 1167 1169 1170 1171 1172 1174 1178 1184 1189 1191 1200 1220 1233 1253 1273 1285 1292 1302 1309 1325 1335 1345 1352 1369 1379 1386 1393 1397 1401 1407 1412 1417 1420 1423 1425 1430 1433 1433 1437 1439 1442 1445 1446 1446 1448 1449 1450 1452 1456 1460 1461 1464 1464 1464 1465 1465 1466 1467 1468 1469 1468 0
1938 1938 1941 1942 1949 1959 1971 1981 1989 1995 2003 2011 2018 2025 2031 2036 2046 2056 2066 2074 2081 2090 2102 2110 2115 2122 2128 2136 2146 2150 2160 2169 2177 2183 2192 2202 2210 2213 2218 2224 2234 2241 2247 2254 2258 2264 2270 2279 2286 2292 2296 2301 2306 2309 2312 2317 2324 2331 2339 2349 2358 2367 2375 2382 2387 2391 2393 2394 2397 2401 2407 2416 2423 2433 2438 2441 2445 2449 2455 2465 2471 2477 2482 2490 2498 2502 2507 2513 2517 2521 2526 2532 2537 2541 2544 2548 2553 2559 2566 2572 2575 2577 2579 2580 2583 2588 2592 2597 2603 2607 2611 2613 2616 2617 2618 2618 2619 2621 2622 2625 2626 2627 2627 2628 2629 2631 2632 2633 2635 2637 2638 2638 2638 2638 2638 2636 2635 2634 2634 2633 2632 2631 2630 2629 2629 2628 2626 2625 2622 2622 2620 2618 2614 2610 2605 2600 2596 2593 2587 2575 2561 2548 2531 0 0 0 0 0 0 1351 1346 1324 1321 1303 1299 1297 1294 1291 1288 1288 1287 1285 1285 1282 1280 1278 1278 1277 1273 1272 1269 1263 1258 1255 1253 1248 1244 1239 1236 1232 1231 1229 1227 1225 1222 1221 1220 1220 1219 1218 1217 1216 1216 1216 1216 1215 1214 1214 1214 1213 1213 1212 1211 1209 1208 1207 1205 1204 1203 1203 1202 1202 1200 1200 1199 1198 1198 1195 1194 1192 1191 1191 1188 1187 1186 1185 1184 1183 1182 1180 1179 1179 1177 1175 1175 1174 1174 1173 1173 1173 1174 1175 1175 1175 1174 1174 1174 1175 1177 1179 1179 1180 1180 1181 1181 1182 1182 1182 1182 1182 1182 1182 1182 1182 1182 1182 1182 1182 1182 1181 1181 1181 1181 1180 1180 1179 1179 1177 1175 1173 1173 1170 1168 1168 1167 1165 1163 1163 1162 1162 1162 1162 1162 1161 1161 1160 1159 1159 1158 1158 1158 1158 1158 1158 1158 1158 1158 1159 1159 1160 1161 1161 1162 1162 1164 1165 1166 1166 1166 1166 1166 1166 1166 1166 1166 1166 1165 1165 1165 1165 1165 1165 1165 1165 1164 1164 1163 1163 1163 1161 1160 1159 1158 1157 1157 1156 1156 1153 1151 1150 1150 1149 1148 1146 1144 1144 1143 1143 1142 1141 1141 1140 1140 1140 1140 1140 1140 1139 1139 1139 1140 1141 1143 1143 1145 1147 1149 1150 1150 1151 1151 1151 1151 1151 1151 1151 1150 1150 1150 1150 1149 1149 1149 1149 1149 1148 1148 1147 1147 1147 1146 1146 1145 1145 1144 1143 1142 1141 1139 1139 1138 1136 1135 1134 1132 1131 1131 1129 1128 1125 1124 1123 1122 1122 1122 1122 1122 1122 1123 1123 1123 1124 1124 1124 1124 1126 1127 1127 1129 1130 1131 1133 1134 1134 1134 1135 1135 1136 1136 1136 1136 1137 1137 1137 1137 1137 1136 1136 1136 1136 1136 1136 1136 1136 1137 1137 1137 1137 1137 1138 1138 1138 1138 1139 1139 1139 1139 1139 1139 1140 1140 1140 1139 1139 1139 1139 1139 1138 1138 1138 1137 1137 1136 1136 1134 1133 1131 1130 1129 1126 1125 1124 1122 1120 1120 1118 1117 1117 1116 1116 1116 1115 1114 1114 1114 1114 1114 1114 1115 1115 1116 1116 1117 1118 1119 1121 1123 1126 1128 1129 1130 1132 1134 1136 1139 1140 1142 1143 1145 1147 1148 1151 1152 1154 1155 1156 1157 1158 1159 1160 1161 1162 1163 1164 1166 1167 1168 1169 1170 1171 1173 1177 1180 1185 1192 1196 1204 1222 1233 1259 1275 1287 1298 1304 1322 1328 1335 1344 1351 1363 1370 1375 1384 1391 1398 1404 1410 1415 1420 1423 1425 1430 1432 1433 1436 1439 1442 1445 1446 1446 1446 1449 1450 1451 1455 1459 1461 1463 1463 1463 1465 1465 1466 1467 1468 1469 1468 0
1930 1930 1933 1934 1941 1956 1966 1980 1988 1995 2002 2008 2015 2023 2031 2036 2046 2056 2065 2074 2081 2087 2098 2108 2115 2122 2129 2136 2145 2150 2160 2168 2175 2183 2190 2200 2208 2210 2215 2222 2230 2237 2243 2251 2258 2264 2270 2279 2286 2290 2296 2301 2307 2313 2316 2319 2324 2331 2339 2350 2360 2367 2374 2380 2383 2388 2390 2393 2396 2401 2407 2416 2422 2429 2437 2440 2445 2449 2454 2461 2468 2475 2482 2487 2494 2498 2504 2509 2513 2520 2526 2532 2537 2541 2543 2548 2553 2559 2566 2571 2574 2576 2578 2580 2583 2587 2591 2596 2601 2605 2608 2611 2614 2616 2617 2618 2619 2621 2622 2624 2626 2627 2628 2629 2630 2631 2631 2632 2634 2636 2638 2638 2638 2638 2638 2637 2635 2634 2634 2633 2632 2631 2630 2629 2629 2628 2626 2625 2622 2622 2620 2618 2614 2611 2605 2602 2599 2595 2588 2578 2565 2549 2532 0 0 0 0 0 0 1347 1336 1317 1317 1298 1297 1294 1292 1290 1288 1287 1287 1285 1285 1283 1282 1281 1280 1279 1276 1273 1271 1266 1264 1261 1259 1253 1250 1246 1240 1235 1233 1230 1228 1225 1224 1222 1222 1220 1220 1220 1219 1218 1218 1217 1216 1216 1216 1216 1216 1214 1214 1213 1212 1210 1209 1208 1207 1206 1205 1204 1204 1203 1202 1201 1200 1199 1199 1198 1197 1196 1194 1193 1191 1189 1188 1187 1186 1184 1183 1181 1181 1181 1181 1180 1178 1177 1176 1176 1176 1176 1178 1179 1179 1179 1177 1177 1177 1179 1179 1180 1181 1181 1181 1181 1182 1182 1182 1182 1182 1182 1182 1182 1182 1182 1182 1182 1182 1182 1182 1182 1182 1182 1182 1182 1181 1180 1180 1179 1177 1176 1174 1172 1171 1170 1169 1168 1166 1165 1165 1165 1165 1165 1165 1164 1164 1163 1163 1162 1161 1161 1161 1160 1160 1160 1160 1160 1160 1160 1160 1161 1161 1162 1162 1163 1164 1166 1166 1166 1167 1167 1167 1167 1167 1167 1166 1166 1166 1166 1166 1166 1166 1166 1166 1165 1165 1165 1164 1163 1163 1162 1161 1161 1160 1159 1158 1157 1157 1156 1155 1154 1152 1152 1151 1149 1147 1146 1145 1144 1143 1143 1142 1142 1142 1141 1141 1141 1141 1141 1142 1142 1142 1143 1144 1144 1146 1149 1149 1151 1152 1153 1153 1153 1153 1152 1152 1152 1152 1152 1151 1150 1150 1150 1150 1149 1149 1149 1149 1148 1148 1148 1147 1147 1147 1146 1145 1145 1143 1142 1141 1140 1139 1138 1136 1135 1134 1132 1131 1131 1130 1128 1125 1124 1124 1124 1124 1124 1124 1124 1124 1125 1125 1125 1125 1125 1126 1127 1127 1128 1130 1131 1132 1134 1135 1135 1136 1136 1136 1137 1138 1138 1138 1138 1138 1138 1138 1137 1137 1137 1137 1137 1137 1137 1137 1137 1137 1138 1138 1138 1138 1138 1138 1138 1139 1139 1140 1140 1140 1140 1140 1140 1140 1140 1140 1140 1140 1140 1140 1140 1140 1140 1140 1139 1137 1136 1135 1134 1133 1130 1129 1127 1125 1124 1122 1121 1120 1119 1118 1117 1116 1116 1116 1115 1114 1114 1114 1114 1114 1114 1115 1116 1116 1116 1118 1119 1119 1121 1124 1126 1128 1129 1130 1133 1135 1137 1140 1142 1144 1144 1145 1147 1149 1151 1152 1153 1155 1156 1157 1158 1159 1160 1161 1162 1163 1164 1166 1167 1168 1169 1170 1171 1175 1178 1182 1188 1192 1197 1207 1223 1237 1264 1276 1289 1300 1308 1324 1332 1335 1344 1351 1360 1369 1375 1381 1387 1393 1400 1407 1415 1420 1424 1426 1430 1432 1433 1436 1439 1442 1445 1446 1446 1446 1449 1450 1451 1454 1457 1458 1463 1464 1464 1465 1465 1465 1469 1470 1472 1472 0
1915 1915 1917 1922 1937 1951 1962 1971 1979 1991 1999 2007 2015 2020 2031 2036 2046 2055 2064 2073 2080 2085 2091 2099 2108 2121 2129 2136 2144 2150 2158 2166 2172 2179 2188 2198 2206 2209 2212 2219 2225 2232 2237 2244 2252 2256 2267 2276 2283 2289 2295 2301 2307 2313 2316 2321 2325 2331 2339 2351 2360 2367 2373 2376 2381 2385 2388 2391 2395 2400 2406 2412 2419 2427 2433 2440 2445 2449 2454 2461 2468 2475 2482 2487 2493 2497 2502 2507 2509 2516 2524 2532 2537 2540 2543 2547 2551 2558 2564 2569 2573 2575 2577 2579 2581 2585 2589 2595 2599 2603 2607 2610 2611 2614 2616 2618 2618 2620 2622 2624 2625 2627 2629 2629 2630 2631 2631 2632 2633 2635 2638 2638 2638 2638 2638 2637 2636 2635 2634 2632 2631 2631 2630 2629 2629 2628 2626 2625 2622 2622 2620 2618 2617 2612 2607 2603 2599 2595 2588 2578 2566 2551 2535 0 0 0 0 0 0 1346 1329 1307 1307 1294 1293 1289 1289 1288 1287 1287 1286 1285 1285 1283 1282 1281 1280 1279 1279 1277 1275 1270 1268 1266 1263 1258 1253 1251 1245 1238 1236 1232 1228 1226 1224 1224 1224 1223 1222 1221 1220 1220 1218 1217 1217 1217 1217 1216 1216 1216 1215 1214 1213 1211 1210 1209 1208 1206 1206 1205 1204 1204 1203 1202 1202 1201 1200 1200 1199 1198 1197 1194 1193 1191 1190 1190 1189 1187 1185 1184 1183 1182 1182 1182 1181 1179 1178 1178 1178 1180 1180 1180 1180 1179 1179 1179 1179 1180 1181 1181 1181 1182 1182 1182 1182 1182 1182 1182 1182 1182 1182 1182 1182 1182 1182 1182 1182 1182 1182 1182 1182 1182 1182 1182 1181 1181 1180 1180 1179 1177 1175 1173 1173 1172 1172 1169 1168 1168 1168 1169 1169 1169 1168 1167 1167 1167 1165 1164 1164 1164 1163 1163 1163 1163 1162 1162 1162 1162 1162 1162 1163 1163 1164 1165 1166 1167 1167 1168 1168 1168 1168 1167 1167 1167 1167 1167 1167 1167 1167 1167 1167 1167 1167 1167 1167 1165 1165 1165 1164 1164 1163 1162 1161 1160 1159 1158 1158 1158 1157 1156 1155 1154 1153 1151 1150 1148 1148 1147 1145 1145 1144 1144 1143 1143 1143 1143 1143 1143 1143 1144 1145 1145 1145 1146 1148 1150 1151 1152 1153 1153 1153 1153 1153 1153 1153 1153 1153 1152 1152 1151 1151 1151 1150 1150 1150 1150 1150 1149 1149 1149 1149 1147 1147 1147 1146 1146 1144 1144 1143 1142 1140 1138 1137 1136 1136 1134 1133 1132 1131 1129 1127 1126 1126 1126 1127 1127 1127 1127 1127 1127 1127 1127 1127 1127 1127 1128 1129 1130 1132 1133 1134 1135 1136 1136 1137 1137 1137 1138 1138 1138 1138 1138 1138 1138 1138 1138 1138 1138 1138 1138 1138 1138 1138 1138 1138 1138 1138 1138 1138 1139 1139 1139 1140 1140 1140 1140 1140 1141 1141 1141 1141 1141 1141 1141 1141 1142 1142 1142 1142 1141 1140 1139 1138 1137 1136 1134 1133 1130 1129 1127 1125 1124 1122 1121 1120 1119 1118 1117 1116 1116 1116 1115 1115 1114 1114 1114 1115 1115 1115 1116 1116 1117 1119 1119 1120 1122 1124 1128 1129 1130 1132 1134 1136 1139 1140 1143 1144 1145 1147 1148 1150 1151 1152 1153 1155 1156 1157 1158 1159 1160 1161 1162 1163 1164 1166 1167 1169 1169 1170 1172 1175 1179 1183 1188 1192 1199 1208 1223 1239 1267 1281 1294 1301 1310 1325 1335 1340 1344 1351 1360 1369 1375 1381 1387 1393 1398 1407 1415 1421 1424 1426 1430 1432 1433 1436 1440 1443 1446 1446 1446 1447 1448 1450 1451 1453 1457 1458 1462 1464 1464 1465 1465 1466 1469 1471 1472 1472 0
1893 1893 1895 1910 1926 1942 1955 1961 1971 1985 1998 2007 2015 2020 2029 2033 2043 2052 2060 2069 2076 2080 2082 2090 2101 2115 2129 2136 2144 2149 2155 2159 2168 2175 2185 2197 2203 2208 2212 2216 2220 2224 2234 2238 2245 2249 2256 2267 2276 2285 2292 2301 2307 2313 2316 2321 2325 2331 2340 2351 2360 2367 2372 2375 2379 2382 2386 2391 2395 2399 2403 2410 2417 2424 2431 2439 2445 2449 2454 2461 2468 2475 2483 2487 2493 2497 2502 2507 2509 2513 2521 2531 2536 2539 2542 2546 2550 2556 2564 2567 2571 2572 2574 2576 2578 2583 2587 2594 2597 2602 2605 2608 2610 2613 2616 2618 2618 2619 2621 2623 2625 2627 2629 2629 2629 2630 2630 2630 2633 2635 2638 2638 2638 2638 2638 2637 2636 2635 2633 2632 2631 2631 2630 2629 2629 2628 2627 2626 2625 2624 2623 2622 2618 2612 2607 2604 2599 2595 2589 2579 2570 2553 2536 2507 0 0 0 0 0 1346 1329 1303 1303 1294 1293 1289 1289 1287 1287 1286 1286 1286 1285 1283 1282 1282 1281 1280 1279 1278 1277 1273 1271 1267 1265 1263 1258 1255 1251 1244 1239 1236 1231 1229 1228 1228 1227 1225 1223 1221 1221 1221 1219 1218 1218 1218 1218 1217 1217 1216 1215 1214 1213 1212 1211 1210 1209 1208 1207 1206 1205 1204 1204 1203 1203 1203 1202 1200 1199 1198 1197 1197 1194 1193 1193 1192 1191 1190 1188 1185 1184 1184 1183 1183 1183 1181 1179 1179 1179 1180 1181 1181 1181 1181 1181 1181 1181 1182 1182 1182 1183 1183 1183 1182 1183 1182 1182 1182 1182 1182 1182 1182 1182 1182 1182 1182 1182 1182 1182 1182 1182 1183 1183 1183 1183 1182 1181 1180 1179 1178 1176 1176 1176 1175 1175 1173 1172 1172 1172 1172 1172 1172 1171 1171 1170 1169 1169 1167 1167 1167 1166 1166 1166 1165 1165 1165 1164 1163 1163 1163 1164 1165 1165 1166 1167 1167 1168 1168 1169 1169 1169 1169 1168 1168 1168 1168 1168 1168 1168 1168 1167 1167 1167 1167 1167 1167 1166 1166 1165 1164 1164 1162 1162 1161 1161 1159 1159 1159 1159 1158 1157 1156 1154 1152 1151 1150 1150 1149 1149 1147 1147 1146 1145 1145 1145 1145 1145 1145 1145 1146 1148 1148 1148 1149 1151 1152 1152 1153 1154 1154 1154 1154 1154 1154 1154 1154 1153 1153 1153 1152 1152 1152 1151 1151 1151 1151 1151 1151 1151 1150 1150 1149 1148 1148 1147 1147 1145 1145 1144 1142 1142 1139 1138 1137 1137 1136 1135 1134 1132 1130 1129 1129 1129 1129 1129 1129 1130 1130 1130 1130 1130 1130 1130 1130 1130 1131 1131 1131 1134 1135 1135 1135 1137 1138 1138 1138 1139 1139 1140 1140 1140 1140 1140 1140 1139 1139 1139 1139 1139 1139 1139 1139 1139 1139 1139 1139 1139 1139 1139 1140 1140 1140 1141 1141 1141 1141 1141 1141 1142 1142 1142 1142 1142 1142 1142 1143 1143 1143 1143 1142 1140 1139 1138 1137 1136 1134 1133 1131 1129 1127 1125 1124 1123 1121 1121 1119 1118 1117 1116 1116 1116 1116 1115 1115 1115 1115 1115 1116 1116 1117 1117 1118 1120 1120 1121 1124 1126 1129 1131 1132 1133 1135 1138 1139 1141 1143 1145 1146 1148 1149 1150 1151 1152 1153 1155 1156 1157 1158 1159 1160 1161 1162 1163 1164 1166 1167 1169 1170 1170 1172 1175 1179 1183 1188 1191 1199 1213 1225 1242 1273 1289 1297 1301 1310 1325 1339 1345 1351 1355 1360 1369 1377 1381 1387 1393 1398 1407 1415 1422 1424 1427 1430 1433 1434 1438 1442 1444 1446 1447 1447 1447 1447 1450 1450 1452 1454 1455 1459 1462 1466 1466 1467 1468 1469 1471 1472 1472 0
1879 1879 1883 1899 1914 1929 1940 1951 1964 1984 1997 2006 2013 2020 2024 2029 2037 2045 2053 2062 2070 2074 2077 2083 2097 2111 2122 2132 2139 2145 2150 2155 2162 2171 2180 2192 2199 2206 2209 2213 2217 2224 2228 2235 2240 2244 2250 2261 2270 2279 2287 2296 2305 2312 2316 2321 2325 2331 2340 2351 2359 2364 2369 2373 2376 2381 2384 2390 2395 2399 2403 2410 2416 2424 2430 2438 2445 2449 2454 2460 2467 2475 2484 2489 2493 2497 2502 2507 2509 2513 2520 2527 2535 2537 2542 2546 2550 2555 2560 2564 2567 2569 2573 2576 2578 2582 2587 2591 2595 2600 2602 2606 2609 2612 2614 2616 2617 2617 2619 2621 2623 2626 2629 2629 2629 2629 2630 2630 2633 2635 2638 2639 2639 2639 2638 2636 2635 2634 2633 2632 2632 2631 2630 2629 2629 2628 2627 2626 2625 2624 2623 2622 2618 2613 2607 2604 2600 2596 2589 2580 2573 2561 2547 2514 0 0 0 0 0 1346 1325 1302 1302 1294 1292 1289 1289 1287 1287 1286 1286 1286 1285 1283 1282 1282 1281 1280 1279 1278 1277 1274 1271 1268 1268 1264 1262 1259 1255 1248 1244 1240 1235 1233 1231 1231 1229 1227 1224 1223 1223 1222 1222 1221 1219 1219 1219 1218 1218 1218 1217 1216 1214 1213 1212 1210 1210 1209 1208 1207 1207 1206 1205 1204 1204 1203 1203 1201 1201 1199 1199 1199 1197 1196 1194 1194 1194 1192 1192 1191 1190 1188 1188 1188 1188 1188 1187 1186 1186 1185 1185 1185 1185 1185 1185 1185 1184 1184 1184 1184 1184 1184 1184 1183 1183 1182 1182 1182 1182 1182 1181 1181 1181 1181 1181 1181 1181 1182 1182 1182 1182 1183 1183 1183 1183 1182 1182 1181 1180 1180 1177 1177 1177 1176 1176 1175 1175 1175 1174 1174 1174 1173 1173 1173 1172 1171 1170 1170 1170 1169 1168 1168 1168 1168 1167 1166 1166 1165 1165 1165 1167 1167 1167 1168 1168 1169 1169 1169 1169 1169 1169 1169 1169 1169 1169 1168 1168 1168 1168 1168 1168 1168 1168 1167 1167 1167 1166 1166 1165 1164 1164 1163 1163 1163 1162 1161 1160 1160 1160 1160 1158 1157 1156 1154 1152 1151 1151 1151 1150 1149 1148 1147 1147 1147 1147 1147 1147 1147 1148 1148 1150 1150 1150 1151 1152 1153 1153 1154 1155 1155 1155 1155 1155 1155 1155 1155 1155 1154 1154 1154 1154 1152 1152 1152 1152 1152 1152 1152 1151 1151 1150 1150 1149 1149 1148 1147 1146 1146 1144 1144 1144 1142 1140 1139 1138 1137 1136 1135 1134 1133 1131 1131 1131 1131 1131 1132 1132 1132 1132 1132 1132 1132 1133 1133 1133 1133 1133 1134 1135 1135 1136 1137 1138 1139 1139 1139 1139 1140 1141 1141 1141 1141 1140 1140 1140 1140 1140 1140 1140 1139 1139 1139 1140 1140 1140 1140 1140 1140 1141 1141 1141 1141 1141 1142 1142 1142 1143 1143 1143 1143 1143 1143 1143 1143 1143 1143 1143 1143 1143 1143 1141 1140 1138 1137 1136 1134 1133 1131 1129 1127 1125 1124 1123 1122 1121 1120 1118 1117 1117 1116 1116 1116 1116 1116 1116 1116 1116 1116 1117 1117 1117 1118 1120 1121 1123 1126 1127 1129 1131 1133 1135 1136 1138 1141 1142 1143 1145 1146 1148 1149 1150 1151 1152 1153 1155 1156 1157 1158 1159 1160 1161 1162 1163 1164 1166 1167 1169 1170 1170 1172 1175 1180 1183 1186 1189 1199 1224 1231 1253 1277 1291 1299 1302 1311 1328 1344 1352 1357 1360 1364 1372 1382 1389 1390 1393 1398 1407 1417 1423 1426 1427 1430 1433 1439 1440 1443 1444 1446 1447 1447 1447 1447 1448 1449 1450 1451 1453 1457 1462 1466 1467 1467 1469 1469 1469 1471 1471 0
1869 1869 1880 1887 1904 1919 1932 1944 1961 1981 1996 2004 2011 2014 2017 2022 2028 2037 2046 2056 2064 2067 2072 2079 2090 2102 2118 2130 2137 2142 2147 2153 2160 2169 2178 2187 2196 2201 2209 2213 2217 2222 2228 2231 2236 2241 2250 2261 2269 2274 2281 2289 2301 2310 2316 2320 2323 2329 2340 2351 2356 2361 2365 2370 2374 2379 2384 2389 2395 2399 2403 2409 2414 2422 2430 2437 2443 2450 2454 2460 2467 2475 2484 2490 2495 2501 2504 2507 2510 2513 2518 2525 2532 2537 2542 2546 2550 2555 2560 2563 2567 2569 2573 2576 2578 2580 2582 2586 2591 2596 2600 2604 2607 2610 2611 2612 2615 2616 2617 2618 2621 2625 2627 2628 2628 2628 2629 2629 2633 2635 2639 2640 2640 2640 2638 2636 2635 2634 2633 2633 2632 2631 2630 2629 2628 2628 2627 2626 2625 2624 2623 2622 2620 2617 2612 2606 2602 2596 2589 2585 2579 2564 2547 2517 0 0 0 0 0 1348 1322 1301 1301 1299 1293 1292 1289 1289 1287 1287 1286 1286 1285 1283 1282 1282 1281 1280 1279 1278 1277 1274 1271 1269 1268 1267 1264 1262 1258 1253 1246 1243 1239 1236 1235 1234 1231 1230 1227 1225 1224 1224 1223 1222 1221 1221 1220 1219 1218 1218 1218 1216 1215 1214 1213 1212 1211 1210 1209 1208 1208 1207 1206 1205 1205 1205 1204 1203 1202 1202 1201 1201 1200 1199 1198 1198 1197 1196 1196 1195 1195 1194 1194 1194 1194 1194 1193 1191 1191 1191 1191 1190 1190 1189 1188 1185 1185 1185 1184 1184 1184 1184 1184 1183 1182 1182 1182 1181 1181 1181 1181 1181 1181 1181 1181 1181 1181 1181 1182 1182 1182 1182 1183 1183 1183 1182 1182 1182 1180 1180 1179 1177 1177 1177 1177 1177 1176 1176 1176 1175 1175 1175 1175 1175 1174 1173 1172 1172 1172 1172 1171 1171 1171 1170 1170 1168 1167 1167 1167 1167 1168 1168 1168 1169 1169 1169 1169 1169 1169 1169 1169 1169 1169 1169 1169 1169 1169 1168 1168 1168 1168 1168 1168 1168 1167 1167 1167 1166 1166 1165 1165 1165 1164 1163 1163 1162 1161 1160 1160 1160 1159 1159 1158 1155 1154 1153 1152 1152 1152 1151 1150 1149 1149 1149 1149 1149 1149 1149 1150 1150 1150 1151 1151 1151 1152 1153 1154 1154 1155 1155 1155 1156 1156 1156 1156 1156 1155 1155 1155 1155 1155 1154 1154 1154 1153 1153 1152 1152 1152 1152 1151 1150 1150 1149 1149 1148 1147 1147 1146 1145 1145 1144 1142 1140 1140 1138 1138 1136 1136 1135 1135 1135 1134 1134 1134 1134 1134 1134 1134 1134 1134 1134 1135 1135 1135 1135 1136 1136 1136 1137 1137 1138 1139 1140 1140 1140 1141 1141 1142 1142 1142 1142 1141 1141 1141 1141 1141 1141 1141 1141 1140 1140 1140 1140 1140 1141 1141 1141 1142 1142 1142 1143 1143 1143 1143 1143 1144 1144 1144 1145 1145 1145 1145 1145 1145 1144 1144 1143 1143 1143 1141 1140 1138 1137 1136 1134 1133 1131 1129 1127 1126 1124 1123 1122 1121 1120 1118 1117 1117 1117 1117 1116 1116 1116 1116 1116 1117 1117 1117 1118 1118 1119 1120 1122 1124 1126 1128 1130 1133 1136 1137 1138 1139 1143 1144 1144 1146 1148 1149 1149 1150 1152 1152 1154 1155 1156 1157 1158 1159 1160 1161 1162 1163 1164 1166 1168 1169 1170 1170 1172 1176 1180 1182 1183 1184 1199 1233 1240 1259 1282 1291 1302 1304 1314 1328 1345 1358 1364 1365 1368 1380 1389 1395 1395 1396 1400 1410 1418 1424 1428 1430 1431 1434 1440 1443 1444 1446 1447 1447 1447 1447 1447 1447 1447 1447 1448 1450 1453 1461 1466 1467 1468 1470 1469 1468 1468 1468 0
1869 1869 1880 1887 1902 1919 1932 1944 1960 1979 1991 1997 2001 2007 2012 2016 2022 2031 2039 2049 2059 2065 2069 2079 2090 2102 2117 2130 2137 2141 2146 2152 2160 2168 2177 2186 2194 2201 2209 2211 2217 2222 2227 2229 2236 2241 2250 2261 2269 2274 2281 2289 2299 2309 2315 2320 2322 2328 2338 2347 2354 2359 2364 2370 2374 2379 2384 2389 2395 2400 2405 2410 2414 2422 2430 2436 2443 2450 2455 2460 2467 2475 2484 2491 2497 2501 2504 2508 2512 2513 2518 2525 2532 2537 2543 2548 2553 2555 2560 2563 2567 2569 2572 2575 2576 2577 2577 2580 2585 2592 2599 2603 2606 2608 2608 2609 2610 2613 2614 2615 2618 2622 2624 2626 2626 2626 2627 2629 2633 2635 2639 2640 2640 2640 2638 2636 2635 2633 2633 2632 2632 2631 2630 2629 2628 2628 2627 2624 2623 2622 2622 2621 2620 2617 2615 2608 2605 2599 2593 2585 2579 2564 2547 2517 0 0 0 0 0 1347 1322 1304 1300 1299 1293 1292 1292 1290 1288 1287 1286 1286 1285 1283 1282 1282 1281 1280 1279 1278 1277 1275 1272 1270 1268 1267 1266 1264 1260 1258 1251 1245 1242 1240 1237 1236 1233 1231 1229 1227 1226 1225 1224 1223 1222 1222 1221 1221 1221 1220 1219 1218 1217 1216 1214 1214 1212 1211 1210 1209 1209 1208 1207 1206 1206 1206 1205 1205 1205 1204 1203 1202 1202 1201 1200 1200 1198 1198 1198 1198 1198 1196 1196 1196 1196 1196 1195 1195 1195 1195 1195 1194 1192 1191 1190 1188 1187 1186 1185 1184 1184 1184 1184 1183 1181 1180 1180 1180 1180 1180 1180 1180 1180 1179 1179 1179 1179 1179 1180 1181 1181 1182 1182 1183 1183 1183 1182 1182 1181 1181 1181 1180 1180 1180 1180 1180 1180 1180 1178 1178 1178 1178 1178 1178 1176 1175 1175 1175 1175 1175 1175 1175 1174 1173 1170 1169 1169 1169 1170 1170 1170 1170 1170 1170 1170 1170 1170 1170 1170 1170 1170 1170 1169 1169 1169 1169 1169 1169 1168 1168 1168 1168 1168 1168 1167 1167 1167 1167 1166 1166 1166 1166 1166 1165 1165 1163 1162 1161 1160 1160 1160 1160 1159 1157 1156 1155 1152 1152 1152 1151 1151 1151 1151 1151 1151 1151 1151 1151 1151 1151 1151 1151 1152 1152 1152 1153 1154 1154 1155 1155 1156 1156 1156 1156 1156 1156 1156 1156 1156 1155 1155 1155 1155 1154 1154 1153 1153 1153 1153 1152 1152 1151 1150 1150 1149 1149 1148 1148 1147 1147 1146 1145 1144 1141 1140 1139 1139 1139 1139 1138 1137 1137 1136 1136 1135 1134 1134 1134 1135 1135 1135 1136 1136 1137 1137 1137 1137 1137 1138 1138 1139 1140 1141 1141 1142 1142 1142 1143 1143 1143 1143 1143 1142 1142 1142 1142 1141 1141 1141 1141 1141 1141 1141 1141 1141 1142 1142 1142 1142 1143 1143 1144 1144 1144 1144 1145 1145 1146 1147 1147 1147 1146 1146 1146 1145 1145 1144 1144 1143 1143 1141 1140 1138 1137 1136 1134 1133 1131 1129 1128 1126 1124 1123 1122 1121 1120 1119 1118 1117 1117 1117 1116 1116 1116 1116 1117 1118 1118 1118 1119 1120 1121 1122 1124 1126 1127 1129 1132 1135 1137 1137 1139 1142 1143 1145 1145 1147 1148 1149 1150 1151 1152 1153 1154 1155 1156 1158 1159 1160 1161 1161 1162 1163 1165 1167 1169 1171 1171 1171 1172 1176 1182 1182 1183 1184 1201 1233 1240 1259 1282 1291 1302 1304 1315 1329 1345 1359 1366 1369 1370 1380 1390 1396 1397 1397 1401 1411 1419 1426 1430 1431 1433 1437 1441 1443 1444 1446 1447 1447 1447 1447 1446 1446 1446 1446 1448 1449 1453 1460 1467 1468 1468 1469 1468 1467 1467 1467 0
1869 1869 1880 1887 1901 1919 1932 1944 1958 1972 1983 1987 1993 1999 2004 2010 2017 2025 2034 2045 2053 2062 2069 2078 2090 2102 2117 2129 2136 2141 2145 2150 2158 2165 2175 2183 2192 2201 2208 2211 2215 2218 2222 2228 2236 2241 2251 2262 2269 2274 2281 2289 2299 2305 2314 2318 2322 2328 2335 2344 2354 2359 2364 2369 2373 2378 2382 2389 2395 2401 2405 2410 2415 2421 2427 2435 2443 2450 2455 2459 2465 2474 2484 2491 2497 2501 2504 2508 2512 2513 2518 2525 2531 2538 2544 2549 2554 2557 2560 2563 2565 2568 2572 2575 2575 2575 2576 2577 2583 2592 2599 2603 2604 2604 2606 2606 2608 2610 2613 2615 2618 2618 2622 2622 2624 2624 2626 2628 2633 2635 2639 2640 2640 2640 2638 2636 2634 2633 2633 2632 2632 2632 2630 2629 2628 2627 2626 2624 2623 2622 2622 2621 2620 2617 2615 2611 2606 2599 2593 2585 2579 2564 2544 2517 0 0 0 0 0 1347 1322 1305 1300 1299 1293 1292 1291 1290 1288 1287 1286 1286 1285 1283 1283 1282 1281 1280 1279 1278 1277 1275 1273 1270 1268 1268 1266 1264 1262 1258 1255 1252 1246 1243 1240 1237 1235 1231 1231 1230 1229 1226 1225 1223 1223 1222 1222 1222 1222 1221 1221 1219 1219 1218 1217 1214 1213 1213 1212 1211 1210 1209 1209 1208 1208 1207 1207 1206 1206 1205 1205 1204 1203 1203 1201 1201 1201 1201 1200 1200 1200 1199 1199 1198 1198 1198 1197 1197 1196 1196 1196 1195 1194 1193 1192 1191 1190 1189 1187 1185 1184 1184 1183 1181 1180 1179 1179 1178 1177 1177 1178 1178 1178 1178 1178 1178 1178 1178 1180 1181 1181 1182 1182 1182 1182 1182 1182 1182 1182 1182 1182 1182 1182 1181 1181 1181 1181 1180 1180 1180 1180 1179 1179 1179 1178 1177 1177 1177 1176 1176 1176 1175 1174 1174 1171 1171 1171 1172 1172 1172 1172 1171 1170 1170 1170 1171 1171 1171 1170 1170 1170 1170 1169 1169 1169 1169 1169 1169 1169 1169 1168 1168 1168 1168 1168 1167 1167 1167 1167 1166 1166 1166 1166 1166 1165 1164 1163 1162 1161 1161 1160 1160 1160 1158 1156 1155 1154 1153 1153 1153 1153 1153 1154 1154 1154 1152 1152 1152 1152 1152 1152 1152 1152 1152 1153 1153 1154 1154 1155 1155 1156 1156 1156 1156 1156 1156 1156 1156 1156 1156 1156 1155 1155 1155 1155 1154 1154 1154 1153 1153 1153 1152 1151 1151 1151 1150 1149 1149 1149 1148 1147 1146 1145 1143 1142 1141 1141 1140 1140 1139 1138 1138 1138 1138 1138 1137 1136 1136 1136 1136 1137 1137 1137 1137 1138 1138 1139 1139 1140 1140 1140 1141 1142 1142 1143 1143 1143 1143 1143 1143 1144 1144 1143 1143 1143 1143 1143 1142 1142 1142 1142 1142 1142 1142 1142 1143 1143 1143 1144 1144 1144 1145 1145 1146 1146 1146 1146 1147 1147 1147 1147 1147 1146 1146 1145 1145 1145 1145 1143 1143 1141 1140 1138 1137 1136 1134 1133 1131 1129 1127 1126 1125 1123 1122 1121 1120 1119 1118 1118 1117 1117 1117 1117 1117 1117 1117 1118 1118 1119 1120 1121 1121 1123 1125 1128 1129 1131 1134 1136 1137 1139 1141 1143 1144 1146 1146 1148 1148 1150 1150 1151 1152 1153 1155 1156 1157 1158 1160 1160 1161 1162 1163 1164 1166 1168 1170 1171 1172 1172 1173 1177 1182 1182 1183 1184 1201 1233 1240 1259 1282 1291 1302 1305 1319 1333 1348 1359 1367 1369 1373 1382 1392 1398 1398 1399 1403 1412 1419 1426 1431 1433 1436 1440 1442 1445 1446 1446 1447 1447 1447 1446 1446 1446 1446 1446 1447 1448 1452 1460 1467 1468 1468 1468 1467 1467 1467 1466 0
1871 1871 1886 1888 1899 1917 1932 1944 1958 1967 1977 1982 1989 1993 1999 2004 2010 2017 2026 2037 2048 2058 2067 2078 2090 2102 2116 2126 2131 2136 2140 2146 2155 2162 2171 2181 2191 2200 2208 2211 2213 2215 2222 2228 2236 2241 2254 2264 2274 2283 2287 2293 2299 2305 2313 2318 2322 2328 2335 2344 2353 2359 2364 2368 2372 2376 2382 2389 2395 2403 2407 2411 2415 2421 2427 2434 2442 2450 2455 2459 2465 2474 2484 2491 2497 2501 2504 2508 2512 2513 2518 2524 2531 2538 2544 2551 2556 2558 2560 2563 2565 2568 2572 2574 2574 2575 2575 2577 2583 2592 2599 2603 2604 2604 2606 2606 2608 2610 2613 2615 2617 2618 2619 2620 2623 2624 2626 2628 2631 2633 2635 2638 2638 2638 2637 2636 2635 2633 2633 2632 2632 2632 2630 2629 2628 2627 2626 2624 2623 2622 2621 2620 2618 2617 2615 2611 2607 2599 2593 2585 2578 2564 2544 2517 0 0 0 0 0 1348 1323 1305 1300 1299 1294 1292 1291 1291 1289 1287 1287 1286 1285 1283 1283 1282 1281 1281 1279 1278 1277 1276 1274 1272 1270 1269 1267 1265 1262 1259 1256 1253 1251 1248 1244 1242 1239 1233 1232 1232 1229 1228 1226 1224 1224 1224 1224 1223 1222 1222 1222 1220 1220 1219 1218 1217 1215 1214 1213 1212 1211 1210 1209 1209 1208 1208 1208 1207 1207 1207 1206 1206 1205 1204 1204 1204 1204 1203 1203 1202 1202 1202 1202 1201 1201 1200 1200 1200 1199 1198 1198 1197 1196 1195 1193 1192 1191 1190 1187 1185 1184 1184 1182 1180 1178 1178 1177 1176 1176 1176 1176 1177 1177 1177 1176 1176 1176 1177 1178 1179 1180 1181 1182 1182 1182 1182 1182 1182 1182 1182 1183 1182 1182 1183 1183 1182 1182 1182 1182 1182 1181 1181 1180 1180 1179 1179 1178 1177 1177 1177 1176 1176 1176 1175 1175 1175 1175 1175 1174 1174 1172 1171 1171 1171 1171 1171 1171 1171 1170 1170 1170 1170 1170 1170 1170 1170 1169 1169 1169 1168 1168 1168 1168 1168 1168 1167 1167 1167 1167 1167 1167 1167 1167 1167 1166 1166 1165 1165 1163 1163 1163 1162 1161 1160 1159 1158 1156 1156 1155 1155 1155 1156 1157 1157 1157 1156 1154 1154 1154 1154 1154 1153 1153 1153 1154 1154 1154 1155 1155 1156 1156 1156 1156 1156 1156 1156 1157 1157 1156 1156 1156 1156 1156 1156 1155 1155 1154 1154 1154 1154 1153 1153 1152 1152 1151 1151 1151 1150 1150 1149 1147 1146 1146 1144 1144 1144 1142 1142 1140 1140 1139 1139 1139 1138 1138 1137 1137 1137 1137 1138 1138 1138 1139 1139 1139 1140 1141 1141 1141 1142 1142 1142 1143 1144 1144 1144 1144 1145 1145 1145 1145 1145 1145 1144 1144 1144 1143 1143 1143 1143 1142 1142 1142 1142 1143 1143 1144 1144 1145 1145 1146 1146 1147 1147 1147 1147 1148 1148 1148 1148 1148 1147 1147 1146 1146 1146 1145 1145 1144 1142 1141 1140 1138 1137 1135 1134 1133 1131 1129 1128 1126 1125 1124 1122 1121 1120 1119 1118 1118 1118 1118 1118 1117 1117 1117 1118 1119 1119 1120 1120 1122 1123 1124 1126 1129 1131 1133 1135 1136 1139 1141 1142 1144 1145 1146 1148 1148 1148 1150 1150 1151 1153 1154 1155 1156 1158 1159 1161 1161 1162 1163 1165 1166 1168 1169 1171 1172 1172 1173 1175 1178 1183 1185 1186 1193 1203 1232 1237 1256 1282 1291 1306 1309 1320 1336 1350 1360 1367 1371 1375 1383 1393 1399 1399 1402 1406 1412 1421 1427 1436 1437 1440 1441 1444 1445 1447 1447 1447 1447 1447 1447 1446 1446 1446 1447 1447 1448 1452 1458 1467 1468 1468 1468 1467 1467 1467 1467 0
1875 1875 1886 1888 1899 1917 1932 1944 1957 1965 1973 1979 1988 1993 1997 2004 2008 2014 2020 2032 2042 2053 2063 2078 2090 2102 2113 2118 2122 2129 2134 2145 2154 2162 2171 2180 2191 2200 2208 2210 2211 2215 2222 2228 2237 2242 2254 2267 2279 2289 2293 2296 2299 2305 2313 2317 2322 2328 2335 2344 2353 2360 2364 2368 2372 2374 2381 2389 2395 2403 2410 2413 2415 2421 2427 2433 2442 2449 2455 2459 2465 2474 2483 2490 2494 2495 2499 2503 2507 2512 2518 2524 2531 2538 2544 2551 2556 2558 2560 2563 2565 2567 2570 2573 2574 2575 2575 2577 2583 2592 2599 2603 2604 2604 2606 2606 2608 2610 2613 2615 2617 2618 2618 2618 2621 2621 2624 2627 2630 2632 2633 2636 2637 2637 2637 2636 2635 2633 2633 2632 2632 2632 2630 2629 2627 2626 2626 2625 2623 2622 2621 2620 2618 2616 2616 2612 2607 2599 2593 2585 2577 2564 2544 2517 0 0 0 0 0 1350 1337 1313 1308 1299 1296 1292 1292 1292 1289 1288 1287 1286 1285 1283 1283 1283 1282 1282 1279 1278 1278 1276 1274 1273 1271 1270 1269 1267 1262 1259 1258 1256 1254 1251 1248 1246 1243 1240 1236 1234 1232 1230 1229 1228 1226 1225 1225 1225 1224 1224 1223 1222 1221 1220 1219 1218 1216 1215 1215 1214 1212 1211 1210 1210 1210 1209 1209 1209 1208 1208 1207 1207 1206 1206 1205 1205 1205 1205 1205 1205 1204 1203 1203 1203 1203 1203 1202 1202 1201 1200 1200 1199 1198 1197 1195 1194 1193 1191 1190 1187 1185 1184 1182 1180 1176 1175 1173 1173 1173 1173 1175 1176 1176 1176 1175 1175 1175 1176 1177 1178 1179 1180 1180 1180 1181 1182 1182 1182 1183 1183 1183 1183 1183 1184 1184 1184 1184 1184 1184 1183 1182 1182 1182 1181 1181 1180 1180 1180 1180 1179 1179 1178 1178 1176 1176 1176 1176 1176 1175 1174 1172 1172 1172 1171 1171 1171 1171 1171 1171 1170 1170 1170 1170 1170 1170 1170 1170 1169 1169 1168 1168 1168 1168 1168 1167 1167 1167 1167 1167 1167 1167 1168 1168 1167 1167 1167 1167 1167 1166 1166 1166 1165 1165 1164 1162 1159 1158 1158 1158 1157 1157 1158 1158 1159 1159 1159 1158 1158 1156 1155 1154 1154 1154 1154 1154 1154 1155 1155 1155 1155 1156 1156 1156 1156 1156 1157 1157 1157 1157 1156 1156 1156 1156 1156 1155 1155 1154 1154 1154 1154 1154 1153 1153 1152 1152 1152 1152 1151 1151 1149 1148 1148 1147 1146 1145 1145 1144 1143 1142 1142 1141 1140 1139 1139 1138 1138 1138 1138 1139 1140 1140 1140 1140 1141 1141 1141 1142 1142 1142 1143 1143 1143 1144 1144 1145 1145 1145 1145 1145 1145 1146 1146 1146 1145 1145 1145 1145 1144 1144 1144 1144 1144 1144 1144 1144 1145 1145 1145 1145 1146 1147 1148 1148 1149 1149 1149 1149 1149 1149 1148 1148 1148 1148 1148 1147 1146 1145 1145 1143 1142 1141 1140 1138 1137 1135 1134 1133 1131 1129 1128 1127 1125 1124 1122 1121 1120 1119 1119 1118 1118 1118 1118 1118 1118 1119 1119 1120 1120 1120 1122 1123 1124 1126 1128 1129 1132 1134 1136 1137 1140 1142 1143 1145 1146 1147 1148 1149 1149 1150 1151 1152 1153 1154 1156 1157 1158 1160 1161 1162 1163 1164 1166 1167 1169 1171 1172 1172 1173 1174 1176 1181 1184 1189 1191 1196 1203 1227 1235 1256 1282 1292 1306 1309 1327 1340 1351 1362 1367 1372 1377 1385 1395 1399 1401 1405 1410 1414 1422 1430 1440 1441 1443 1443 1446 1448 1448 1448 1448 1447 1446 1446 1446 1446 1446 1446 1446 1448 1451 1455 1460 1465 1465 1465 1468 1468 1478 1478 0
1877 1877 1886 1888 1899 1913 1929 1944 1957 1965 1970 1976 1985 1993 1997 2003 2006 2013 2020 2029 2039 2053 2063 2074 2088 2102 2110 2114 2120 2128 2134 2145 2153 2162 2171 2180 2190 2199 2205 2208 2210 2215 2223 2231 2241 2246 2255 2267 2281 2290 2296 2297 2300 2306 2312 2317 2321 2328 2336 2345 2354 2361 2365 2368 2372 2374 2380 2389 2395 2403 2410 2414 2418 2421 2427 2433 2438 2444 2450 2459 2464 2473 2482 2488 2491 2491 2495 2499 2503 2507 2515 2522 2528 2535 2544 2551 2556 2558 2559 2560 2563 2565 2568 2572 2575 2575 2575 2577 2583 2592 2599 2603 2604 2605 2607 2609 2609 2610 2613 2615 2616 2618 2618 2618 2621 2621 2624 2627 2630 2632 2633 2636 2637 2637 2637 2636 2635 2633 2633 2633 2632 2632 2631 2629 2627 2627 2626 2626 2625 2622 2621 2620 2618 2616 2616 2612 2608 2599 2593 2584 2576 2566 2553 2531 0 0 0 0 0 0 1345 1331 1318 1304 1299 1298 1293 1293 1290 1288 1287 1286 1285 1283 1283 1282 1282 1282 1280 1279 1279 1276 1275 1273 1272 1270 1269 1268 1265 1263 1260 1259 1257 1254 1251 1249 1246 1242 1238 1236 1233 1231 1231 1230 1228 1227 1226 1226 1226 1226 1226 1224 1223 1222 1221 1219 1217 1216 1216 1215 1213 1213 1212 1212 1212 1211 1211 1210 1210 1209 1209 1208 1208 1208 1207 1207 1207 1207 1207 1206 1206 1205 1205 1205 1204 1204 1203 1203 1203 1202 1202 1201 1201 1199 1198 1197 1195 1193 1191 1188 1186 1185 1182 1180 1176 1173 1171 1171 1171 1171 1172 1174 1174 1174 1174 1174 1174 1174 1175 1177 1178 1178 1178 1179 1179 1181 1181 1182 1184 1184 1184 1184 1185 1185 1185 1185 1185 1185 1185 1184 1184 1184 1183 1183 1183 1182 1182 1182 1181 1181 1181 1180 1180 1179 1178 1177 1176 1176 1175 1174 1174 1174 1173 1172 1171 1171 1171 1171 1171 1171 1170 1170 1170 1170 1170 1170 1170 1169 1169 1168 1168 1168 1167 1167 1167 1167 1167 1166 1166 1167 1168 1168 1168 1168 1168 1168 1168 1169 1168 1168 1168 1167 1167 1166 1165 1163 1163 1163 1162 1162 1160 1160 1160 1160 1161 1161 1161 1160 1158 1158 1157 1156 1156 1155 1155 1155 1155 1155 1155 1155 1156 1156 1156 1156 1156 1157 1157 1157 1157 1156 1156 1156 1156 1156 1155 1155 1154 1154 1154 1154 1154 1154 1154 1154 1153 1153 1153 1153 1152 1150 1150 1149 1149 1149 1148 1147 1147 1145 1144 1143 1142 1141 1141 1139 1139 1139 1139 1139 1140 1142 1142 1142 1142 1142 1143 1143 1143 1144 1144 1144 1144 1145 1145 1145 1146 1146 1146 1146 1147 1147 1147 1147 1146 1146 1146 1146 1146 1146 1145 1145 1145 1145 1145 1145 1145 1145 1146 1147 1147 1147 1148 1149 1149 1149 1149 1149 1149 1149 1149 1149 1149 1149 1148 1148 1147 1146 1145 1145 1143 1142 1141 1139 1138 1137 1135 1134 1133 1131 1129 1127 1127 1125 1124 1122 1122 1121 1120 1119 1119 1119 1119 1119 1119 1119 1119 1119 1120 1120 1121 1123 1125 1126 1128 1130 1130 1132 1135 1137 1138 1142 1143 1144 1146 1147 1147 1148 1149 1150 1151 1152 1153 1153 1155 1156 1157 1158 1160 1161 1162 1164 1165 1168 1169 1171 1172 1172 1173 1173 1175 1180 1184 1187 1193 1196 1199 1206 1221 1235 1256 1286 1299 1313 1316 1333 1353 1355 1363 1368 1373 1378 1389 1395 1401 1404 1409 1416 1420 1426 1432 1440 1442 1446 1446 1450 1451 1451 1451 1449 1448 1446 1446 1446 1446 1446 1446 1446 1448 1449 1452 1458 1465 1465 1465 1468 1468 1478 1478 0
1877 1877 1886 1888 1898 1912 1925 1943 1957 1965 1967 1973 1981 1991 1996 2001 2006 2012 2020 2029 2039 2053 2063 2074 2088 2100 2106 2112 2118 2128 2133 2145 2153 2162 2171 2180 2189 2196 2201 2206 2210 2216 2223 2232 2242 2251 2255 2267 2281 2290 2296 2298 2301 2306 2312 2316 2321 2328 2337 2345 2354 2361 2365 2367 2371 2373 2377 2385 2394 2403 2410 2415 2419 2424 2429 2432 2436 2440 2447 2455 2464 2472 2481 2487 2488 2489 2492 2496 2500 2504 2513 2521 2528 2534 2543 2550 2556 2557 2558 2560 2563 2565 2568 2572 2575 2575 2575 2577 2584 2593 2599 2602 2602 2605 2607 2609 2609 2610 2612 2614 2616 2618 2618 2618 2621 2621 2624 2627 2630 2632 2633 2636 2637 2638 2638 2638 2638 2635 2633 2633 2633 2632 2631 2629 2627 2627 2627 2627 2627 2626 2623 2621 2618 2616 2616 2615 2612 2605 2593 2584 2576 2567 2561 2551 2537 0 0 0 0 0 0 1350 1343 1317 1311 1307 1306 1299 1294 1288 1288 1286 1285 1283 1283 1282 1282 1282 1280 1279 1279 1278 1276 1274 1272 1271 1270 1268 1267 1264 1261 1261 1259 1256 1253 1252 1249 1245 1242 1240 1237 1234 1233 1230 1230 1229 1228 1228 1227 1227 1226 1226 1224 1223 1222 1220 1218 1218 1216 1216 1215 1214 1213 1213 1212 1212 1212 1211 1211 1211 1210 1210 1210 1210 1209 1209 1209 1209 1209 1208 1208 1207 1207 1207 1207 1205 1205 1204 1204 1204 1204 1203 1202 1201 1200 1198 1197 1195 1193 1192 1188 1186 1183 1180 1176 1173 1171 1170 1170 1170 1171 1171 1172 1172 1172 1172 1172 1172 1172 1173 1174 1175 1176 1177 1178 1179 1181 1181 1183 1184 1184 1185 1186 1186 1186 1186 1186 1186 1186 1186 1186 1185 1185 1185 1185 1184 1183 1183 1183 1182 1182 1182 1182 1182 1181 1180 1179 1177 1177 1176 1176 1175 1174 1173 1172 1171 1171 1171 1171 1171 1170 1170 1170 1170 1170 1169 1169 1168 1168 1168 1167 1165 1165 1165 1165 1165 1165 1166 1166 1166 1168 1168 1169 1169 1170 1170 1170 1170 1170 1169 1168 1168 1167 1167 1167 1166 1166 1166 1165 1165 1165 1165 1165 1165 1165 1164 1162 1160 1159 1159 1158 1158 1157 1157 1156 1156 1155 1155 1155 1155 1155 1156 1156 1156 1156 1156 1157 1157 1156 1156 1156 1156 1156 1156 1155 1155 1154 1154 1154 1154 1154 1154 1154 1154 1154 1154 1154 1154 1154 1151 1150 1150 1150 1150 1150 1149 1149 1148 1146 1145 1144 1143 1141 1139 1139 1139 1139 1141 1142 1143 1144 1144 1145 1145 1145 1145 1146 1146 1146 1146 1146 1146 1146 1146 1146 1147 1147 1147 1147 1147 1147 1147 1147 1147 1147 1147 1147 1146 1146 1146 1146 1146 1146 1146 1146 1147 1147 1148 1148 1149 1149 1149 1150 1150 1150 1150 1151 1151 1151 1150 1150 1149 1149 1148 1147 1146 1145 1145 1143 1142 1141 1139 1138 1137 1135 1134 1132 1130 1129 1127 1127 1125 1124 1123 1122 1122 1120 1120 1119 1119 1119 1119 1119 1119 1120 1121 1121 1122 1123 1124 1126 1127 1128 1130 1132 1135 1136 1138 1140 1142 1143 1145 1146 1147 1148 1148 1149 1150 1151 1152 1154 1154 1156 1157 1157 1160 1161 1162 1163 1166 1167 1169 1170 1172 1173 1174 1176 1177 1178 1182 1184 1189 1194 1199 1200 1206 1221 1235 1266 1287 1302 1316 1319 1340 1354 1363 1367 1371 1375 1381 1389 1395 1401 1406 1412 1419 1425 1430 1433 1440 1442 1447 1450 1452 1452 1452 1452 1450 1448 1448 1446 1446 1446 1446 1446 1446 1446 1448 1452 1458 1465 1465 1465 1466 1466 1478 1478 0
1877 1877 1884 1887 1898 1912 1925 1943 1957 1965 1967 1969 1977 1987 1994 2001 2006 2012 2021 2029 2039 2054 2064 2074 2088 2099 2105 2110 2116 2126 2132 2145 2153 2162 2171 2180 2189 2194 2198 2204 2209 2216 2224 2233 2243 2251 2256 2267 2281 2290 2296 2299 2302 2306 2311 2316 2321 2331 2339 2345 2353 2361 2365 2367 2371 2373 2377 2383 2391 2401 2410 2415 2421 2425 2429 2432 2436 2440 2446 2453 2460 2468 2478 2483 2484 2488 2492 2496 2500 2504 2513 2521 2528 2534 2542 2548 2554 2557 2558 2560 2563 2565 2568 2572 2575 2576 2577 2580 2585 2593 2597 2599 2602 2605 2607 2609 2609 2610 2611 2613 2616 2619 2622 2622 2623 2623 2624 2627 2631 2634 2636 2636 2637 2638 2640 2640 2640 2637 2636 2634 2634 2633 2631 2629 2628 2628 2628 2628 2628 2627 2626 2623 2621 2618 2617 2616 2616 2605 2593 2581 2572 2567 2565 2554 2538 2520 0 0 0 0 0 0 1365 1342 1327 1316 1312 1304 1295 1292 1289 1289 1285 1283 1283 1282 1282 1282 1280 1279 1279 1279 1277 1275 1273 1272 1270 1269 1267 1266 1265 1262 1261 1258 1256 1253 1251 1247 1244 1242 1240 1238 1236 1233 1232 1231 1231 1230 1229 1228 1228 1227 1226 1224 1223 1221 1220 1219 1218 1216 1215 1215 1214 1214 1214 1213 1213 1212 1212 1212 1212 1211 1211 1210 1210 1210 1210 1210 1209 1209 1209 1209 1208 1208 1208 1207 1206 1206 1206 1205 1204 1204 1203 1202 1202 1201 1199 1198 1195 1193 1190 1187 1184 1183 1177 1173 1171 1170 1170 1170 1171 1171 1171 1170 1170 1170 1170 1170 1171 1171 1172 1173 1175 1176 1178 1179 1180 1180 1182 1184 1185 1185 1186 1187 1187 1187 1187 1187 1187 1187 1187 1187 1186 1186 1185 1185 1184 1184 1184 1184 1184 1184 1183 1183 1183 1181 1180 1179 1178 1178 1178 1176 1174 1173 1172 1171 1171 1171 1171 1171 1170 1170 1170 1170 1169 1169 1169 1168 1167 1166 1165 1165 1165 1163 1163 1163 1164 1164 1165 1166 1167 1169 1169 1169 1170 1171 1171 1171 1171 1171 1171 1170 1170 1170 1170 1169 1167 1167 1167 1167 1167 1167 1167 1167 1167 1166 1165 1163 1162 1161 1160 1159 1158 1157 1157 1156 1155 1155 1155 1155 1155 1156 1156 1156 1156 1156 1156 1156 1156 1156 1156 1156 1155 1155 1155 1154 1154 1154 1154 1154 1154 1155 1154 1154 1155 1155 1154 1154 1154 1153 1153 1153 1153 1153 1152 1151 1151 1150 1149 1147 1146 1145 1145 1144 1142 1142 1142 1143 1144 1144 1145 1145 1145 1146 1147 1148 1148 1148 1148 1148 1147 1147 1147 1147 1148 1148 1148 1148 1148 1148 1148 1149 1149 1148 1148 1148 1148 1147 1147 1147 1147 1147 1147 1147 1147 1148 1148 1149 1149 1149 1150 1150 1151 1151 1151 1151 1151 1151 1151 1151 1150 1150 1149 1148 1147 1146 1145 1144 1143 1142 1140 1139 1138 1137 1135 1134 1132 1130 1129 1128 1127 1125 1125 1123 1123 1122 1121 1120 1120 1120 1120 1120 1120 1121 1121 1122 1123 1123 1125 1126 1127 1129 1131 1132 1133 1137 1139 1140 1140 1142 1143 1145 1146 1147 1148 1148 1149 1150 1152 1153 1154 1154 1156 1157 1159 1160 1161 1163 1165 1168 1169 1170 1172 1173 1174 1175 1177 1178 1179 1182 1185 1189 1194 1199 1202 1206 1221 1242 1270 1289 1302 1316 1319 1341 1357 1367 1372 1375 1379 1384 1389 1396 1401 1406 1413 1422 1429 1433 1434 1442 1444 1449 1453 1454 1454 1454 1453 1450 1449 1449 1448 1446 1446 1442 1442 1442 1444 1446 1449 1454 1464 1464 1464 1466 1466 1473 1473 0
1875 1875 1884 1887 1899 1912 1925 1943 1957 1964 1967 1967 1971 1981 1990 1998 2003 2011 2021 2030 2042 2054 2064 2074 2086 2097 2104 2108 2115 2126 2131 2143 2152 2161 2171 2180 2188 2193 2196 2203 2209 2216 2225 2234 2244 2251 2256 2264 2275 2286 2294 2299 2303 2306 2309 2315 2322 2331 2339 2346 2354 2358 2364 2367 2372 2374 2377 2383 2391 2400 2408 2415 2421 2427 2430 2432 2435 2438 2444 2450 2456 2462 2471 2480 2484 2488 2492 2496 2500 2504 2513 2521 2528 2534 2542 2548 2554 2556 2558 2561 2564 2567 2570 2572 2575 2577 2580 2583 2588 2593 2595 2598 2601 2604 2606 2609 2609 2610 2610 2612 2616 2619 2622 2625 2627 2627 2629 2630 2633 2636 2637 2639 2640 2640 2641 2641 2641 2640 2637 2635 2635 2634 2632 2630 2628 2628 2628 2628 2628 2627 2627 2625 2621 2618 2617 2616 2616 2605 2593 2581 2572 2568 2565 2555 2540 2525 0 0 0 0 0 0 0 1384 1359 1324 1322 1316 1304 1296 1295 1294 1285 1283 1283 1283 1282 1282 1280 1279 1279 1279 1277 1275 1273 1272 1270 1269 1268 1267 1266 1265 1263 1261 1259 1255 1252 1248 1245 1243 1241 1241 1239 1236 1234 1234 1233 1232 1231 1230 1229 1228 1227 1226 1225 1223 1221 1220 1219 1218 1217 1216 1216 1215 1215 1215 1214 1214 1214 1214 1213 1213 1212 1212 1212 1211 1211 1211 1211 1211 1211 1210 1209 1209 1209 1209 1208 1207 1207 1206 1206 1206 1205 1205 1203 1202 1201 1199 1197 1195 1190 1188 1187 1184 1179 1173 1171 1170 1170 1170 1170 1170 1170 1170 1170 1170 1170 1170 1171 1171 1172 1173 1174 1175 1177 1179 1180 1180 1182 1184 1185 1185 1186 1187 1187 1188 1188 1188 1188 1188 1188 1188 1188 1188 1187 1187 1186 1186 1186 1185 1185 1185 1185 1184 1183 1182 1182 1181 1180 1179 1179 1178 1176 1174 1172 1171 1171 1171 1170 1170 1170 1170 1169 1169 1168 1168 1167 1166 1166 1165 1164 1163 1163 1163 1163 1163 1164 1164 1165 1166 1167 1169 1169 1170 1171 1171 1172 1172 1173 1173 1173 1172 1171 1171 1170 1170 1170 1169 1168 1168 1168 1168 1168 1168 1168 1167 1166 1164 1163 1163 1162 1160 1160 1159 1158 1156 1156 1155 1155 1155 1155 1155 1155 1155 1155 1156 1156 1156 1156 1156 1156 1156 1155 1154 1154 1154 1154 1154 1154 1154 1154 1155 1155 1155 1155 1155 1155 1155 1155 1155 1155 1155 1155 1154 1153 1152 1151 1151 1151 1150 1150 1149 1149 1148 1148 1147 1147 1147 1147 1147 1147 1147 1147 1147 1148 1149 1149 1149 1149 1149 1148 1148 1148 1149 1149 1149 1149 1149 1149 1150 1150 1150 1150 1150 1150 1149 1149 1149 1148 1148 1148 1148 1147 1147 1147 1148 1149 1149 1149 1150 1151 1152 1152 1152 1152 1152 1152 1152 1151 1151 1151 1150 1149 1148 1147 1146 1144 1144 1143 1141 1140 1139 1138 1136 1135 1134 1132 1131 1129 1128 1127 1127 1126 1124 1124 1123 1121 1121 1121 1121 1121 1121 1121 1121 1122 1123 1124 1124 1127 1128 1129 1130 1132 1133 1135 1138 1139 1140 1141 1143 1144 1145 1146 1148 1149 1149 1150 1151 1152 1154 1154 1155 1156 1157 1159 1161 1162 1165 1167 1169 1170 1171 1172 1173 1174 1176 1177 1178 1179 1182 1185 1189 1194 1199 1202 1208 1231 1246 1285 1295 1306 1316 1320 1342 1359 1367 1372 1376 1382 1387 1391 1396 1401 1407 1415 1426 1434 1436 1440 1447 1449 1453 1457 1457 1457 1455 1454 1454 1452 1452 1451 1449 1446 1442 1442 1442 1442 1445 1449 1454 1464 1464 1464 1457 1457 1457 1453 0
1874 1874 1882 1885 1899 1913 1932 1943 1956 1958 1958 1958 1965 1973 1980 1990 1995 2008 2021 2030 2042 2054 2064 2074 2086 2097 2104 2107 2114 2126 2131 2142 2152 2159 2169 2178 2185 2192 2195 2202 2208 2216 2226 2238 2245 2251 2255 2260 2270 2283 2292 2299 2303 2306 2309 2315 2322 2331 2340 2346 2354 2358 2362 2367 2372 2374 2377 2383 2390 2399 2408 2415 2421 2427 2430 2433 2435 2438 2441 2446 2453 2461 2471 2480 2484 2488 2492 2496 2503 2506 2514 2523 2531 2536 2540 2548 2553 2556 2558 2561 2565 2568 2571 2573 2575 2577 2580 2584 2588 2593 2594 2597 2601 2604 2606 2609 2609 2609 2610 2612 2616 2620 2623 2626 2628 2630 2631 2631 2633 2636 2640 2642 2643 2644 2644 2644 2643 2642 2640 2638 2636 2634 2632 2631 2630 2630 2630 2628 2628 2627 2627 2625 2621 2618 2617 2616 2616 2604 2590 2581 2572 2568 2566 2555 2553 2525 0 0 0 0 0 0 0 0 0 0 1324 1319 1304 1303 1299 1297 1291 1290 1288 1287 1286 1284 1280 1279 1279 1279 1278 1275 1274 1273 1271 1270 1269 1269 1267 1266 1264 1263 1260 1258 1254 1250 1249 1245 1244 1243 1241 1238 1237 1235 1234 1233 1233 1232 1230 1229 1229 1228 1226 1224 1222 1222 1221 1219 1219 1218 1217 1216 1216 1216 1215 1215 1215 1215 1214 1214 1214 1214 1213 1213 1213 1212 1212 1212 1212 1212 1211 1211 1210 1210 1210 1209 1208 1208 1208 1207 1207 1206 1205 1204 1203 1201 1199 1196 1193 1189 1187 1184 1179 1173 1172 1171 1171 1170 1170 1170 1170 1170 1170 1170 1170 1170 1171 1171 1172 1173 1174 1175 1177 1178 1179 1180 1182 1184 1185 1186 1187 1187 1188 1188 1189 1189 1189 1189 1189 1189 1189 1189 1189 1188 1187 1187 1187 1187 1187 1187 1187 1187 1186 1185 1185 1183 1182 1182 1180 1178 1177 1174 1173 1172 1171 1171 1170 1170 1170 1170 1169 1169 1168 1168 1167 1166 1166 1165 1164 1163 1162 1162 1162 1163 1163 1163 1164 1166 1167 1169 1169 1170 1172 1172 1173 1173 1174 1174 1174 1173 1173 1172 1172 1172 1171 1171 1171 1170 1169 1169 1169 1169 1169 1169 1167 1167 1165 1164 1163 1162 1161 1159 1158 1156 1156 1155 1155 1155 1155 1155 1155 1155 1155 1155 1156 1156 1156 1156 1155 1155 1154 1153 1153 1153 1153 1153 1153 1153 1154 1155 1155 1155 1155 1156 1156 1156 1156 1157 1157 1157 1156 1156 1156 1155 1155 1154 1154 1154 1153 1152 1152 1151 1151 1150 1150 1150 1150 1150 1150 1149 1149 1149 1150 1151 1151 1151 1151 1151 1150 1150 1150 1150 1151 1151 1151 1151 1151 1151 1151 1151 1151 1151 1150 1150 1150 1150 1150 1150 1150 1149 1149 1149 1149 1149 1150 1150 1151 1151 1152 1153 1153 1153 1154 1154 1154 1153 1152 1152 1151 1150 1149 1148 1147 1145 1144 1144 1142 1141 1140 1138 1138 1136 1135 1134 1132 1131 1130 1129 1127 1127 1126 1125 1125 1123 1123 1123 1122 1122 1122 1122 1122 1122 1123 1123 1125 1127 1128 1129 1130 1132 1133 1135 1136 1138 1139 1140 1141 1143 1145 1145 1146 1148 1149 1150 1151 1152 1153 1154 1154 1155 1157 1158 1160 1161 1164 1167 1168 1170 1171 1172 1172 1173 1175 1176 1178 1179 1180 1182 1185 1189 1193 1197 1202 1208 1238 1254 1287 1303 1311 1321 1324 1343 1360 1367 1373 1378 1384 1393 1400 1402 1404 1409 1418 1430 1436 1439 1444 1448 1452 1455 1457 1457 1457 1456 1454 1454 1453 1453 1453 1451 1446 1442 1442 1442 1442 1445 1452 1455 1455 1455 1452 1451 1451 1451 1451 0
1868 1868 1882 1884 1899 1913 1933 1943 1947 1947 1948 1951 1957 1964 1975 1985 1991 2005 2019 2030 2042 2053 2063 2074 2086 2097 2103 2107 2114 2125 2130 2141 2150 2157 2162 2172 2182 2189 2194 2199 2206 2215 2226 2238 2245 2251 2255 2259 2266 2280 2291 2299 2303 2306 2309 2315 2323 2332 2340 2346 2353 2358 2362 2366 2371 2374 2378 2382 2389 2399 2408 2414 2421 2427 2432 2435 2435 2438 2441 2446 2453 2461 2471 2480 2485 2490 2493 2498 2503 2508 2516 2523 2531 2536 2540 2547 2553 2555 2558 2561 2565 2568 2571 2573 2575 2577 2580 2585 2589 2593 2594 2597 2601 2604 2606 2607 2608 2609 2610 2612 2617 2620 2623 2626 2629 2631 2633 2633 2635 2637 2643 2646 2646 2646 2646 2646 2645 2645 2643 2640 2637 2634 2632 2632 2632 2631 2630 2628 2628 2627 2627 2625 2620 2616 2613 2613 2605 2596 2590 2582 2578 2577 2575 2567 2560 2538 2513 0 0 0 0 0 0 0 0 0 0 1320 1307 1303 1301 1300 1298 1298 1297 1297 1297 1289 1284 1279 1279 1279 1278 1277 1276 1274 1273 1273 1271 1270 1269 1267 1265 1264 1261 1259 1256 1253 1250 1249 1247 1245 1244 1242 1240 1238 1237 1235 1234 1233 1232 1230 1230 1228 1227 1225 1223 1222 1221 1220 1219 1219 1218 1218 1217 1217 1216 1216 1216 1216 1216 1215 1215 1215 1214 1214 1214 1214 1214 1213 1213 1213 1212 1212 1211 1211 1210 1210 1209 1209 1209 1208 1208 1207 1206 1205 1204 1203 1201 1197 1195 1191 1187 1184 1181 1176 1173 1172 1172 1172 1171 1170 1170 1170 1170 1170 1170 1171 1171 1172 1172 1173 1174 1175 1176 1177 1179 1180 1182 1183 1185 1186 1187 1188 1189 1189 1190 1190 1190 1190 1190 1190 1190 1190 1190 1189 1189 1189 1189 1189 1189 1189 1188 1188 1187 1186 1186 1185 1184 1183 1182 1180 1177 1177 1174 1172 1171 1171 1170 1170 1170 1169 1169 1169 1168 1168 1167 1166 1165 1164 1164 1163 1162 1162 1162 1162 1162 1163 1164 1166 1167 1169 1170 1171 1172 1173 1173 1174 1175 1175 1175 1175 1174 1174 1174 1173 1173 1173 1172 1172 1171 1171 1171 1170 1170 1170 1169 1168 1166 1165 1164 1163 1163 1161 1158 1157 1156 1155 1155 1154 1154 1154 1154 1154 1154 1154 1154 1154 1154 1154 1154 1154 1153 1153 1153 1153 1153 1153 1153 1153 1153 1154 1155 1155 1156 1156 1157 1157 1157 1157 1157 1157 1157 1157 1157 1157 1156 1156 1156 1154 1154 1154 1153 1152 1152 1152 1152 1152 1152 1152 1151 1151 1151 1151 1151 1152 1152 1152 1152 1151 1151 1151 1151 1152 1152 1152 1152 1152 1152 1152 1152 1152 1152 1152 1152 1152 1151 1151 1151 1151 1151 1151 1151 1151 1151 1151 1151 1151 1151 1152 1153 1154 1154 1154 1154 1154 1154 1153 1152 1152 1151 1150 1149 1147 1146 1145 1144 1143 1142 1140 1139 1138 1137 1136 1135 1134 1132 1131 1131 1129 1129 1127 1126 1125 1125 1125 1124 1124 1124 1124 1124 1124 1124 1124 1124 1125 1126 1128 1130 1131 1132 1132 1135 1136 1137 1138 1140 1140 1142 1144 1145 1146 1147 1148 1150 1150 1152 1152 1153 1154 1155 1155 1158 1159 1162 1164 1166 1167 1169 1171 1172 1172 1174 1175 1177 1178 1178 1180 1181 1183 1186 1189 1193 1197 1198 1208 1243 1256 1288 1310 1321 1330 1334 1348 1361 1367 1373 1380 1389 1399 1406 1410 1412 1418 1427 1433 1439 1444 1447 1450 1453 1457 1458 1458 1458 1457 1456 1456 1456 1455 1455 1453 1451 1447 1442 1442 1442 1445 1452 1455 1455 1455 1452 1449 1444 1442 1441 0
1862 1862 1881 1883 1899 1913 1933 1936 1937 1938 1938 1943 1952 1963 1973 1982 1988 2001 2016 2025 2034 2045 2055 2067 2081 2093 2098 2105 2111 2121 2126 2136 2145 2154 2159 2167 2176 2186 2192 2198 2205 2214 2226 2238 2245 2250 2255 2259 2266 2276 2285 2294 2301 2306 2310 2317 2325 2334 2342 2349 2353 2356 2361 2365 2369 2374 2378 2382 2389 2397 2406 2414 2420 2426 2432 2436 2438 2439 2441 2446 2453 2461 2470 2480 2485 2490 2493 2498 2503 2508 2516 2523 2531 2536 2540 2546 2551 2554 2557 2561 2565 2568 2571 2573 2575 2577 2580 2585 2590 2593 2594 2597 2601 2604 2606 2607 2608 2609 2610 2613 2618 2621 2624 2628 2630 2632 2634 2636 2637 2639 2644 2647 2648 2649 2649 2649 2648 2648 2646 2641 2637 2635 2633 2633 2632 2631 2630 2628 2628 2627 2627 2624 2620 2615 2611 2608 2603 2596 2590 2588 2586 2582 2579 2573 2562 2548 2533 2513 0 0 0 0 0 0 0 0 0 0 0 0 1321 1308 1303 1300 1298 1297 1297 1293 1289 1286 1283 1280 1279 1279 1277 1276 1275 1274 1273 1272 1269 1268 1266 1264 1262 1259 1256 1255 1253 1252 1250 1248 1246 1245 1244 1242 1240 1239 1237 1235 1232 1232 1230 1229 1228 1226 1225 1223 1222 1221 1221 1220 1220 1219 1219 1218 1218 1218 1217 1217 1217 1217 1217 1216 1216 1215 1215 1215 1215 1214 1214 1214 1214 1213 1213 1212 1212 1211 1211 1211 1211 1210 1210 1209 1208 1207 1205 1204 1203 1199 1197 1194 1188 1185 1183 1178 1175 1174 1173 1172 1171 1171 1170 1170 1170 1170 1171 1172 1172 1172 1172 1173 1174 1175 1176 1177 1178 1180 1182 1184 1185 1187 1189 1189 1190 1190 1190 1191 1191 1191 1191 1191 1191 1191 1191 1191 1191 1190 1190 1190 1190 1190 1190 1189 1189 1188 1188 1187 1186 1184 1184 1180 1179 1178 1175 1172 1171 1170 1170 1170 1170 1170 1170 1170 1170 1168 1167 1166 1165 1164 1164 1163 1162 1162 1162 1162 1162 1163 1164 1166 1167 1169 1170 1171 1172 1174 1175 1175 1176 1176 1176 1176 1175 1175 1175 1175 1175 1174 1174 1174 1173 1173 1173 1173 1172 1171 1171 1170 1168 1167 1165 1164 1163 1162 1160 1157 1156 1156 1155 1155 1155 1154 1154 1154 1154 1154 1154 1154 1154 1154 1153 1153 1153 1153 1153 1153 1153 1153 1153 1153 1153 1154 1155 1155 1156 1156 1157 1157 1158 1158 1158 1158 1159 1159 1158 1158 1158 1158 1157 1157 1156 1156 1155 1155 1155 1155 1155 1155 1155 1154 1154 1154 1153 1153 1153 1153 1153 1153 1152 1152 1152 1152 1152 1153 1153 1153 1153 1153 1153 1153 1153 1153 1153 1153 1153 1153 1153 1153 1153 1153 1152 1152 1152 1152 1152 1152 1152 1152 1152 1153 1154 1154 1155 1155 1155 1155 1154 1154 1152 1152 1151 1150 1149 1147 1146 1145 1144 1143 1142 1140 1139 1138 1137 1136 1135 1134 1134 1132 1132 1131 1129 1128 1127 1127 1126 1126 1125 1125 1125 1125 1125 1125 1126 1126 1126 1127 1129 1129 1131 1132 1133 1135 1135 1136 1138 1139 1141 1141 1142 1144 1145 1146 1147 1149 1151 1152 1152 1153 1154 1155 1156 1158 1159 1161 1163 1166 1167 1169 1171 1173 1174 1174 1175 1177 1177 1179 1180 1181 1182 1183 1186 1189 1193 1197 1198 1208 1244 1264 1291 1319 1332 1342 1345 1357 1367 1373 1377 1385 1395 1402 1409 1415 1422 1427 1432 1437 1442 1448 1451 1453 1455 1458 1459 1459 1459 1459 1459 1459 1460 1460 1460 1460 1459 1455 1455 1455 1455 1455 1455 1455 1455 1455 1452 1442 1439 1432 0 0
1849 1849 1868 1870 1894 1912 1931 1931 1933 1933 1933 1941 1951 1962 1972 1982 1987 1998 2007 2018 2029 2042 2054 2063 2076 2087 2093 2099 2106 2113 2119 2130 2142 2151 2159 2167 2172 2182 2190 2197 2204 2212 2222 2231 2239 2247 2252 2258 2266 2271 2279 2287 2296 2305 2310 2317 2326 2334 2342 2349 2353 2355 2359 2364 2369 2374 2378 2381 2385 2392 2404 2413 2420 2425 2432 2436 2441 2443 2444 2448 2455 2462 2470 2480 2485 2490 2493 2498 2503 2508 2516 2523 2530 2534 2537 2542 2547 2552 2554 2558 2562 2566 2569 2571 2575 2577 2580 2585 2590 2593 2596 2599 2602 2605 2607 2607 2608 2609 2612 2617 2622 2625 2627 2629 2632 2634 2636 2638 2641 2643 2644 2647 2648 2649 2650 2650 2650 2650 2647 2643 2638 2635 2635 2634 2634 2633 2632 2629 2628 2628 2627 2624 2620 2615 2611 2608 2602 2596 2593 2592 2591 2586 2581 2574 2565 2558 2550 2541 2528 2512 0 0 0 0 0 0 0 0 0 0 0 0 1309 1301 1300 1299 1297 1294 1291 1289 1289 1286 1284 1281 1281 1279 1277 1276 1275 1274 1271 1270 1267 1265 1263 1261 1258 1256 1254 1254 1252 1250 1248 1247 1247 1246 1244 1241 1241 1238 1234 1232 1231 1230 1229 1227 1225 1225 1223 1222 1221 1221 1221 1220 1220 1219 1219 1219 1219 1218 1218 1218 1218 1217 1217 1217 1217 1216 1216 1216 1215 1215 1215 1214 1214 1213 1213 1213 1212 1212 1212 1211 1211 1210 1209 1208 1207 1205 1204 1202 1200 1197 1190 1187 1184 1180 1178 1177 1175 1174 1172 1171 1171 1170 1170 1170 1171 1172 1172 1172 1173 1173 1175 1175 1176 1177 1178 1180 1182 1183 1185 1187 1189 1191 1191 1191 1191 1191 1192 1192 1192 1192 1192 1192 1192 1192 1192 1192 1192 1191 1191 1191 1191 1191 1191 1191 1190 1189 1187 1185 1184 1181 1179 1179 1176 1173 1171 1170 1170 1170 1170 1170 1170 1170 1170 1168 1167 1166 1165 1164 1164 1164 1162 1161 1161 1161 1162 1163 1164 1167 1167 1169 1171 1172 1173 1174 1175 1176 1176 1177 1177 1177 1177 1177 1176 1176 1176 1176 1175 1175 1175 1175 1174 1174 1174 1172 1172 1171 1170 1168 1167 1167 1164 1163 1160 1159 1158 1156 1155 1155 1155 1154 1154 1154 1153 1153 1153 1153 1153 1153 1153 1152 1152 1152 1152 1152 1152 1152 1152 1152 1153 1154 1155 1156 1157 1158 1158 1158 1159 1159 1160 1160 1160 1160 1160 1160 1159 1159 1159 1159 1159 1158 1158 1157 1157 1157 1156 1156 1156 1155 1155 1155 1155 1155 1155 1155 1155 1155 1155 1154 1154 1154 1154 1154 1154 1154 1154 1154 1154 1154 1155 1155 1155 1155 1154 1154 1154 1154 1154 1154 1154 1154 1154 1154 1154 1154 1154 1154 1154 1155 1155 1155 1155 1156 1156 1156 1154 1154 1153 1152 1151 1151 1149 1147 1146 1145 1144 1143 1142 1140 1139 1138 1137 1136 1135 1134 1134 1133 1132 1131 1130 1130 1129 1128 1127 1127 1127 1126 1126 1126 1126 1127 1127 1127 1128 1130 1130 1131 1132 1132 1133 1135 1136 1137 1139 1140 1141 1142 1143 1144 1145 1147 1147 1149 1151 1152 1153 1154 1155 1156 1158 1160 1161 1163 1166 1168 1170 1172 1173 1174 1175 1176 1176 1178 1179 1180 1182 1183 1184 1186 1190 1191 1194 1197 1198 1208 1249 1272 1293 1319 1345 1348 1357 1363 1374 1380 1386 1394 1400 1406 1413 1418 1426 1434 1439 1439 1444 1450 1456 1457 1459 1460 1460 1461 1461 1461 1462 1463 1467 1467 1469 1469 1469 1466 1466 1463 1464 1463 1462 1460 1460 1458 1447 1437 0 0 0 0
1840 1840 1854 1857 1869 1886 1904 1921 1927 1929 1933 1938 1950 1961 1971 1980 1985 1990 1999 2011 2029 2042 2054 2063 2076 2083 2086 2090 2095 2105 2111 2124 2137 2151 2159 2167 2172 2178 2186 2194 2204 2212 2219 2223 2230 2246 2250 2258 2265 2271 2277 2281 2289 2300 2310 2317 2326 2334 2342 2349 2352 2354 2358 2361 2367 2370 2375 2381 2385 2392 2400 2410 2418 2425 2432 2436 2441 2443 2445 2451 2455 2462 2470 2476 2481 2485 2489 2496 2503 2508 2516 2523 2530 2533 2535 2539 2544 2550 2554 2557 2559 2564 2567 2571 2574 2577 2580 2584 2590 2593 2596 2600 2605 2608 2608 2609 2609 2610 2612 2617 2622 2626 2628 2630 2632 2635 2638 2641 2643 2644 2645 2647 2648 2649 2650 2650 2650 2650 2649 2645 2640 2636 2636 2636 2636 2636 2633 2632 2631 2631 2628 2624 2620 2616 2611 2608 2602 2598 2597 2597 2597 2592 2584 2575 2568 2566 2563 2556 2545 2530 2514 2503 0 0 0 0 0 0 0 0 0 0 0 0 1303 1301 1300 1298 1294 1294 1293 1293 1293 1286 1282 1281 1281 1281 1279 1276 1274 1272 1269 1267 1265 1263 1261 1258 1257 1257 1255 1252 1250 1249 1249 1247 1244 1242 1242 1239 1235 1234 1232 1231 1230 1229 1227 1226 1225 1224 1223 1223 1222 1222 1222 1222 1221 1220 1220 1220 1219 1219 1219 1218 1218 1218 1218 1218 1217 1217 1217 1216 1216 1215 1215 1215 1214 1214 1214 1214 1214 1213 1213 1211 1211 1210 1208 1207 1206 1204 1200 1199 1194 1189 1186 1183 1181 1179 1178 1176 1174 1173 1172 1171 1171 1171 1171 1172 1172 1173 1173 1174 1175 1176 1177 1177 1178 1180 1182 1183 1185 1187 1190 1191 1192 1192 1192 1193 1193 1193 1193 1193 1193 1193 1193 1193 1193 1193 1193 1193 1193 1193 1193 1193 1192 1192 1191 1191 1189 1187 1185 1182 1180 1180 1176 1173 1171 1170 1170 1170 1170 1170 1170 1170 1170 1168 1167 1166 1165 1165 1164 1164 1163 1161 1161 1161 1162 1164 1166 1167 1167 1169 1171 1172 1173 1175 1175 1177 1177 1177 1178 1178 1178 1178 1178 1177 1177 1177 1177 1176 1176 1176 1176 1175 1174 1174 1173 1173 1171 1171 1169 1167 1166 1164 1162 1161 1161 1158 1157 1156 1155 1154 1154 1154 1153 1153 1153 1153 1153 1153 1153 1152 1152 1152 1152 1152 1152 1152 1152 1152 1153 1154 1155 1156 1158 1159 1159 1160 1160 1160 1161 1161 1162 1162 1161 1161 1161 1161 1161 1160 1160 1159 1159 1159 1159 1159 1159 1158 1157 1157 1157 1156 1156 1156 1156 1156 1156 1156 1156 1156 1156 1156 1155 1155 1155 1155 1155 1155 1155 1155 1155 1155 1155 1155 1155 1155 1155 1155 1155 1155 1155 1155 1155 1155 1155 1155 1155 1156 1155 1156 1156 1156 1156 1156 1156 1156 1155 1154 1153 1153 1152 1151 1149 1147 1146 1145 1144 1143 1142 1141 1140 1138 1137 1136 1136 1135 1134 1133 1132 1132 1131 1131 1130 1130 1129 1128 1128 1128 1128 1128 1128 1128 1129 1129 1130 1130 1131 1132 1133 1133 1134 1137 1137 1139 1140 1141 1142 1143 1143 1144 1145 1147 1148 1150 1152 1152 1154 1155 1155 1157 1159 1161 1163 1165 1168 1170 1173 1174 1175 1175 1177 1177 1178 1180 1180 1182 1184 1185 1187 1188 1190 1191 1194 1199 1201 1210 1249 1272 1296 1327 1354 1358 1360 1365 1376 1386 1391 1399 1405 1410 1416 1424 1431 1440 1443 1444 1450 1456 1460 1461 1462 1462 1462 1463 1463 1463 1464 1467 1472 1472 1473 1473 1473 1469 1468 1466 1464 1463 1462 1460 1460 1458 0 0 0 0 0 0
1834 1834 1843 1846 1856 1866 1883 1902 1918 1926 1932 1936 1944 1953 1965 1974 1978 1986 1999 2011 2029 2042 2054 2062 2070 2078 2079 2088 2095 2104 2109 2123 2137 2149 2160 2168 2172 2178 2185 2194 2201 2210 2216 2220 2225 2237 2242 2258 2264 2271 2275 2281 2289 2297 2308 2316 2326 2334 2342 2348 2351 2354 2357 2360 2364 2368 2374 2380 2385 2392 2400 2410 2418 2425 2431 2436 2441 2443 2445 2451 2455 2462 2468 2473 2477 2482 2488 2496 2503 2508 2516 2523 2529 2533 2535 2539 2544 2550 2554 2557 2559 2564 2567 2571 2575 2578 2581 2584 2586 2592 2597 2603 2607 2609 2609 2610 2610 2610 2612 2617 2622 2626 2628 2630 2633 2636 2639 2642 2644 2644 2645 2647 2649 2650 2651 2651 2651 2651 2649 2647 2642 2640 2640 2640 2639 2639 2637 2637 2635 2633 2631 2626 2622 2620 2613 2609 2602 2602 2602 2602 2602 2596 2587 2576 2571 2571 2570 2567 2555 2543 2533 2524 2513 2501 0 0 0 0 0 0 0 0 0 0 0 1313 1312 1305 1301 1299 1299 1299 1299 1291 1284 1283 1283 1281 1280 1276 1275 1272 1269 1268 1266 1265 1263 1261 1259 1258 1256 1255 1252 1251 1249 1248 1246 1244 1242 1239 1236 1235 1234 1232 1231 1230 1229 1227 1226 1226 1225 1224 1224 1224 1223 1223 1223 1222 1222 1222 1221 1221 1220 1220 1219 1219 1219 1218 1218 1218 1218 1217 1217 1217 1217 1216 1216 1215 1215 1215 1215 1215 1214 1213 1213 1211 1210 1209 1208 1208 1203 1200 1195 1192 1188 1186 1184 1182 1179 1178 1175 1174 1172 1172 1172 1172 1172 1172 1173 1173 1174 1175 1176 1176 1177 1178 1178 1180 1182 1184 1185 1187 1190 1192 1192 1193 1194 1194 1194 1195 1195 1195 1195 1195 1195 1195 1195 1195 1195 1195 1195 1194 1194 1194 1194 1194 1193 1192 1191 1187 1185 1183 1182 1180 1178 1175 1171 1170 1170 1170 1170 1170 1170 1170 1170 1168 1168 1167 1166 1166 1165 1164 1163 1162 1162 1162 1162 1164 1166 1167 1168 1169 1171 1173 1174 1175 1177 1177 1178 1178 1178 1178 1178 1178 1178 1178 1178 1178 1178 1178 1178 1178 1177 1177 1176 1176 1174 1174 1173 1171 1171 1169 1168 1166 1163 1162 1162 1160 1158 1157 1156 1155 1154 1154 1153 1152 1152 1152 1153 1153 1153 1152 1152 1152 1152 1152 1152 1152 1152 1152 1154 1154 1155 1157 1158 1160 1160 1160 1162 1162 1162 1162 1162 1162 1162 1162 1162 1162 1162 1162 1162 1161 1161 1161 1160 1160 1160 1159 1159 1159 1159 1158 1158 1158 1158 1158 1157 1157 1157 1157 1157 1156 1156 1156 1156 1156 1156 1156 1156 1156 1156 1156 1156 1156 1156 1156 1156 1156 1156 1156 1156 1156 1156 1157 1157 1157 1157 1157 1157 1156 1157 1157 1157 1157 1157 1156 1155 1154 1154 1153 1152 1151 1150 1148 1146 1145 1144 1143 1142 1141 1140 1139 1137 1137 1137 1135 1135 1134 1134 1133 1132 1132 1131 1131 1130 1130 1130 1129 1129 1130 1130 1131 1131 1131 1131 1132 1133 1134 1134 1136 1136 1137 1138 1140 1140 1141 1143 1144 1144 1145 1146 1147 1149 1150 1152 1153 1154 1156 1157 1158 1160 1163 1165 1167 1170 1173 1174 1175 1177 1177 1178 1179 1180 1181 1183 1184 1184 1186 1189 1190 1191 1192 1195 1201 1209 1212 1249 1272 1296 1338 1360 1362 1362 1374 1380 1387 1395 1402 1408 1414 1419 1427 1435 1444 1446 1449 1455 1459 1461 1462 1463 1463 1463 1464 1463 1463 1464 1467 1472 1472 1474 1474 1474 1469 1468 1466 1464 1463 1462 1460 1460 0 0 0 0 0 0 0
1830 1830 1840 1843 1848 1856 1869 1887 1904 1919 1931 1931 1934 1941 1954 1970 1974 1986 1999 2011 2029 2042 2054 2061 2066 2073 2079 2088 2095 2104 2109 2121 2136 2149 2160 2168 2170 2177 2185 2194 2200 2207 2213 2219 2225 2235 2239 2253 2262 2268 2274 2281 2289 2297 2307 2315 2322 2331 2337 2343 2348 2353 2356 2360 2363 2368 2374 2380 2387 2393 2400 2410 2418 2425 2430 2434 2437 2441 2445 2451 2455 2459 2464 2469 2475 2480 2487 2495 2503 2508 2514 2523 2527 2533 2535 2539 2544 2550 2555 2557 2559 2564 2567 2571 2575 2578 2581 2584 2586 2591 2597 2603 2607 2609 2609 2610 2610 2610 2612 2617 2622 2626 2628 2631 2635 2638 2641 2643 2644 2645 2645 2647 2649 2651 2652 2652 2652 2651 2649 2648 2646 2645 2644 2644 2642 2642 2641 2640 2639 2636 2632 2628 2625 2622 2616 2610 2605 2605 2605 2605 2605 2600 2590 2579 2573 2572 2571 2567 2560 2554 2547 2540 2531 2518 2495 0 0 0 0 0 0 0 0 0 0 0 0 1322 1320 1308 1303 1302 1299 1294 1288 1285 1283 1282 1281 1278 1277 1274 1270 1268 1266 1266 1264 1262 1262 1259 1258 1256 1254 1251 1251 1248 1246 1245 1244 1241 1239 1237 1235 1234 1232 1231 1230 1229 1227 1227 1227 1226 1225 1225 1225 1224 1223 1223 1223 1222 1222 1221 1221 1221 1221 1220 1220 1220 1219 1219 1219 1218 1218 1218 1217 1217 1217 1217 1216 1216 1216 1215 1215 1215 1214 1213 1211 1211 1210 1209 1205 1200 1198 1194 1189 1188 1187 1184 1183 1180 1177 1175 1174 1173 1173 1173 1173 1173 1173 1174 1175 1176 1176 1176 1177 1178 1178 1182 1183 1184 1187 1189 1191 1192 1192 1194 1194 1195 1196 1196 1197 1197 1197 1197 1197 1196 1196 1196 1196 1196 1196 1196 1195 1195 1195 1194 1194 1193 1192 1189 1187 1186 1184 1182 1179 1175 1172 1171 1170 1170 1170 1170 1170 1170 1170 1169 1168 1167 1167 1166 1165 1164 1163 1163 1163 1163 1163 1164 1166 1167 1168 1169 1171 1174 1175 1176 1177 1178 1179 1179 1179 1179 1179 1179 1179 1179 1179 1179 1179 1178 1178 1178 1178 1177 1177 1176 1176 1175 1174 1172 1171 1170 1169 1167 1165 1163 1163 1161 1160 1158 1156 1155 1155 1154 1153 1152 1152 1152 1152 1152 1152 1151 1151 1151 1152 1152 1152 1152 1152 1153 1155 1156 1156 1157 1159 1160 1161 1162 1163 1163 1163 1163 1163 1164 1164 1164 1164 1164 1164 1164 1163 1163 1163 1162 1162 1161 1161 1161 1161 1161 1160 1160 1160 1160 1160 1159 1159 1159 1159 1158 1158 1158 1158 1158 1157 1157 1157 1157 1157 1157 1157 1157 1157 1157 1157 1157 1157 1157 1157 1158 1158 1158 1158 1159 1159 1159 1158 1158 1157 1157 1157 1157 1157 1157 1157 1157 1156 1155 1154 1154 1153 1151 1150 1148 1146 1145 1144 1143 1142 1142 1140 1139 1138 1138 1137 1136 1135 1135 1134 1134 1133 1133 1133 1132 1132 1131 1131 1131 1132 1133 1133 1133 1133 1133 1134 1135 1136 1136 1136 1136 1137 1138 1139 1141 1141 1142 1143 1144 1145 1145 1146 1148 1150 1151 1153 1154 1155 1157 1158 1161 1162 1165 1167 1169 1172 1174 1175 1176 1178 1178 1180 1180 1182 1184 1185 1185 1186 1187 1189 1191 1191 1194 1197 1204 1209 1218 1241 1267 1300 1338 1361 1362 1364 1381 1390 1393 1399 1404 1410 1416 1423 1433 1443 1449 1449 1453 1460 1461 1463 1463 1463 1464 1464 1464 1464 1464 1464 1467 1472 1473 1476 1476 1476 1469 1463 1459 1452 1443 0 0 0 0 0 0 0 0 0 0
1822 1822 1833 1835 1844 1853 1861 1877 1896 1911 1926 1926 1928 1935 1952 1970 1974 1986 2003 2015 2029 2042 2054 2056 2063 2073 2079 2088 2095 2103 2109 2120 2134 2148 2160 2168 2170 2175 2183 2193 2200 2207 2213 2219 2224 2234 2239 2251 2259 2266 2274 2281 2291 2297 2307 2315 2321 2327 2334 2341 2346 2351 2355 2360 2363 2367 2373 2380 2387 2396 2404 2411 2418 2425 2430 2434 2436 2439 2443 2446 2452 2455 2460 2466 2474 2480 2487 2495 2501 2506 2513 2520 2526 2533 2537 2542 2546 2553 2558 2560 2562 2564 2568 2572 2575 2579 2581 2584 2586 2591 2597 2603 2607 2609 2610 2610 2610 2610 2612 2615 2622 2626 2629 2632 2636 2638 2642 2644 2644 2645 2645 2647 2651 2654 2654 2654 2652 2651 2650 2649 2649 2649 2648 2646 2643 2643 2642 2642 2642 2638 2634 2630 2628 2626 2621 2614 2607 2607 2607 2605 2605 2605 2594 2583 2576 2573 2572 2568 2561 2559 2558 2553 2546 2531 2508 2484 0 0 0 0 0 0 0 0 0 0 0 0 1353 1335 1318 1311 1307 1303 1298 1290 1289 1286 1285 1283 1281 1277 1275 1272 1270 1268 1266 1265 1263 1261 1259 1257 1255 1253 1251 1250 1248 1246 1245 1244 1240 1238 1237 1235 1233 1232 1232 1230 1229 1229 1228 1228 1226 1226 1226 1226 1226 1225 1225 1224 1223 1223 1223 1222 1222 1222 1222 1221 1221 1220 1220 1220 1219 1219 1219 1219 1218 1218 1217 1217 1217 1217 1216 1216 1214 1214 1213 1212 1211 1209 1205 1201 1200 1197 1192 1190 1189 1186 1185 1182 1179 1177 1175 1175 1175 1174 1174 1174 1174 1174 1176 1176 1177 1177 1178 1178 1180 1182 1186 1188 1189 1191 1192 1193 1195 1195 1196 1197 1197 1197 1198 1198 1198 1198 1198 1198 1198 1198 1198 1198 1198 1198 1197 1197 1196 1196 1195 1194 1192 1190 1188 1188 1187 1183 1180 1176 1173 1172 1171 1170 1170 1170 1170 1170 1170 1170 1168 1167 1167 1166 1166 1165 1165 1164 1164 1164 1164 1165 1166 1168 1169 1170 1171 1174 1176 1176 1177 1180 1180 1180 1180 1180 1180 1180 1180 1180 1180 1180 1180 1180 1180 1180 1179 1178 1178 1177 1177 1176 1175 1174 1172 1171 1171 1169 1166 1164 1164 1162 1161 1159 1157 1156 1155 1154 1153 1152 1152 1152 1152 1152 1152 1151 1151 1151 1152 1152 1152 1152 1152 1154 1155 1156 1157 1158 1160 1161 1161 1163 1163 1163 1164 1164 1165 1165 1165 1165 1165 1165 1165 1165 1165 1165 1164 1164 1163 1163 1163 1162 1162 1162 1162 1162 1161 1161 1161 1161 1160 1160 1160 1160 1160 1159 1159 1159 1159 1159 1158 1158 1158 1158 1158 1158 1159 1159 1159 1159 1158 1158 1158 1158 1159 1159 1160 1160 1160 1160 1160 1160 1159 1158 1158 1158 1158 1157 1157 1157 1156 1155 1154 1154 1153 1151 1150 1148 1147 1146 1145 1144 1143 1142 1141 1140 1140 1139 1138 1137 1136 1136 1135 1135 1135 1135 1135 1134 1134 1134 1134 1134 1134 1135 1135 1135 1136 1136 1136 1136 1136 1137 1137 1138 1139 1140 1141 1141 1142 1143 1144 1144 1145 1146 1148 1150 1151 1152 1154 1156 1158 1159 1161 1162 1165 1167 1168 1172 1174 1175 1176 1178 1179 1180 1181 1182 1183 1185 1187 1187 1187 1187 1190 1193 1194 1200 1204 1207 1209 1220 1241 1267 1300 1339 1365 1369 1370 1387 1399 1402 1407 1411 1415 1420 1428 1435 1447 1450 1452 1459 1463 1464 1464 1464 1466 1466 1466 1465 1465 1465 1467 1471 1473 1473 1474 1474 1474 1454 1450 1443 1439 0 0 0 0 0 0 0 0 0 0 0
1809 1809 1822 1828 1839 1850 1861 1876 1893 1909 1914 1917 1925 1935 1952 1968 1972 1986 2003 2015 2029 2042 2048 2053 2063 2073 2083 2090 2095 2103 2109 2117 2131 2143 2153 2160 2168 2175 2183 2194 2200 2207 2213 2219 2223 2233 2238 2246 2256 2265 2274 2285 2294 2300 2306 2314 2321 2327 2332 2337 2342 2349 2355 2360 2363 2367 2373 2378 2387 2396 2404 2411 2419 2425 2430 2434 2436 2438 2442 2444 2448 2452 2457 2465 2473 2480 2487 2494 2499 2504 2510 2516 2526 2535 2540 2544 2548 2553 2558 2560 2562 2564 2568 2572 2575 2579 2582 2585 2587 2591 2597 2602 2605 2606 2609 2610 2610 2610 2612 2615 2621 2626 2630 2634 2638 2639 2642 2645 2645 2646 2646 2650 2654 2657 2657 2657 2656 2654 2653 2652 2652 2652 2650 2649 2647 2645 2645 2644 2642 2640 2635 2632 2632 2630 2626 2620 2613 2611 2611 2609 2609 2606 2598 2591 2583 2575 2573 2569 2565 2564 2563 2563 2557 2547 2529 2503 2470 0 0 0 0 0 0 0 0 0 0 0 1387 1366 1338 1323 1319 1313 1303 1294 1294 1294 1292 1287 1285 1284 1282 1280 1277 1274 1270 1268 1265 1264 1261 1260 1257 1256 1254 1252 1250 1246 1245 1245 1242 1240 1239 1237 1235 1235 1233 1231 1231 1230 1230 1229 1228 1228 1227 1227 1227 1226 1226 1225 1225 1225 1224 1224 1223 1223 1223 1222 1222 1221 1221 1221 1221 1220 1220 1219 1219 1219 1219 1218 1218 1218 1218 1217 1216 1215 1214 1214 1212 1210 1207 1203 1201 1199 1196 1192 1190 1188 1186 1184 1182 1180 1178 1178 1178 1176 1175 1175 1175 1175 1176 1177 1177 1179 1179 1180 1181 1185 1188 1190 1192 1193 1194 1195 1195 1196 1198 1198 1199 1199 1199 1200 1200 1200 1200 1199 1199 1199 1199 1199 1199 1199 1199 1199 1197 1197 1196 1195 1194 1191 1189 1189 1189 1185 1181 1178 1174 1172 1172 1171 1171 1171 1171 1171 1171 1170 1169 1168 1167 1167 1167 1166 1166 1166 1165 1165 1165 1166 1167 1169 1169 1170 1173 1174 1176 1178 1179 1180 1181 1181 1181 1181 1181 1182 1181 1181 1181 1181 1181 1181 1180 1180 1180 1180 1179 1179 1178 1177 1176 1175 1174 1173 1172 1170 1168 1166 1166 1163 1162 1160 1158 1156 1155 1154 1153 1153 1152 1152 1152 1152 1152 1151 1151 1151 1152 1152 1152 1152 1154 1154 1155 1157 1157 1159 1161 1161 1162 1163 1164 1165 1165 1165 1166 1166 1166 1166 1166 1166 1166 1166 1166 1166 1165 1165 1165 1164 1164 1164 1164 1164 1164 1163 1163 1163 1163 1162 1162 1162 1161 1161 1161 1160 1160 1160 1160 1160 1160 1160 1160 1159 1159 1159 1159 1159 1160 1160 1160 1160 1160 1160 1160 1161 1161 1161 1161 1161 1161 1161 1160 1160 1160 1159 1159 1158 1158 1158 1157 1156 1155 1155 1154 1152 1151 1149 1147 1147 1146 1145 1144 1143 1142 1142 1141 1139 1139 1139 1138 1138 1138 1137 1136 1136 1136 1136 1136 1137 1137 1136 1136 1136 1136 1136 1137 1137 1138 1138 1138 1138 1138 1139 1140 1140 1141 1141 1142 1144 1144 1145 1145 1146 1148 1151 1153 1154 1157 1158 1159 1160 1163 1165 1168 1170 1172 1175 1176 1177 1179 1180 1182 1182 1184 1184 1187 1188 1188 1189 1189 1190 1192 1194 1196 1200 1203 1208 1209 1221 1241 1267 1301 1342 1365 1369 1374 1391 1404 1411 1417 1418 1423 1427 1434 1442 1453 1453 1457 1462 1464 1464 1465 1465 1466 1468 1468 1468 1467 1467 1467 1471 1473 1473 1473 1472 1451 1438 0 0 0 0 0 0 0 0 0 0 0 0 0 0
1807 1807 1815 1826 1832 1845 1860 1876 1892 1908 1912 1917 1925 1935 1952 1968 1974 1986 2003 2015 2027 2036 2045 2052 2062 2076 2086 2090 2095 2103 2109 2117 2129 2139 2144 2145 2154 2168 2183 2194 2201 2208 2213 2220 2225 2229 2235 2242 2253 2264 2274 2285 2294 2300 2305 2313 2319 2326 2330 2333 2339 2346 2355 2360 2363 2367 2373 2378 2387 2396 2404 2411 2419 2425 2430 2433 2435 2437 2439 2442 2446 2452 2457 2465 2473 2481 2488 2493 2498 2504 2510 2516 2526 2535 2540 2544 2548 2553 2558 2560 2562 2564 2568 2572 2575 2579 2583 2586 2589 2592 2597 2601 2604 2605 2608 2610 2611 2611 2614 2615 2621 2626 2632 2635 2638 2640 2644 2646 2648 2649 2651 2654 2658 2661 2661 2661 2658 2656 2655 2655 2655 2654 2654 2653 2652 2649 2647 2646 2645 2642 2638 2636 2636 2636 2633 2627 2622 2618 2618 2617 2615 2608 2602 2597 2591 2585 2573 2573 2572 2570 2570 2570 2565 2556 2541 2518 2478 0 0 0 0 0 0 0 0 0 1482 1452 1420 1398 1366 1337 1333 1325 1316 1306 1301 1300 1298 1294 1290 1288 1285 1282 1279 1277 1275 1273 1269 1267 1264 1262 1260 1259 1257 1254 1251 1249 1246 1245 1244 1242 1240 1238 1237 1236 1234 1233 1232 1231 1230 1230 1230 1229 1229 1228 1228 1228 1228 1227 1226 1226 1226 1225 1225 1224 1224 1224 1223 1223 1222 1222 1222 1221 1221 1221 1221 1220 1220 1220 1219 1219 1219 1218 1217 1216 1216 1215 1214 1213 1210 1206 1204 1202 1198 1196 1192 1189 1189 1186 1185 1183 1182 1182 1180 1179 1178 1178 1178 1178 1178 1178 1179 1180 1180 1181 1182 1186 1189 1190 1192 1193 1195 1196 1198 1199 1200 1200 1200 1200 1200 1201 1201 1201 1201 1200 1200 1200 1200 1200 1200 1200 1200 1199 1199 1198 1197 1196 1195 1193 1191 1189 1189 1187 1184 1179 1176 1174 1172 1172 1172 1172 1172 1172 1172 1172 1169 1168 1168 1168 1168 1167 1167 1167 1166 1166 1166 1167 1169 1169 1171 1172 1174 1176 1177 1179 1180 1181 1182 1182 1183 1183 1183 1183 1183 1182 1182 1182 1182 1182 1181 1181 1181 1181 1180 1180 1179 1179 1177 1177 1175 1175 1173 1171 1168 1167 1166 1165 1164 1162 1159 1157 1155 1154 1153 1153 1152 1152 1152 1152 1152 1151 1151 1151 1152 1152 1153 1154 1155 1155 1156 1157 1158 1161 1161 1162 1162 1164 1165 1165 1166 1167 1167 1167 1167 1167 1167 1167 1167 1167 1167 1167 1167 1166 1166 1166 1165 1165 1165 1165 1165 1165 1164 1164 1164 1163 1163 1163 1163 1163 1162 1162 1162 1162 1162 1162 1161 1161 1161 1160 1161 1161 1161 1161 1161 1161 1161 1161 1161 1161 1162 1162 1162 1162 1162 1161 1161 1161 1161 1160 1160 1160 1160 1159 1159 1158 1157 1157 1156 1155 1155 1153 1151 1150 1148 1147 1147 1146 1146 1144 1144 1143 1142 1141 1141 1140 1140 1140 1140 1139 1138 1138 1138 1138 1138 1138 1138 1138 1138 1138 1138 1138 1138 1138 1138 1139 1139 1140 1140 1140 1140 1141 1142 1142 1143 1145 1145 1146 1146 1149 1151 1152 1154 1156 1157 1159 1161 1163 1166 1168 1171 1173 1175 1177 1178 1180 1181 1183 1184 1185 1186 1187 1189 1189 1189 1190 1190 1191 1192 1195 1197 1201 1203 1209 1209 1223 1248 1274 1316 1351 1367 1369 1380 1399 1412 1420 1424 1426 1429 1436 1445 1455 1460 1462 1464 1465 1465 1466 1466 1466 1468 1469 1472 1472 1472 1472 1472 1474 1474 1474 1469 1449 0 0 0 0 0 0 0 0 0 0 0 0 0 0 0 0
1807 1807 1815 1824 1829 1839 1860 1875 1891 1905 1908 1916 1925 1940 1952 1970 1974 1984 1998 2009 2018 2030 2040 2050 2061 2076 2087 2090 2093 2100 2109 2114 2125 2131 2136 2144 2153 2165 2181 2193 2201 2208 2213 2221 2225 2229 2235 2240 2250 2264 2274 2285 2294 2300 2304 2310 2316 2322 2325 2328 2335 2346 2355 2361 2365 2368 2373 2378 2387 2395 2403 2410 2419 2425 2430 2433 2435 2437 2439 2442 2446 2452 2457 2465 2473 2481 2488 2493 2498 2504 2510 2516 2526 2535 2540 2544 2548 2550 2554 2557 2560 2564 2568 2572 2576 2579 2583 2587 2591 2593 2597 2600 2601 2604 2606 2611 2615 2617 2618 2619 2621 2626 2632 2636 2638 2642 2644 2647 2651 2654 2657 2659 2662 2664 2664 2664 2662 2659 2658 2658 2658 2658 2658 2658 2657 2654 2651 2651 2650 2647 2642 2641 2641 2641 2639 2636 2631 2626 2624 2624 2621 2614 2608 2604 2601 2596 2582 2580 2580 2579 2579 2578 2570 2561 2551 2531 2495 0 0 0 0 0 0 0 0 1514 1482 1460 1449 1411 1370 1346 1337 1332 1322 1316 1314 1313 1308 1302 1297 1295 1291 1285 1282 1280 1278 1274 1270 1268 1265 1264 1263 1261 1258 1255 1252 1250 1249 1247 1246 1243 1241 1240 1238 1237 1236 1234 1233 1233 1232 1232 1231 1231 1230 1230 1230 1229 1229 1228 1228 1228 1227 1226 1226 1226 1225 1224 1224 1224 1223 1223 1223 1223 1222 1222 1222 1221 1221 1220 1220 1220 1219 1219 1219 1217 1217 1216 1216 1214 1212 1209 1207 1204 1202 1199 1196 1192 1191 1189 1187 1186 1185 1184 1183 1182 1182 1182 1181 1181 1181 1181 1181 1182 1182 1183 1183 1186 1189 1190 1192 1194 1196 1197 1199 1200 1201 1202 1202 1202 1202 1202 1202 1202 1202 1202 1202 1202 1201 1201 1201 1201 1201 1200 1200 1199 1198 1197 1196 1195 1193 1191 1189 1187 1185 1181 1178 1176 1173 1173 1172 1172 1172 1173 1173 1173 1172 1170 1169 1169 1169 1168 1168 1167 1167 1167 1167 1168 1170 1171 1172 1173 1176 1177 1178 1180 1181 1182 1183 1183 1183 1183 1184 1184 1183 1183 1183 1183 1183 1183 1182 1182 1182 1182 1182 1182 1181 1180 1180 1178 1178 1177 1175 1173 1169 1168 1167 1167 1165 1162 1159 1158 1156 1156 1154 1153 1153 1152 1152 1152 1152 1152 1152 1152 1152 1153 1153 1154 1155 1156 1156 1158 1160 1161 1162 1163 1164 1165 1166 1166 1167 1167 1168 1168 1168 1168 1168 1168 1168 1168 1168 1168 1168 1168 1168 1167 1167 1167 1167 1166 1166 1166 1166 1166 1165 1165 1165 1164 1164 1163 1163 1163 1163 1163 1163 1162 1162 1162 1162 1162 1162 1162 1162 1162 1162 1162 1162 1162 1162 1162 1163 1163 1163 1163 1163 1163 1162 1161 1161 1161 1161 1160 1160 1160 1159 1159 1158 1158 1157 1157 1155 1154 1152 1151 1149 1149 1148 1147 1146 1145 1145 1145 1145 1144 1143 1143 1143 1142 1142 1141 1139 1139 1139 1140 1140 1140 1141 1140 1140 1140 1140 1140 1140 1140 1140 1140 1140 1141 1141 1141 1141 1142 1143 1144 1145 1145 1146 1147 1149 1150 1152 1154 1155 1158 1160 1162 1164 1166 1168 1171 1173 1175 1177 1178 1180 1183 1184 1186 1187 1188 1189 1191 1191 1191 1191 1191 1192 1194 1196 1201 1203 1205 1205 1209 1209 1246 1260 1279 1320 1354 1376 1377 1389 1407 1421 1427 1428 1429 1433 1446 1458 1464 1465 1466 1465 1465 1465 1465 1465 1467 1468 1476 1476 1476 1475 1474 1474 1474 1474 1473 1456 0 0 0 0 0 0 0 0 0 0 0 0 0 0 0 0 0
1807 1807 1815 1824 1829 1839 1856 1871 1885 1894 1905 1915 1931 1950 1960 1968 1974 1980 1986 1996 2008 2020 2032 2044 2061 2076 2087 2090 2092 2097 2107 2111 2120 2129 2136 2144 2153 2165 2180 2192 2201 2208 2213 2222 2226 2229 2235 2240 2248 2258 2270 2280 2286 2292 2297 2303 2309 2314 2319 2327 2335 2346 2355 2362 2367 2371 2375 2379 2387 2395 2400 2405 2417 2423 2430 2433 2434 2436 2439 2442 2446 2454 2462 2468 2475 2481 2488 2493 2498 2504 2510 2517 2527 2534 2538 2543 2545 2547 2551 2553 2557 2562 2566 2571 2575 2579 2583 2587 2591 2593 2597 2599 2601 2604 2606 2611 2616 2619 2621 2621 2624 2628 2633 2636 2639 2642 2645 2649 2655 2659 2662 2664 2665 2667 2667 2667 2665 2665 2664 2663 2662 2662 2662 2661 2660 2657 2655 2654 2654 2651 2648 2646 2646 2646 2645 2642 2636 2633 2632 2631 2627 2622 2616 2612 2609 2605 2594 2593 2593 2591 2591 2590 2575 2563 2551 2531 2495 0 0 0 0 0 0 0 0 1516 1499 1470 1451 1418 1380 1358 1343 1334 1323 1317 1316 1316 1315 1312 1304 1301 1298 1294 1290 1285 1281 1277 1275 1273 1268 1265 1263 1262 1259 1256 1254 1252 1251 1249 1246 1243 1242 1241 1240 1238 1237 1236 1235 1235 1234 1233 1233 1232 1232 1231 1231 1231 1230 1230 1229 1229 1228 1227 1227 1226 1226 1225 1225 1224 1224 1224 1223 1223 1223 1222 1222 1221 1221 1221 1221 1220 1220 1220 1219 1218 1218 1218 1216 1215 1213 1210 1209 1208 1207 1205 1200 1195 1193 1192 1190 1189 1189 1187 1186 1185 1185 1185 1185 1184 1184 1184 1184 1185 1185 1185 1186 1187 1190 1193 1193 1196 1198 1200 1201 1202 1203 1203 1203 1204 1204 1203 1203 1203 1203 1203 1203 1203 1203 1202 1202 1202 1202 1202 1201 1200 1199 1199 1198 1197 1194 1193 1190 1188 1186 1184 1181 1178 1177 1175 1175 1175 1174 1174 1174 1174 1172 1172 1171 1170 1169 1169 1169 1168 1168 1168 1168 1170 1171 1173 1174 1176 1177 1179 1180 1180 1182 1183 1183 1184 1184 1184 1185 1185 1185 1185 1185 1184 1184 1184 1184 1184 1184 1184 1184 1183 1183 1182 1181 1180 1179 1178 1177 1176 1173 1170 1169 1167 1166 1163 1160 1159 1158 1156 1154 1154 1154 1153 1153 1152 1152 1152 1152 1152 1153 1153 1154 1154 1155 1156 1156 1159 1160 1161 1163 1165 1165 1166 1166 1167 1168 1168 1168 1169 1169 1169 1169 1169 1169 1169 1169 1169 1169 1169 1168 1168 1168 1168 1168 1167 1167 1167 1167 1167 1167 1166 1166 1165 1165 1165 1164 1164 1164 1164 1164 1164 1164 1164 1163 1163 1163 1163 1163 1163 1163 1163 1163 1163 1163 1164 1164 1164 1164 1163 1163 1163 1163 1163 1162 1162 1162 1161 1161 1160 1160 1160 1159 1159 1158 1157 1156 1155 1153 1152 1151 1149 1149 1148 1147 1147 1147 1147 1147 1147 1146 1146 1145 1145 1144 1144 1142 1142 1142 1142 1142 1142 1142 1142 1142 1141 1141 1141 1141 1141 1141 1141 1141 1141 1141 1142 1142 1143 1144 1145 1146 1147 1148 1149 1150 1151 1153 1155 1157 1160 1163 1165 1167 1169 1171 1174 1176 1178 1180 1181 1184 1185 1188 1189 1190 1190 1191 1191 1191 1192 1192 1192 1194 1197 1203 1203 1205 1207 1211 1214 1233 1260 1276 1297 1335 1358 1376 1386 1398 1419 1431 1432 1433 1435 1436 1456 1466 1469 1469 1469 1469 1468 1467 1467 1467 1468 1479 1479 1479 1478 1475 1474 1474 1474 1474 0 0 0 0 0 0 0 0 0 0 0 0 0 0 0 0 0 0 0
