856 856 859 873 889 896 897 902 902 904 905 905 905 905 908 908 0 0 0 0 0 0 0 0 0 0 0 0 0 0 0 0 0 0 0 0 0 0 0 0 0 0 1335 1334 1334 1335 1342 1349 1353 1354 1355 1357 1359 1362 1363 1364 1365 1366 1367 1368 1369 1371 1372 1374 1375 1376 1377 1378 1378 1379 1379 1379 1379 1379 1379 1379 1379 1379 1378 1377 1376 1375 1373 1373 1372 1370 1363 1346 0 0 0 1160 1157 1157 1157 1158 1158 1160 1160 1160 1162 1163 1166 1169 1177 1193 1213 1227 1233 1246 1267 1304 1335 1352 1361 1364 1367 1367 1368 1369 1370 1370 1371 1371 1371 1371 1371 1371 1371 1371 1370 1369 1368 1367 1365 1364 1361 1359 1352 1333 1297 1260 1248 1242 1240 1238 1235 1233 1232 1232 1232 1232 1233 1234 1235 1235 1237 1241 1245 1251 1262 1276 1293 1317 1331 1342 1349 1350 1352 1353 1353 1354 1354 1354 1354 1354 1354 1354 1354 1353 1352 1352 1352 1351 1350 1349 1348 1347 1345 1343 1339 1335 1327 1300 1276 1271 1269 1265 1265 1263 1262 1261 1260 1259 1257 1257 1257 1257 1259 1262 1263 1263 1263 1263 1263 1268 1289 1306 1318 1324 1328 1331 1334 1334 1335 1335 1336 1336 1336 1336 1335 1335 1335 1334 1334 1333 1333 1333 1332 1331 1330 1328 1326 1322 1320 1317 1307 1294 1287 1285 1285 1282 1281 1281 1279 1277 1275 1274 1273 1272 1272 1272 1272 1274 1276 1276 1277 1279 1283 1287 1289 1295 1302 1307 1310 1312 1313 1315 1316 1316 1316 1315 1315 1315 1314 1314 1313 1313 1312 1312 1311 1311 1311 1310 1309 1307 1306 1305 1303 1301 1298 1295 1290 1282 1278 1276 1274 1271 1270 1269 1268 1268 1268 1268 1268 1268 1268 1268 1268 1269 1269 1270 1271 1271 1272 1273 1274 1276 1280 1284 1285 1288 1290 1291 1292 1292 1293 1293 1293 1293 1293 1294 1294 1294 1293 1293 1293 1293 1293 1293 1293 1293 1293 1293 1292 1292 1292 1291 1291 1290 1289 1289 1288 1287 1287 1287 1285 1285 1285 1284 1284 1284 1283 1283 1283 1283 1283 1284 1285 1286 1286 1286 1287 1288 1297 1318 0 0 1497 1523 1544 1555 1556 1556 1556 1556 1556 1554 1553 1551 1538 1510 0 0 0 1320 1298 1284 1277 1272 1270 1266 1265 1264 1260 1259 1258 1257 1257 1256 1256 1256 1256 1257 1257 1259 1259 1262 1266 1267 1268 1272 1283 1291 0 0 0 0 0 1553 1553 1553 1551 1551 1551 1551 1552 1553 1553 1554 1555 1556 1556 1555 1555 1555 1555 1555 1553 1553 1553 1553 1553 1553 1552 1552 1551 1551 1550 1549 1549 1548 1548 1547 1547 1547 1547 1547 1546 1546 1546 1546 1546 1547 1547 1548 1548 1549 1550 1552 1554 1556 1558 1561 1562 1564 1566 1568 1569 1571 1573 1575 1576 1578 1579 1580 1582 1584 1585 1586 1587 1589 1590 1590 1591 1592 1593 1593 1594 1595 1596 1598 1598 1600 1601 1603 1604 1605 1606 1608 1609 1610 1611 1612 1613 1615 1615 1616 1618 1619 1620 1620 1622 1623 1624 1625 1626 1627 1628 1628 1628 1629 1629 1630 1630 1630 1630 1630 1630 1631 1632 1632 1632 1632 1632 1632 1632 1634 1634 1634 1634 1634 1634 1635 1635 1635 1634 1634 1632 1631 1630 1630 1629 1629 1628 1615 1612 1608 0 0 0 0 0 0 0 0 0 0 0 0 0 0 0 0 0 0 0 0 0 0 0 0 0 0 0 0 0 0 0 0 0 0 0 0 0 0 0 0 0 0
865 865 881 896 919 919 919 911 911 909 909 909 905 905 0 0 0 0 0 0 0 0 0 0 0 0 0 0 0 0 0 0 0 0 0 0 0 0 0 0 0 0 0 1342 1342 1342 1342 1348 1351 1352 1353 1355 1358 1361 1363 1364 1364 1366 1367 1368 1369 1371 1372 1374 1375 1376 1377 1378 1378 1379 1379 1379 1379 1379 1379 1379 1379 1379 1378 1377 1376 1375 1373 1372 1372 1370 1364 1348 0 0 0 1160 1160 1160 1158 1158 1158 1158 1159 1160 1161 1163 1166 1169 1175 1185 1200 1212 1224 1238 1264 1301 1334 1351 1360 1365 1367 1367 1368 1369 1370 1370 1371 1371 1372 1372 1372 1372 1372 1371 1370 1370 1369 1367 1366 1364 1361 1359 1352 1333 1297 1262 1250 1247 1243 1238 1234 1233 1232 1232 1232 1232 1232 1233 1233 1234 1235 1239 1245 1251 1262 1272 1293 1316 1331 1342 1349 1350 1352 1353 1353 1354 1354 1354 1354 1354 1354 1354 1353 1353 1352 1352 1352 1351 1350 1349 1348 1347 1345 1343 1340 1335 1327 1301 1277 1273 1270 1268 1264 1263 1262 1261 1260 1259 1257 1257 1257 1257 1260 1263 1263 1263 1263 1263 1263 1268 1287 1306 1318 1324 1327 1330 1333 1334 1335 1335 1336 1336 1336 1336 1336 1335 1335 1335 1334 1333 1333 1333 1332 1331 1330 1328 1326 1322 1320 1317 1311 1303 1288 1285 1285 1282 1281 1280 1279 1278 1275 1274 1273 1273 1273 1273 1273 1274 1275 1276 1277 1279 1282 1285 1288 1295 1302 1307 1309 1312 1313 1315 1315 1315 1315 1315 1315 1315 1314 1314 1313 1312 1312 1312 1311 1311 1310 1310 1309 1307 1307 1305 1304 1301 1298 1296 1291 1287 1283 1279 1274 1273 1271 1271 1270 1270 1270 1270 1270 1270 1268 1268 1268 1270 1272 1272 1272 1272 1272 1273 1274 1276 1280 1283 1285 1288 1290 1291 1292 1292 1293 1293 1293 1293 1293 1293 1293 1293 1293 1293 1293 1293 1293 1293 1293 1293 1293 1293 1292 1292 1292 1291 1291 1290 1290 1289 1288 1288 1288 1287 1286 1286 1285 1285 1284 1284 1283 1283 1283 1283 1284 1284 1285 1286 1286 1287 1287 1289 1296 1317 0 0 1497 1521 1544 1554 1554 1556 1555 1555 1555 1553 1553 1547 1528 0 0 0 1333 1308 1292 1283 1277 1272 1268 1265 1264 1262 1260 1259 1258 1257 1257 1256 1256 1256 1257 1257 1258 1259 1260 1265 1270 1270 1271 1275 1291 1310 0 0 0 0 1538 1555 1555 1555 1551 1551 1551 1551 1552 1553 1554 1554 1554 1555 1555 1555 1555 1555 1555 1555 1555 1554 1554 1554 1554 1553 1552 1552 1552 1551 1550 1550 1549 1548 1548 1548 1548 1547 1547 1547 1547 1547 1547 1546 1547 1547 1547 1548 1548 1549 1550 1552 1554 1556 1558 1560 1562 1564 1566 1567 1569 1571 1573 1575 1576 1578 1579 1580 1582 1584 1585 1586 1587 1588 1589 1590 1591 1592 1593 1593 1594 1595 1596 1597 1598 1600 1601 1603 1604 1605 1606 1608 1609 1610 1611 1611 1613 1615 1615 1616 1618 1618 1620 1620 1622 1622 1624 1625 1626 1626 1627 1627 1628 1628 1629 1629 1629 1629 1630 1630 1630 1630 1631 1632 1632 1632 1632 1632 1632 1633 1633 1634 1634 1634 1634 1634 1634 1634 1634 1634 1632 1631 1630 1630 1630 1630 1630 1624 1612 1608 0 0 0 0 0 0 0 0 0 0 0 0 0 0 0 0 0 0 0 0 0 0 0 0 0 0 0 0 0 0 0 0 0 0 0 0 0 0 0 0 0 0
865 865 886 896 919 919 919 917 0 0 0 0 0 0 0 0 0 0 0 0 0 0 0 0 0 0 0 0 0 0 0 0 0 0 0 0 0 0 0 0 0 0 0 1346 1342 1342 1342 1344 1348 1349 1351 1353 1356 1360 1362 1362 1364 1365 1366 1368 1368 1371 1372 1374 1375 1375 1376 1378 1378 1379 1379 1379 1379 1379 1379 1379 1379 1379 1378 1377 1376 1375 1373 1372 1371 1370 1364 1350 0 0 0 1166 1163 1162 1159 1158 1158 1158 1158 1159 1161 1163 1166 1169 1172 1176 1185 1202 1217 1236 1260 1296 1325 1346 1359 1365 1367 1367 1368 1369 1370 1371 1371 1371 1372 1372 1372 1372 1372 1371 1370 1370 1369 1368 1366 1366 1362 1360 1354 1342 1312 1266 1250 1247 1243 1238 1234 1232 1232 1232 1232 1232 1232 1232 1232 1232 1234 1239 1243 1250 1259 1267 1291 1314 1331 1341 1348 1350 1352 1353 1353 1354 1354 1354 1354 1354 1354 1354 1353 1353 1352 1352 1351 1351 1350 1349 1348 1347 1345 1343 1340 1335 1327 1301 1280 1274 1272 1268 1265 1262 1262 1261 1260 1259 1258 1258 1258 1259 1261 1263 1263 1263 1263 1263 1263 1268 1286 1304 1318 1324 1326 1330 1333 1334 1335 1335 1336 1336 1336 1336 1336 1335 1335 1335 1334 1333 1333 1333 1332 1330 1330 1328 1326 1322 1320 1317 1314 1304 1292 1289 1287 1282 1281 1280 1279 1278 1276 1276 1274 1274 1273 1273 1273 1274 1275 1276 1277 1279 1282 1283 1288 1295 1302 1307 1309 1311 1313 1314 1315 1315 1315 1315 1315 1315 1314 1313 1312 1312 1312 1312 1311 1311 1310 1309 1308 1307 1307 1305 1304 1302 1298 1296 1291 1287 1284 1282 1280 1276 1274 1273 1272 1272 1272 1272 1271 1271 1270 1270 1270 1272 1274 1274 1274 1273 1273 1273 1275 1277 1280 1284 1286 1289 1291 1291 1292 1292 1293 1293 1293 1293 1293 1293 1293 1293 1293 1293 1293 1294 1294 1294 1293 1293 1293 1293 1293 1292 1292 1291 1291 1291 1290 1289 1289 1288 1288 1287 1286 1286 1286 1285 1285 1284 1284 1284 1284 1284 1284 1284 1285 1286 1287 1287 1289 1289 1295 1317 0 0 1497 1521 1540 1552 1552 1553 1553 1553 1553 1553 1553 1547 1528 0 0 0 1330 1297 1282 1276 1270 1267 1266 1264 1263 1262 1260 1259 1258 1257 1257 1256 1256 1256 1257 1257 1258 1260 1262 1267 1273 1274 1278 1289 1306 1333 0 0 0 1533 1555 1555 1555 1555 1552 1552 1552 1553 1553 1554 1554 1554 1554 1555 1555 1555 1556 1556 1555 1555 1555 1555 1555 1555 1554 1554 1553 1553 1552 1551 1550 1550 1549 1548 1548 1548 1548 1547 1547 1547 1547 1547 1547 1547 1547 1547 1547 1548 1548 1549 1550 1552 1554 1556 1558 1560 1562 1564 1566 1567 1568 1571 1572 1575 1576 1577 1579 1580 1582 1584 1585 1585 1587 1588 1589 1590 1590 1592 1593 1593 1594 1595 1596 1597 1598 1600 1601 1603 1604 1605 1606 1608 1609 1610 1611 1611 1613 1614 1615 1616 1618 1618 1619 1620 1621 1622 1623 1623 1625 1626 1627 1627 1627 1627 1628 1629 1629 1629 1629 1629 1629 1629 1630 1630 1630 1630 1630 1631 1631 1631 1633 1633 1633 1634 1634 1634 1634 1634 1634 1633 1632 1631 1630 1630 1630 1630 1630 1630 1627 1608 0 0 0 0 0 0 0 0 0 0 0 0 0 0 0 0 0 0 0 0 0 0 0 0 0 0 0 0 0 0 0 0 0 0 0 0 0 0 0 0 0 0
865 865 896 896 961 961 963 977 0 0 0 0 0 0 0 0 0 0 0 0 0 0 0 0 0 0 0 0 0 0 0 0 0 0 0 0 0 0 0 0 0 0 0 1346 1342 1342 1342 1342 1343 1346 1351 1352 1354 1357 1359 1361 1361 1363 1365 1367 1368 1370 1371 1374 1374 1375 1376 1377 1378 1379 1379 1379 1379 1379 1379 1379 1379 1378 1378 1377 1376 1375 1373 1372 1371 1370 1366 1351 0 0 0 1176 1170 1162 1159 1158 1158 1158 1158 1159 1161 1163 1166 1169 1171 1176 1185 1194 1214 1232 1257 1293 1325 1346 1358 1365 1367 1368 1368 1369 1370 1371 1371 1371 1372 1372 1372 1372 1372 1372 1371 1370 1369 1368 1368 1367 1363 1362 1354 1342 1316 1271 1250 1247 1243 1238 1236 1232 1232 1232 1232 1232 1232 1232 1232 1232 1234 1238 1242 1245 1251 1264 1287 1314 1330 1340 1347 1350 1352 1352 1353 1353 1353 1353 1353 1353 1353 1353 1353 1352 1352 1352 1351 1350 1350 1349 1348 1346 1344 1343 1340 1335 1326 1301 1283 1276 1273 1268 1265 1262 1262 1261 1260 1260 1260 1260 1260 1261 1262 1264 1264 1264 1264 1265 1267 1272 1286 1304 1318 1322 1326 1330 1333 1334 1335 1335 1336 1336 1336 1336 1336 1336 1335 1335 1334 1334 1333 1333 1331 1330 1330 1328 1326 1323 1320 1320 1318 1309 1292 1289 1287 1282 1281 1280 1280 1279 1277 1276 1276 1275 1274 1274 1274 1274 1275 1276 1277 1279 1282 1283 1288 1295 1303 1307 1309 1311 1312 1314 1314 1315 1315 1315 1315 1314 1314 1313 1312 1312 1312 1311 1311 1311 1310 1309 1308 1308 1307 1306 1304 1302 1298 1296 1292 1287 1284 1283 1281 1278 1276 1275 1274 1274 1273 1273 1273 1273 1273 1273 1273 1274 1275 1275 1275 1274 1274 1274 1275 1281 1283 1284 1286 1289 1291 1291 1292 1292 1293 1293 1293 1293 1293 1293 1293 1293 1294 1294 1294 1294 1294 1294 1294 1294 1293 1293 1293 1292 1292 1291 1291 1291 1290 1289 1289 1288 1288 1287 1287 1286 1286 1285 1285 1285 1284 1284 1284 1284 1284 1284 1285 1286 1287 1287 1289 1289 1295 1315 0 0 1510 1523 1537 1548 1550 1550 1550 1550 1550 1550 1550 1546 1522 0 0 0 1318 1290 1276 1269 1266 1265 1264 1262 1262 1261 1260 1258 1258 1257 1257 1257 1257 1257 1258 1260 1261 1263 1266 1272 1277 1277 1286 1301 1334 1375 0 0 0 1547 1556 1556 1556 1555 1554 1554 1554 1554 1554 1554 1555 1554 1554 1555 1556 1556 1556 1556 1556 1556 1556 1556 1556 1555 1555 1554 1554 1553 1553 1552 1551 1550 1550 1549 1548 1548 1548 1548 1547 1547 1547 1547 1547 1547 1547 1547 1547 1548 1548 1549 1550 1552 1554 1556 1558 1560 1562 1564 1566 1567 1568 1571 1573 1575 1576 1578 1578 1580 1582 1583 1584 1585 1587 1588 1589 1589 1590 1591 1592 1593 1594 1595 1596 1597 1598 1600 1601 1603 1604 1605 1606 1608 1609 1610 1611 1611 1613 1614 1615 1616 1617 1618 1619 1620 1620 1621 1623 1623 1624 1624 1625 1626 1626 1627 1627 1628 1628 1628 1628 1628 1628 1628 1628 1629 1629 1630 1630 1630 1630 1630 1632 1633 1633 1633 1633 1634 1634 1634 1634 1633 1632 1631 1631 1631 1632 1632 1632 1630 1627 1608 0 0 0 0 0 0 0 0 0 0 0 0 0 0 0 0 0 0 0 0 0 0 0 0 0 0 0 0 0 0 0 0 0 0 0 0 0 0 0 0 0 0
0 0 0 0 0 0 0 0 0 0 0 0 0 0 0 0 0 0 0 0 0 0 0 0 0 0 0 0 0 0 0 0 0 0 0 0 0 0 0 0 0 0 0 1346 1342 1341 1340 1340 1341 1345 1350 1352 1353 1355 1358 1360 1361 1362 1364 1366 1367 1368 1371 1373 1373 1375 1376 1377 1378 1378 1379 1379 1379 1379 1379 1379 1378 1378 1378 1377 1376 1375 1373 1372 1371 1370 1366 1353 1327 0 0 1179 1170 1162 1159 1157 1157 1157 1158 1159 1161 1163 1166 1169 1171 1176 1185 1193 1208 1226 1250 1288 1324 1345 1357 1364 1368 1368 1368 1369 1370 1371 1372 1372 1372 1372 1372 1372 1372 1372 1371 1370 1369 1368 1368 1367 1363 1362 1355 1342 1316 1271 1249 1244 1240 1238 1236 1233 1232 1232 1232 1232 1232 1231 1231 1231 1232 1234 1238 1241 1248 1263 1287 1314 1330 1339 1346 1350 1351 1351 1352 1352 1353 1353 1353 1353 1353 1353 1353 1352 1352 1352 1351 1351 1350 1349 1347 1346 1344 1343 1340 1335 1325 1304 1287 1280 1274 1271 1265 1262 1262 1261 1260 1260 1260 1260 1262 1262 1265 1265 1266 1266 1267 1269 1270 1272 1287 1304 1315 1322 1326 1330 1333 1334 1335 1335 1336 1336 1336 1336 1336 1336 1336 1335 1334 1334 1333 1333 1332 1331 1330 1328 1327 1324 1323 1321 1319 1309 1292 1290 1287 1282 1281 1280 1280 1279 1278 1277 1277 1276 1276 1274 1274 1274 1275 1277 1278 1279 1282 1283 1289 1296 1304 1307 1309 1311 1312 1314 1314 1314 1314 1314 1314 1314 1313 1313 1312 1312 1312 1311 1311 1310 1310 1309 1308 1308 1307 1306 1304 1302 1299 1297 1292 1287 1285 1283 1281 1279 1276 1275 1275 1275 1275 1276 1276 1276 1275 1275 1275 1276 1277 1277 1277 1276 1276 1276 1279 1282 1284 1285 1287 1290 1291 1291 1292 1292 1293 1293 1293 1293 1293 1293 1293 1294 1294 1294 1294 1294 1294 1294 1294 1294 1293 1293 1293 1292 1292 1292 1291 1291 1290 1290 1289 1289 1288 1288 1287 1287 1286 1285 1285 1285 1285 1284 1284 1284 1284 1285 1285 1286 1287 1289 1290 1291 1295 1312 0 0 1510 1521 1535 1543 1545 1548 1549 1549 1550 1550 1550 1544 0 0 1372 1330 1298 1286 1274 1267 1265 1263 1261 1261 1260 1260 1258 1258 1258 1257 1257 1257 1257 1258 1259 1261 1264 1266 1270 1276 1283 1286 1294 0 0 0 1477 1493 1546 1553 1556 1556 1556 1555 1555 1555 1555 1555 1555 1555 1555 1555 1555 1555 1556 1556 1556 1556 1556 1556 1556 1556 1556 1556 1555 1555 1554 1554 1553 1552 1551 1551 1550 1549 1548 1548 1548 1548 1548 1548 1547 1547 1547 1547 1547 1547 1547 1548 1548 1549 1550 1552 1554 1556 1558 1560 1563 1564 1566 1567 1568 1571 1573 1575 1576 1578 1578 1580 1582 1583 1584 1585 1586 1587 1589 1589 1590 1591 1592 1593 1594 1595 1596 1597 1599 1600 1601 1603 1604 1605 1606 1608 1609 1609 1610 1612 1613 1614 1615 1616 1617 1618 1619 1619 1620 1621 1621 1622 1623 1623 1624 1624 1625 1625 1627 1627 1627 1627 1627 1627 1627 1627 1628 1628 1628 1628 1628 1629 1629 1629 1630 1631 1633 1633 1633 1633 1633 1633 1633 1633 1632 1631 1631 1631 1632 1632 1632 1630 1627 1611 1580 0 0 0 0 0 0 0 0 0 0 0 0 0 0 0 0 0 0 0 0 0 0 0 0 0 0 0 0 0 0 0 0 0 0 0 0 0 0 0 0 0
0 0 0 0 0 0 0 0 0 0 0 0 0 0 0 0 0 0 0 0 0 0 0 0 0 0 0 0 0 0 0 0 0 0 0 0 0 0 0 0 0 0 0 1346 1339 1339 1339 1339 1339 1342 1346 1349 1352 1355 1357 1359 1360 1361 1363 1365 1366 1368 1369 1372 1373 1374 1376 1377 1378 1378 1378 1379 1379 1379 1379 1379 1378 1378 1378 1377 1376 1375 1374 1372 1371 1370 1366 1353 1329 0 0 1179 1170 1162 1155 1155 1155 1157 1158 1159 1161 1163 1166 1169 1171 1181 1187 1193 1207 1222 1248 1286 1323 1344 1357 1363 1368 1369 1369 1370 1370 1371 1372 1372 1372 1372 1372 1372 1372 1372 1372 1370 1369 1368 1368 1367 1363 1362 1358 1341 1316 1271 1249 1241 1238 1237 1236 1235 1235 1235 1234 1232 1232 1231 1230 1230 1230 1231 1235 1241 1247 1263 1287 1313 1329 1335 1345 1351 1351 1351 1351 1351 1352 1353 1353 1353 1353 1353 1353 1352 1352 1352 1351 1351 1350 1349 1347 1346 1344 1343 1340 1335 1326 1306 1289 1282 1278 1273 1271 1267 1263 1263 1263 1263 1262 1262 1262 1262 1265 1267 1267 1268 1268 1271 1271 1273 1287 1304 1315 1322 1327 1330 1333 1335 1335 1336 1336 1337 1337 1337 1337 1336 1336 1335 1335 1334 1334 1333 1332 1331 1330 1328 1327 1325 1324 1322 1320 1309 1294 1290 1287 1283 1282 1280 1280 1279 1278 1278 1278 1278 1278 1278 1275 1275 1275 1277 1279 1280 1282 1285 1292 1299 1304 1308 1310 1311 1312 1313 1314 1314 1314 1314 1314 1314 1313 1313 1312 1312 1311 1311 1310 1310 1309 1309 1308 1308 1307 1306 1304 1302 1300 1297 1293 1287 1285 1283 1282 1281 1279 1278 1278 1278 1279 1279 1279 1279 1277 1277 1277 1279 1279 1279 1279 1279 1279 1279 1281 1282 1285 1287 1289 1290 1291 1291 1292 1292 1293 1293 1293 1293 1293 1293 1293 1294 1294 1294 1294 1294 1294 1294 1294 1294 1294 1294 1293 1293 1293 1292 1292 1291 1290 1290 1289 1289 1289 1288 1288 1287 1287 1286 1286 1285 1285 1284 1284 1284 1285 1285 1285 1286 1287 1289 1291 1291 1294 1310 0 0 1510 1521 1535 1540 1543 1544 1547 1548 1548 1548 1548 0 0 0 1351 1328 1294 1279 1267 1265 1264 1263 1261 1260 1260 1260 1258 1258 1258 1258 1257 1257 1257 1258 1261 1263 1264 1266 1270 1278 1287 1296 0 0 0 0 1508 1546 1549 1555 1556 1556 1556 1556 1556 1556 1556 1556 1556 1556 1556 1556 1556 1556 1556 1556 1556 1557 1556 1556 1556 1556 1556 1556 1556 1555 1554 1554 1553 1553 1552 1552 1551 1549 1549 1548 1548 1548 1548 1548 1547 1547 1547 1547 1547 1548 1548 1548 1548 1549 1550 1552 1554 1556 1558 1560 1563 1564 1566 1568 1570 1571 1573 1575 1576 1578 1579 1580 1582 1583 1584 1585 1586 1587 1589 1589 1590 1591 1592 1593 1594 1595 1596 1597 1599 1600 1601 1603 1604 1605 1606 1608 1608 1609 1610 1612 1613 1614 1615 1616 1617 1617 1617 1619 1619 1620 1620 1621 1622 1623 1623 1623 1624 1624 1625 1625 1626 1626 1626 1626 1627 1627 1627 1627 1627 1628 1628 1628 1628 1628 1629 1629 1630 1631 1631 1632 1632 1632 1632 1632 1632 1630 1630 1630 1632 1632 1632 1630 1625 1612 1584 0 0 0 0 0 0 0 0 0 0 0 0 0 0 0 0 0 0 0 0 0 0 0 0 0 0 0 0 0 0 0 0 0 0 0 0 0 0 0 0 0
0 0 0 0 0 0 0 0 0 0 0 0 0 0 0 0 0 0 0 0 0 0 0 0 0 0 0 0 0 0 0 0 0 0 0 0 0 0 0 0 0 0 0 1335 1336 1336 1336 1339 1339 1341 1344 1345 1349 1352 1355 1357 1359 1360 1361 1363 1365 1367 1368 1369 1372 1373 1375 1376 1377 1378 1378 1378 1378 1378 1378 1378 1378 1378 1377 1377 1376 1375 1374 1372 1371 1368 1366 1356 1333 0 0 1179 1166 1158 1155 1155 1155 1157 1159 1162 1163 1164 1167 1170 1174 1181 1190 1193 1207 1220 1243 1285 1323 1345 1357 1363 1368 1369 1370 1370 1370 1371 1372 1372 1372 1372 1372 1372 1372 1372 1372 1370 1369 1368 1368 1365 1363 1362 1355 1341 1317 1274 1245 1238 1237 1237 1237 1237 1237 1235 1234 1232 1232 1231 1229 1229 1229 1231 1235 1241 1248 1263 1286 1310 1327 1335 1345 1351 1351 1351 1351 1351 1352 1353 1353 1353 1353 1353 1353 1352 1352 1351 1351 1350 1350 1349 1347 1346 1344 1343 1340 1336 1327 1309 1292 1282 1278 1275 1273 1270 1266 1265 1265 1264 1263 1262 1262 1262 1265 1267 1268 1268 1269 1272 1273 1276 1288 1304 1315 1322 1327 1330 1333 1335 1335 1336 1337 1337 1337 1337 1337 1336 1336 1335 1335 1334 1334 1333 1332 1331 1330 1328 1327 1325 1324 1324 1320 1309 1295 1291 1287 1285 1284 1284 1282 1280 1279 1279 1279 1280 1280 1280 1278 1278 1278 1278 1279 1282 1286 1291 1296 1300 1304 1308 1311 1311 1313 1314 1314 1314 1314 1314 1314 1314 1313 1313 1312 1311 1311 1310 1310 1310 1309 1309 1308 1308 1307 1306 1305 1302 1300 1297 1294 1288 1286 1285 1284 1283 1283 1281 1281 1281 1282 1282 1283 1283 1283 1281 1280 1280 1280 1280 1280 1280 1280 1280 1281 1283 1287 1288 1289 1290 1291 1292 1292 1293 1293 1293 1293 1293 1293 1293 1293 1294 1294 1294 1294 1294 1294 1294 1294 1294 1294 1294 1293 1293 1293 1292 1292 1291 1291 1290 1290 1289 1289 1288 1288 1288 1287 1286 1286 1285 1285 1285 1285 1285 1285 1285 1285 1286 1287 1289 1291 1291 1294 1308 0 0 1500 1515 1534 1538 1538 1544 1545 1545 1545 1542 1541 0 0 0 1344 1304 1286 1273 1267 1265 1264 1263 1261 1260 1260 1260 1259 1259 1258 1258 1258 1258 1258 1259 1263 1264 1265 1267 1274 1283 1292 1312 0 0 0 0 1527 1548 1551 1555 1555 1555 1556 1556 1556 1556 1556 1556 1556 1556 1556 1556 1556 1556 1557 1557 1557 1557 1557 1557 1557 1557 1557 1556 1556 1556 1555 1554 1554 1553 1552 1552 1551 1550 1549 1548 1548 1548 1548 1548 1547 1547 1548 1548 1548 1548 1548 1548 1548 1550 1550 1553 1554 1556 1558 1560 1563 1565 1567 1568 1570 1572 1573 1575 1576 1578 1579 1580 1581 1583 1584 1585 1586 1587 1589 1589 1590 1591 1592 1593 1594 1595 1596 1598 1599 1600 1601 1603 1604 1605 1606 1607 1608 1609 1610 1612 1613 1614 1614 1615 1616 1616 1617 1618 1618 1619 1619 1619 1620 1621 1622 1622 1622 1623 1624 1625 1625 1625 1626 1626 1626 1626 1626 1627 1627 1627 1627 1627 1627 1627 1627 1629 1630 1630 1630 1630 1631 1632 1632 1632 1631 1630 1630 1630 1630 1630 1628 1628 1625 1614 1586 0 0 0 0 0 0 0 0 0 0 0 0 0 0 0 0 0 0 0 0 0 0 0 0 0 0 0 0 0 0 0 0 0 0 0 0 0 0 0 0 0
0 0 0 0 0 0 0 0 0 0 0 0 0 0 0 0 0 0 0 0 0 0 0 0 0 0 0 0 0 0 0 0 0 0 0 0 0 0 0 0 0 0 1301 1324 1329 1329 1334 1335 1335 1341 1343 1345 1347 1349 1352 1353 1357 1358 1360 1361 1363 1365 1366 1367 1371 1373 1374 1375 1376 1377 1378 1378 1378 1378 1378 1378 1378 1378 1377 1376 1376 1375 1374 1372 1371 1368 1366 1357 1336 0 0 1179 1161 1157 1157 1157 1157 1160 1163 1163 1164 1165 1167 1172 1180 1187 1190 1193 1205 1213 1234 1276 1313 1344 1353 1363 1367 1369 1370 1370 1370 1371 1371 1372 1372 1372 1372 1372 1372 1372 1372 1370 1369 1368 1366 1365 1363 1362 1355 1341 1317 1275 1245 1238 1237 1237 1237 1237 1237 1235 1234 1232 1231 1231 1229 1229 1229 1231 1235 1241 1248 1263 1285 1305 1325 1335 1345 1350 1350 1350 1351 1351 1352 1353 1353 1353 1353 1353 1352 1352 1352 1351 1351 1351 1350 1349 1347 1346 1344 1343 1341 1338 1331 1312 1293 1282 1278 1276 1273 1270 1269 1267 1267 1266 1263 1262 1262 1262 1265 1269 1269 1269 1271 1275 1276 1279 1292 1308 1315 1323 1328 1332 1334 1335 1336 1336 1337 1337 1337 1337 1337 1336 1336 1335 1335 1335 1334 1333 1332 1331 1330 1329 1327 1325 1324 1324 1320 1308 1296 1293 1289 1289 1288 1288 1287 1283 1281 1281 1281 1282 1282 1282 1280 1278 1278 1278 1282 1284 1289 1296 1299 1301 1305 1309 1311 1312 1313 1314 1314 1314 1314 1314 1314 1314 1313 1313 1312 1311 1311 1310 1310 1310 1309 1309 1308 1308 1307 1306 1305 1303 1301 1300 1297 1292 1288 1287 1287 1287 1285 1284 1284 1284 1285 1285 1285 1285 1285 1284 1283 1282 1282 1282 1283 1283 1283 1283 1283 1285 1289 1290 1291 1291 1292 1292 1293 1293 1293 1293 1293 1293 1293 1293 1294 1294 1294 1294 1294 1294 1294 1294 1294 1294 1294 1294 1294 1293 1293 1293 1293 1292 1291 1291 1290 1290 1290 1289 1288 1288 1287 1287 1286 1286 1286 1285 1285 1285 1285 1285 1285 1285 1286 1287 1288 1291 1292 1307 0 0 0 1515 1528 1533 1538 1544 1544 1544 1541 1538 1532 0 0 0 1331 1301 1277 1270 1267 1265 1264 1263 1261 1260 1260 1260 1260 1259 1259 1259 1259 1259 1260 1261 1264 1264 1266 1272 1278 1283 1298 1326 0 0 0 0 1547 1553 1554 1554 1554 1555 1556 1556 1556 1556 1556 1556 1556 1557 1557 1556 1556 1557 1557 1557 1557 1557 1557 1557 1557 1557 1557 1556 1556 1556 1555 1555 1554 1554 1552 1552 1551 1550 1549 1549 1549 1549 1548 1548 1548 1548 1548 1548 1548 1548 1548 1548 1550 1550 1552 1553 1554 1556 1559 1561 1563 1566 1567 1569 1570 1572 1574 1575 1576 1578 1579 1580 1582 1583 1584 1585 1586 1587 1588 1589 1590 1591 1593 1593 1594 1596 1596 1598 1599 1600 1601 1602 1604 1604 1606 1607 1608 1609 1610 1612 1612 1613 1614 1615 1615 1616 1616 1617 1617 1618 1618 1619 1619 1620 1620 1621 1621 1622 1623 1624 1624 1625 1625 1625 1625 1626 1626 1626 1626 1626 1626 1626 1626 1626 1626 1627 1629 1629 1630 1630 1630 1631 1631 1631 1631 1630 1630 1630 1630 1630 1628 1628 1625 1614 1586 0 0 0 0 0 0 0 0 0 0 0 0 0 0 0 0 0 0 0 0 0 0 0 0 0 0 0 0 0 0 0 0 0 0 0 0 0 0 0 0 0
0 0 0 0 0 0 0 0 0 0 0 0 0 0 0 0 0 0 0 0 0 0 0 0 0 0 0 0 0 0 0 0 0 0 0 0 0 0 0 0 0 0 1283 1309 1321 1323 1324 1324 1331 1339 1342 1343 1345 1347 1348 1352 1354 1356 1358 1360 1361 1363 1364 1367 1370 1373 1373 1374 1375 1376 1377 1377 1377 1377 1377 1377 1377 1377 1377 1376 1376 1375 1374 1373 1371 1368 1365 1359 1337 0 0 1179 1161 1157 1157 1157 1158 1162 1165 1165 1166 1167 1168 1176 1184 1187 1190 1192 1205 1211 1233 1271 1313 1339 1352 1362 1367 1367 1368 1370 1370 1371 1371 1372 1372 1372 1372 1372 1372 1372 1371 1370 1369 1367 1366 1365 1363 1362 1355 1342 1317 1285 1245 1238 1238 1238 1237 1237 1237 1235 1231 1231 1229 1229 1229 1229 1229 1232 1239 1244 1248 1265 1284 1305 1325 1335 1345 1350 1350 1350 1351 1351 1352 1353 1353 1353 1353 1353 1352 1352 1352 1352 1351 1351 1350 1349 1347 1346 1345 1343 1342 1341 1334 1318 1296 1282 1278 1277 1273 1270 1269 1269 1268 1268 1264 1262 1262 1262 1265 1276 1276 1277 1278 1278 1283 1291 1297 1311 1318 1324 1328 1332 1335 1335 1336 1336 1337 1337 1337 1337 1337 1337 1336 1336 1335 1335 1334 1333 1332 1331 1330 1330 1328 1326 1324 1324 1321 1308 1296 1294 1291 1290 1290 1290 1289 1287 1285 1284 1284 1284 1284 1284 1283 1283 1283 1285 1287 1290 1292 1297 1301 1302 1306 1309 1311 1312 1313 1314 1314 1314 1314 1314 1314 1313 1313 1313 1312 1311 1311 1310 1310 1309 1309 1309 1308 1308 1307 1306 1305 1304 1302 1300 1297 1295 1291 1288 1288 1288 1288 1288 1289 1289 1290 1290 1290 1290 1288 1288 1288 1288 1288 1288 1289 1290 1290 1290 1290 1290 1292 1292 1293 1293 1293 1293 1293 1294 1294 1294 1294 1294 1294 1294 1294 1294 1294 1294 1294 1294 1294 1294 1294 1294 1294 1294 1294 1294 1293 1293 1293 1292 1291 1291 1290 1290 1290 1289 1288 1288 1287 1287 1287 1286 1286 1286 1285 1285 1285 1285 1285 1286 1286 1287 1288 1289 1292 1305 0 0 0 1502 1516 1530 1538 1545 1545 1545 1540 1534 1520 0 0 0 1317 1289 1277 1270 1267 1265 1265 1265 1263 1262 1260 1260 1260 1260 1260 1260 1260 1260 1260 1262 1264 1266 1271 1276 1278 1286 1310 0 0 0 0 1538 1553 1554 1554 1554 1554 1554 1555 1556 1556 1557 1557 1557 1557 1557 1557 1557 1557 1557 1557 1557 1557 1557 1557 1557 1557 1557 1557 1557 1556 1556 1556 1555 1554 1554 1553 1552 1551 1551 1549 1549 1549 1549 1548 1548 1548 1548 1548 1548 1548 1549 1549 1550 1550 1551 1552 1554 1556 1557 1559 1562 1564 1566 1568 1569 1571 1572 1574 1575 1576 1578 1579 1580 1582 1583 1584 1585 1586 1587 1589 1589 1591 1591 1593 1594 1595 1596 1597 1598 1599 1600 1601 1602 1603 1604 1605 1606 1607 1609 1609 1611 1612 1612 1613 1613 1614 1614 1615 1616 1617 1617 1617 1618 1619 1619 1620 1620 1621 1621 1622 1622 1623 1623 1624 1625 1625 1625 1625 1625 1625 1625 1625 1625 1625 1625 1626 1626 1627 1628 1628 1629 1630 1630 1630 1630 1630 1630 1630 1630 1630 1630 1628 1627 1627 1614 1586 0 0 0 0 0 0 0 0 0 0 0 0 0 0 0 0 0 0 0 0 0 0 0 0 0 0 0 0 0 0 0 0 0 0 0 0 0 0 0 0 0
0 0 0 0 0 0 0 0 0 0 0 0 0 0 0 0 0 0 0 0 0 0 0 0 0 0 0 0 0 0 0 0 0 0 0 0 0 0 0 0 0 0 1277 1306 1320 1321 1322 1322 1326 1335 1338 1340 1343 1345 1346 1348 1350 1352 1354 1357 1358 1360 1362 1366 1369 1371 1372 1373 1374 1375 1376 1376 1377 1377 1377 1377 1377 1377 1376 1376 1375 1374 1374 1373 1371 1369 1364 1356 1337 0 0 1179 1161 1157 1157 1157 1163 1166 1169 1170 1170 1171 1172 1180 1186 1187 1188 1188 1195 1211 1233 1264 1291 1330 1352 1362 1364 1365 1367 1369 1370 1370 1370 1371 1371 1371 1371 1371 1371 1371 1371 1370 1369 1367 1366 1365 1363 1362 1358 1345 1333 1303 1252 1239 1238 1238 1238 1238 1238 1235 1231 1231 1231 1231 1232 1232 1233 1236 1242 1248 1256 1268 1284 1305 1325 1337 1345 1350 1350 1350 1351 1351 1353 1353 1353 1353 1353 1353 1352 1352 1352 1351 1351 1351 1350 1348 1348 1347 1346 1344 1343 1341 1335 1321 1303 1288 1281 1277 1274 1272 1272 1272 1271 1270 1264 1264 1264 1266 1274 1286 1286 1286 1286 1286 1291 1297 1301 1313 1320 1326 1330 1332 1335 1335 1336 1336 1337 1337 1337 1337 1337 1337 1336 1336 1335 1335 1335 1334 1333 1332 1332 1330 1329 1327 1325 1324 1322 1308 1299 1296 1295 1295 1295 1295 1295 1295 1295 1295 1292 1292 1290 1290 1290 1290 1290 1293 1298 1301 1303 1303 1304 1305 1307 1310 1311 1313 1313 1314 1314 1314 1314 1314 1314 1313 1313 1312 1312 1311 1311 1310 1310 1309 1309 1309 1308 1308 1307 1306 1306 1305 1303 1300 1299 1298 1298 1297 1295 1295 1293 1293 1293 1293 1294 1294 1295 1295 1295 1294 1294 1293 1292 1292 1292 1293 1293 1293 1293 1293 1293 1293 1294 1294 1294 1294 1294 1294 1294 1294 1294 1294 1294 1294 1294 1294 1294 1294 1294 1294 1294 1294 1294 1294 1294 1294 1294 1294 1294 1293 1293 1293 1292 1292 1292 1291 1290 1289 1289 1289 1288 1287 1287 1286 1286 1286 1285 1285 1285 1285 1285 1286 1286 1287 1288 1288 1292 1305 0 0 0 1501 1516 1530 1539 1543 1543 1543 1537 1527 1504 0 0 0 1304 1281 1275 1270 1267 1267 1266 1266 1264 1262 1262 1261 1261 1261 1261 1261 1261 1261 1263 1263 1265 1267 1276 1284 1291 1305 0 0 0 0 1512 1549 1553 1554 1554 1554 1554 1554 1555 1556 1556 1556 1557 1557 1557 1557 1557 1557 1557 1557 1557 1557 1557 1558 1558 1558 1558 1558 1558 1557 1557 1557 1556 1555 1554 1554 1553 1552 1552 1551 1550 1550 1549 1549 1548 1548 1548 1548 1548 1548 1549 1549 1550 1550 1551 1553 1554 1555 1556 1558 1561 1562 1565 1566 1568 1570 1571 1572 1574 1575 1577 1578 1580 1581 1582 1583 1584 1585 1587 1588 1589 1590 1591 1591 1593 1594 1595 1596 1597 1598 1599 1600 1601 1602 1603 1604 1605 1606 1607 1609 1609 1610 1610 1612 1612 1613 1613 1613 1614 1614 1616 1616 1616 1617 1618 1618 1619 1619 1619 1620 1620 1621 1621 1622 1623 1623 1624 1624 1625 1625 1625 1624 1624 1624 1624 1624 1625 1625 1626 1626 1627 1628 1628 1628 1628 1628 1628 1629 1629 1629 1629 1629 1629 1627 1627 1614 1586 0 0 0 0 0 0 0 0 0 0 0 0 0 0 0 0 0 0 0 0 0 0 0 0 0 0 0 0 0 0 0 0 0 0 0 0 0 0 0 0 0
0 0 0 0 0 0 0 0 0 0 0 0 0 0 0 0 0 0 0 0 0 0 0 0 0 0 0 0 0 0 0 0 0 0 0 0 0 0 0 0 0 0 0 1300 1314 1314 1318 1321 1326 1332 1334 1336 1339 1341 1342 1342 1345 1348 1351 1353 1356 1357 1362 1364 1367 1370 1371 1372 1373 1375 1376 1376 1376 1376 1377 1377 1377 1376 1376 1375 1374 1374 1373 1372 1371 1369 1364 1356 1344 0 0 1179 1164 1163 1163 1163 1165 1170 1176 1178 1178 1179 1185 1187 1188 1188 1188 1188 1193 1209 1233 1264 1291 1329 1350 1361 1363 1364 1366 1368 1369 1370 1370 1371 1371 1371 1371 1371 1371 1371 1371 1370 1369 1367 1366 1366 1365 1364 1361 1353 1338 1303 1258 1244 1238 1238 1238 1238 1238 1235 1231 1231 1231 1231 1235 1235 1235 1240 1246 1253 1260 1271 1284 1306 1327 1339 1345 1349 1351 1351 1351 1353 1353 1353 1353 1353 1353 1353 1352 1352 1352 1351 1351 1350 1350 1349 1348 1347 1346 1345 1343 1342 1336 1327 1309 1295 1289 1282 1281 1280 1280 1280 1280 1278 1274 1274 1274 1277 1284 1295 1297 1297 1299 1299 1299 1300 1304 1313 1321 1326 1332 1334 1335 1335 1336 1336 1336 1336 1336 1337 1336 1336 1336 1336 1336 1335 1335 1334 1333 1333 1332 1330 1329 1328 1326 1325 1322 1315 1311 1308 1308 1308 1307 1306 1305 1302 1299 1298 1298 1298 1300 1300 1300 1300 1300 1300 1304 1305 1307 1309 1309 1309 1310 1310 1313 1313 1314 1314 1314 1314 1314 1314 1313 1313 1313 1312 1312 1311 1311 1310 1310 1309 1309 1309 1309 1308 1308 1307 1306 1305 1303 1301 1301 1300 1300 1299 1298 1298 1297 1296 1296 1296 1296 1296 1296 1296 1296 1296 1296 1295 1294 1294 1294 1293 1293 1294 1294 1294 1294 1294 1294 1294 1294 1294 1295 1295 1295 1295 1294 1294 1294 1294 1294 1294 1294 1294 1294 1294 1295 1295 1295 1295 1294 1294 1294 1294 1294 1294 1293 1293 1292 1292 1292 1291 1291 1290 1289 1289 1288 1288 1287 1287 1286 1286 1286 1286 1286 1286 1286 1286 1286 1287 1287 1288 1292 1301 0 0 0 1501 1516 1530 1540 1540 1540 1537 1531 1518 0 0 0 1323 1294 1279 1275 1272 1268 1267 1267 1267 1265 1264 1262 1262 1262 1263 1263 1263 1263 1264 1264 1264 1265 1271 1282 1295 1309 1326 0 0 0 0 1537 1551 1554 1554 1555 1555 1555 1555 1555 1556 1556 1557 1557 1557 1557 1557 1557 1557 1557 1557 1557 1557 1558 1558 1558 1558 1558 1558 1558 1558 1557 1557 1557 1555 1554 1554 1553 1553 1552 1551 1551 1550 1550 1549 1549 1548 1548 1548 1548 1549 1550 1550 1551 1551 1552 1553 1554 1555 1558 1559 1561 1563 1565 1567 1569 1570 1572 1573 1574 1575 1577 1578 1580 1581 1582 1583 1585 1586 1587 1588 1589 1590 1591 1591 1593 1594 1595 1596 1597 1598 1599 1600 1601 1602 1603 1604 1605 1606 1607 1608 1609 1609 1610 1611 1612 1612 1612 1613 1613 1614 1614 1615 1616 1616 1617 1617 1618 1618 1618 1619 1619 1619 1621 1621 1622 1623 1623 1624 1624 1624 1623 1623 1623 1623 1623 1624 1625 1625 1625 1625 1626 1626 1626 1626 1626 1626 1627 1627 1628 1628 1628 1627 1627 1627 1627 1620 1586 0 0 0 0 0 0 0 0 0 0 0 0 0 0 0 0 0 0 0 0 0 0 0 0 0 0 0 0 0 0 0 0 0 0 0 0 0 0 0 0 0
0 0 0 0 0 0 0 0 0 0 0 0 0 0 0 0 0 0 0 0 0 0 0 0 0 0 0 0 0 0 0 0 0 0 0 0 0 0 0 0 0 0 0 0 1298 1303 1313 1316 1325 1330 1332 1335 1336 1339 1339 1340 1341 1345 1348 1351 1353 1355 1358 1360 1363 1366 1370 1372 1373 1374 1375 1375 1376 1376 1376 1376 1376 1376 1376 1375 1374 1374 1373 1372 1371 1369 1363 1358 1344 0 0 1181 1167 1167 1167 1167 1170 1178 1184 1184 1185 1189 1193 1193 1193 1188 1188 1188 1193 1209 1235 1264 1291 1329 1350 1361 1362 1363 1365 1367 1368 1369 1370 1370 1371 1371 1371 1371 1371 1371 1371 1370 1369 1368 1367 1366 1366 1365 1361 1354 1339 1305 1262 1251 1247 1245 1245 1244 1242 1238 1234 1234 1234 1234 1239 1240 1241 1245 1251 1259 1270 1276 1285 1308 1330 1339 1346 1349 1351 1352 1352 1353 1353 1353 1353 1353 1353 1353 1352 1352 1352 1351 1351 1351 1350 1349 1349 1348 1347 1346 1345 1342 1340 1333 1320 1309 1305 1300 1298 1297 1297 1297 1297 1297 1300 1306 1306 1306 1307 1307 1309 1309 1309 1309 1309 1309 1311 1322 1329 1329 1332 1334 1335 1335 1335 1336 1336 1336 1336 1336 1336 1336 1336 1336 1336 1335 1335 1334 1333 1333 1332 1331 1330 1329 1328 1327 1326 1321 1318 1317 1315 1315 1315 1314 1312 1308 1304 1304 1304 1305 1305 1305 1306 1306 1307 1307 1308 1308 1310 1311 1312 1312 1313 1313 1314 1315 1315 1315 1315 1314 1314 1314 1313 1313 1313 1312 1312 1311 1311 1310 1310 1309 1309 1309 1309 1308 1308 1307 1307 1306 1305 1303 1303 1302 1300 1300 1300 1300 1299 1299 1299 1298 1298 1297 1297 1297 1297 1296 1296 1296 1295 1295 1295 1295 1295 1295 1295 1295 1295 1295 1295 1295 1295 1295 1295 1295 1295 1295 1295 1295 1294 1294 1294 1295 1295 1295 1295 1295 1295 1295 1295 1295 1295 1294 1294 1294 1294 1294 1293 1293 1293 1292 1292 1291 1291 1290 1290 1289 1289 1288 1288 1287 1287 1286 1286 1286 1286 1286 1286 1286 1286 1287 1287 1287 1291 1300 1321 0 0 1502 1519 1531 1543 1543 1543 1536 1528 1512 0 0 0 1312 1287 1278 1275 1272 1268 1267 1267 1267 1265 1264 1263 1263 1263 1263 1265 1266 1266 1266 1266 1267 1272 1279 1288 1296 1321 0 0 0 0 1528 1547 1552 1554 1555 1555 1555 1555 1555 1555 1556 1557 1557 1557 1557 1557 1557 1558 1558 1558 1558 1558 1558 1559 1559 1559 1558 1558 1558 1558 1558 1558 1557 1557 1556 1555 1554 1554 1553 1552 1552 1551 1551 1550 1549 1549 1548 1548 1548 1548 1550 1550 1550 1551 1551 1552 1553 1555 1557 1558 1560 1562 1564 1565 1568 1570 1571 1572 1573 1574 1576 1578 1578 1580 1581 1582 1584 1585 1587 1587 1589 1589 1590 1591 1592 1593 1594 1595 1595 1597 1598 1599 1600 1601 1602 1603 1604 1605 1606 1606 1607 1608 1609 1609 1610 1611 1612 1612 1613 1613 1613 1613 1614 1615 1615 1616 1616 1617 1617 1617 1618 1618 1619 1620 1621 1621 1622 1623 1623 1623 1623 1622 1622 1622 1622 1623 1623 1623 1624 1624 1624 1624 1624 1624 1624 1624 1624 1624 1626 1626 1626 1624 1624 1624 1623 1623 1620 1590 0 0 0 0 0 0 0 0 0 0 0 0 0 0 0 0 0 0 0 0 0 0 0 0 0 0 0 0 0 0 0 0 0 0 0 0 0 0 0 0 0
0 0 0 0 0 0 0 0 0 0 0 0 0 0 0 0 0 0 0 0 0 0 0 0 0 0 0 0 0 0 0 0 0 0 0 0 0 0 0 0 0 0 0 0 0 1284 1306 1312 1322 1328 1332 1334 1335 1336 1336 1338 1339 1343 1347 1350 1352 1353 1356 1359 1361 1364 1368 1371 1373 1374 1374 1375 1375 1375 1376 1376 1376 1376 1376 1374 1373 1372 1371 1371 1370 1369 1363 1358 1344 0 0 1190 1175 1173 1173 1173 1178 1185 1190 1193 1194 1196 1200 1200 1200 1193 1193 1193 1193 1209 1242 1270 1296 1329 1350 1361 1362 1363 1365 1367 1368 1369 1370 1370 1370 1371 1371 1371 1371 1371 1370 1370 1369 1368 1367 1366 1366 1366 1361 1356 1342 1312 1276 1270 1269 1269 1265 1256 1256 1254 1249 1245 1245 1245 1247 1250 1257 1258 1263 1271 1277 1281 1293 1314 1331 1342 1347 1349 1352 1352 1353 1353 1353 1353 1353 1353 1353 1353 1353 1352 1352 1352 1351 1351 1350 1350 1349 1349 1347 1346 1345 1343 1341 1336 1328 1325 1323 1322 1321 1321 1319 1319 1321 1321 1321 1321 1321 1319 1319 1319 1324 1324 1324 1325 1325 1325 1327 1330 1332 1333 1333 1334 1334 1334 1335 1336 1336 1336 1336 1336 1336 1336 1336 1336 1336 1336 1335 1334 1334 1334 1332 1331 1330 1329 1328 1327 1327 1326 1322 1320 1319 1317 1316 1315 1314 1313 1312 1312 1311 1311 1310 1310 1310 1310 1310 1310 1311 1311 1312 1313 1313 1313 1314 1315 1315 1315 1315 1315 1315 1315 1314 1314 1313 1313 1313 1312 1312 1311 1311 1311 1310 1309 1309 1309 1309 1308 1308 1308 1307 1306 1305 1304 1303 1303 1302 1302 1302 1302 1301 1301 1299 1299 1299 1299 1299 1298 1298 1298 1298 1298 1297 1297 1296 1296 1296 1296 1296 1296 1296 1296 1296 1296 1296 1296 1296 1295 1295 1295 1295 1295 1295 1295 1295 1295 1295 1295 1295 1295 1295 1295 1295 1295 1295 1295 1294 1294 1294 1294 1294 1294 1293 1293 1292 1292 1291 1290 1290 1289 1289 1288 1288 1287 1287 1286 1286 1286 1286 1286 1286 1286 1286 1286 1287 1287 1291 1300 1319 0 0 1508 1528 1537 1542 1542 1542 1534 1521 0 0 0 0 1307 1286 1277 1275 1272 1268 1267 1267 1267 1266 1265 1264 1264 1264 1265 1266 1267 1268 1269 1269 1271 1279 1287 1291 1299 0 0 0 0 1519 1548 1551 1553 1555 1556 1556 1556 1556 1556 1556 1556 1557 1557 1557 1557 1557 1557 1558 1558 1558 1558 1558 1559 1559 1559 1559 1559 1559 1558 1558 1558 1558 1558 1557 1556 1556 1555 1554 1553 1552 1552 1551 1551 1550 1550 1549 1549 1549 1549 1549 1550 1550 1551 1551 1552 1553 1555 1556 1558 1559 1561 1563 1564 1566 1568 1570 1571 1572 1573 1574 1576 1578 1579 1580 1581 1582 1584 1585 1587 1588 1589 1590 1591 1592 1592 1593 1594 1595 1595 1597 1598 1599 1600 1601 1602 1602 1603 1604 1605 1605 1606 1607 1608 1609 1610 1611 1611 1612 1612 1612 1612 1613 1613 1614 1614 1615 1615 1615 1617 1617 1618 1618 1619 1619 1621 1621 1622 1622 1622 1622 1622 1622 1622 1622 1622 1622 1622 1622 1622 1622 1622 1622 1622 1622 1622 1622 1622 1622 1622 1622 1622 1623 1623 1623 1623 1623 1620 1590 0 0 0 0 0 0 0 0 0 0 0 0 0 0 0 0 0 0 0 0 0 0 0 0 0 0 0 0 0 0 0 0 0 0 0 0 0 0 0 0 0
0 0 0 0 0 0 0 0 0 0 0 0 0 0 0 0 0 0 0 0 0 0 0 0 0 0 0 0 0 0 0 0 0 0 0 0 0 0 0 0 0 0 0 0 0 1273 1295 1308 1314 1322 1327 1332 1334 1334 1335 1336 1338 1342 1346 1349 1351 1353 1356 1358 1361 1364 1368 1369 1371 1373 1373 1374 1375 1375 1375 1375 1375 1375 1375 1374 1373 1372 1371 1371 1370 1368 1363 1358 1345 0 0 1200 1188 1188 1188 1188 1190 1191 1194 1200 1202 1207 1209 1209 1209 1207 1205 1205 1205 1213 1243 1274 1305 1332 1350 1361 1362 1363 1365 1367 1368 1369 1370 1370 1370 1370 1370 1370 1370 1370 1370 1370 1369 1368 1367 1367 1366 1364 1361 1356 1348 1329 1301 1296 1296 1296 1292 1291 1290 1287 1286 1282 1282 1282 1281 1282 1283 1286 1298 1298 1301 1302 1305 1322 1333 1342 1347 1352 1353 1353 1353 1353 1353 1354 1354 1354 1353 1353 1353 1352 1352 1352 1351 1351 1350 1350 1349 1349 1348 1348 1346 1344 1342 1342 1341 1337 1337 1335 1335 1335 1334 1334 1333 1333 1332 1332 1332 1332 1331 1331 1331 1332 1332 1332 1332 1332 1333 1333 1333 1334 1334 1334 1334 1334 1335 1336 1336 1336 1336 1336 1336 1336 1336 1336 1336 1336 1335 1335 1334 1334 1333 1332 1331 1330 1328 1328 1327 1326 1324 1321 1320 1320 1320 1320 1318 1318 1317 1316 1315 1314 1313 1313 1313 1313 1313 1313 1313 1313 1314 1314 1315 1315 1315 1315 1315 1315 1315 1315 1315 1315 1314 1314 1313 1313 1313 1312 1312 1311 1311 1310 1310 1309 1309 1309 1309 1308 1308 1308 1307 1306 1306 1304 1304 1303 1303 1303 1303 1303 1302 1301 1300 1300 1300 1300 1300 1299 1299 1299 1299 1299 1298 1298 1298 1298 1298 1297 1297 1297 1297 1297 1297 1297 1296 1296 1296 1296 1296 1296 1295 1295 1295 1295 1295 1295 1295 1295 1295 1295 1296 1296 1296 1296 1296 1296 1295 1295 1294 1294 1294 1294 1293 1293 1292 1292 1291 1291 1290 1290 1289 1288 1288 1287 1287 1286 1286 1286 1286 1286 1286 1286 1286 1286 1286 1287 1293 1300 1318 0 0 1508 1528 1537 1537 1537 1531 1516 0 0 0 0 1330 1301 1284 1277 1275 1272 1268 1268 1267 1267 1266 1265 1265 1265 1265 1266 1267 1268 1269 1270 1272 1281 1284 1287 1292 1305 0 0 0 0 1537 1549 1552 1555 1555 1556 1556 1556 1556 1556 1556 1557 1557 1557 1557 1558 1558 1558 1558 1558 1558 1558 1559 1560 1560 1560 1560 1560 1559 1559 1558 1558 1558 1558 1557 1557 1557 1556 1555 1555 1553 1552 1551 1551 1551 1550 1550 1549 1549 1549 1549 1550 1551 1551 1552 1553 1554 1556 1557 1559 1560 1561 1563 1564 1566 1568 1570 1571 1572 1573 1574 1575 1578 1579 1580 1582 1583 1584 1586 1587 1588 1589 1590 1591 1592 1593 1593 1594 1594 1595 1597 1597 1599 1600 1601 1602 1602 1603 1604 1605 1605 1606 1607 1608 1609 1610 1611 1611 1611 1612 1612 1612 1613 1613 1613 1613 1614 1614 1615 1616 1617 1617 1617 1618 1618 1620 1620 1622 1622 1622 1622 1622 1621 1621 1621 1621 1621 1621 1621 1621 1621 1621 1621 1621 1620 1620 1620 1619 1619 1619 1619 1619 1619 1619 1622 1622 1622 1612 1590 0 0 0 0 0 0 0 0 0 0 0 0 0 0 0 0 0 0 0 0 0 0 0 0 0 0 0 0 0 0 0 0 0 0 0 0 0 0 0 0 0
0 0 0 0 0 0 0 0 0 0 0 0 0 0 0 0 0 0 0 0 0 0 0 0 0 0 0 0 0 0 0 0 0 0 0 0 0 0 0 0 0 0 0 0 0 1267 1282 1304 1309 1316 1323 1326 1331 1332 1333 1334 1337 1341 1345 1347 1350 1351 1353 1357 1360 1363 1367 1369 1371 1372 1373 1374 1374 1374 1375 1375 1375 1375 1375 1374 1373 1372 1371 1371 1370 1368 1365 1361 1346 1314 0 0 1214 1212 1211 1210 1210 1210 1211 1214 1216 1221 1223 1225 1226 1227 1228 1229 1234 1242 1255 1282 1309 1336 1353 1362 1364 1364 1365 1366 1368 1369 1369 1370 1370 1370 1370 1370 1370 1370 1370 1370 1369 1368 1368 1367 1366 1364 1361 1358 1354 1345 1326 1324 1324 1323 1321 1321 1320 1319 1317 1316 1315 1315 1315 1315 1318 1326 1326 1326 1327 1327 1330 1335 1343 1348 1350 1352 1353 1353 1353 1353 1353 1354 1354 1354 1353 1353 1353 1352 1352 1352 1351 1351 1350 1350 1349 1349 1349 1348 1348 1346 1345 1345 1344 1342 1340 1338 1337 1337 1337 1336 1336 1336 1336 1336 1336 1336 1335 1335 1335 1335 1335 1335 1335 1335 1334 1334 1334 1334 1334 1334 1334 1334 1335 1335 1336 1336 1336 1336 1336 1336 1336 1336 1336 1336 1335 1335 1334 1334 1333 1332 1331 1330 1329 1328 1327 1326 1325 1323 1323 1322 1322 1321 1320 1320 1319 1318 1317 1317 1316 1315 1314 1314 1314 1314 1314 1315 1315 1315 1315 1315 1315 1316 1316 1315 1315 1315 1315 1315 1314 1314 1314 1313 1313 1312 1312 1311 1311 1310 1310 1309 1309 1309 1309 1308 1308 1308 1308 1306 1306 1306 1305 1304 1304 1304 1304 1303 1303 1302 1302 1301 1301 1301 1301 1301 1301 1301 1301 1300 1299 1299 1299 1299 1299 1299 1299 1299 1299 1298 1298 1297 1297 1297 1296 1296 1296 1296 1296 1296 1296 1296 1296 1296 1296 1296 1296 1296 1296 1296 1296 1296 1296 1296 1296 1296 1295 1295 1294 1294 1293 1293 1292 1292 1292 1291 1290 1290 1289 1289 1288 1287 1287 1286 1286 1286 1286 1286 1286 1286 1286 1286 1286 1287 1293 1300 1318 0 0 1508 1528 1528 1528 1518 0 0 0 0 0 1334 1304 1295 1284 1277 1274 1271 1268 1268 1268 1267 1267 1265 1265 1265 1266 1267 1268 1269 1269 1272 1276 1283 1284 1287 1297 1313 0 0 0 1529 1553 1553 1555 1555 1555 1556 1556 1556 1557 1557 1557 1557 1557 1557 1558 1558 1558 1558 1559 1559 1559 1559 1560 1560 1561 1561 1560 1560 1560 1560 1559 1559 1559 1559 1558 1557 1557 1557 1556 1555 1554 1552 1552 1551 1551 1550 1550 1549 1549 1549 1550 1551 1551 1551 1552 1554 1555 1556 1557 1559 1560 1561 1564 1565 1567 1569 1570 1571 1572 1573 1574 1576 1577 1579 1580 1582 1583 1584 1586 1587 1589 1590 1590 1591 1592 1593 1593 1594 1595 1595 1597 1597 1599 1599 1600 1601 1602 1602 1603 1604 1604 1605 1606 1608 1609 1609 1610 1611 1611 1612 1612 1612 1612 1613 1613 1613 1613 1613 1614 1615 1616 1616 1617 1617 1618 1619 1620 1621 1622 1622 1622 1621 1621 1621 1621 1621 1621 1621 1621 1621 1620 1620 1620 1620 1619 1618 1618 1618 1618 1618 1618 1618 1618 1618 1620 1620 1620 1600 1582 1563 0 0 0 0 0 0 0 0 0 0 0 0 0 0 0 0 0 0 0 0 0 0 0 0 0 0 0 0 0 0 0 0 0 0 0 0 0 0 0 0
0 0 0 0 0 0 0 0 0 0 0 0 0 0 0 0 0 0 0 0 0 0 0 0 0 0 0 0 0 0 0 0 0 0 0 0 0 0 0 0 0 0 0 0 0 0 1274 1293 1306 1311 1320 1323 1327 1328 1330 1333 1336 1338 1342 1345 1346 1348 1352 1355 1360 1362 1366 1368 1370 1371 1373 1373 1374 1374 1375 1375 1375 1375 1375 1374 1373 1373 1372 1372 1370 1368 1366 1366 1347 1321 0 0 0 0 0 0 0 0 0 0 0 1260 1262 1264 1264 1264 1257 1257 1257 1263 1289 1300 1317 1342 1361 1365 1365 1365 1366 1367 1368 1369 1369 1370 1370 1370 1370 1370 1370 1370 1370 1370 1369 1368 1368 1367 1366 1364 1362 1360 1355 1350 1346 1345 1345 1345 1345 1345 1345 1346 1346 1346 1343 1341 1340 1339 1339 1338 1338 1339 1339 1344 1347 1347 1348 1349 1351 1353 1353 1353 1353 1353 1353 1354 1354 1354 1353 1353 1353 1352 1352 1352 1351 1351 1351 1350 1350 1349 1349 1348 1348 1347 1346 1345 1344 1342 1342 1339 1339 1339 1337 1338 1339 1339 1338 1338 1338 1338 1337 1337 1337 1337 1338 1338 1338 1338 1335 1335 1335 1335 1334 1334 1334 1335 1335 1335 1336 1336 1336 1336 1336 1336 1336 1336 1336 1336 1335 1335 1334 1334 1333 1332 1331 1330 1329 1328 1327 1326 1325 1324 1324 1323 1323 1323 1321 1321 1321 1320 1319 1318 1317 1316 1316 1316 1316 1316 1316 1316 1316 1316 1316 1316 1316 1316 1316 1316 1316 1316 1315 1315 1315 1314 1314 1314 1313 1312 1312 1312 1311 1311 1310 1310 1310 1309 1309 1309 1308 1308 1308 1307 1307 1306 1306 1305 1305 1304 1304 1304 1303 1303 1303 1303 1302 1302 1302 1302 1302 1302 1302 1301 1301 1300 1300 1301 1300 1300 1300 1300 1299 1299 1299 1298 1298 1298 1297 1297 1296 1296 1296 1296 1296 1296 1296 1296 1296 1296 1296 1296 1296 1296 1296 1297 1296 1296 1296 1296 1295 1295 1294 1294 1293 1293 1293 1292 1292 1291 1291 1290 1289 1289 1288 1288 1287 1287 1286 1286 1286 1286 1286 1286 1286 1286 1286 1287 1291 1300 1318 0 0 0 1496 1496 1496 0 0 0 0 0 1331 1316 1296 1287 1281 1277 1274 1271 1268 1268 1268 1267 1267 1267 1267 1267 1267 1268 1269 1269 1270 1274 1278 1284 1286 1298 1317 0 0 0 1508 1543 1554 1556 1556 1556 1556 1556 1556 1556 1557 1557 1557 1557 1557 1557 1558 1558 1558 1559 1559 1559 1560 1560 1560 1561 1561 1561 1561 1560 1560 1560 1559 1559 1559 1559 1558 1558 1557 1557 1557 1555 1554 1552 1552 1551 1551 1551 1551 1550 1550 1550 1550 1551 1552 1552 1553 1554 1555 1556 1559 1560 1560 1562 1564 1565 1567 1568 1570 1571 1572 1573 1574 1575 1577 1579 1580 1582 1583 1585 1586 1588 1589 1590 1591 1591 1593 1593 1593 1594 1594 1595 1597 1597 1598 1598 1599 1600 1601 1602 1603 1604 1604 1605 1605 1606 1608 1608 1609 1610 1611 1611 1611 1611 1612 1612 1612 1612 1613 1613 1614 1614 1614 1615 1616 1617 1618 1619 1620 1621 1621 1621 1621 1621 1621 1621 1621 1621 1621 1620 1620 1620 1620 1619 1619 1619 1618 1617 1617 1617 1617 1617 1617 1617 1618 1618 1618 1618 1618 1597 1581 1564 1558 0 0 0 0 0 0 0 0 0 0 0 0 0 0 0 0 0 0 0 0 0 0 0 0 0 0 0 0 0 0 0 0 0 0 0 0 0 0 0
0 0 0 0 0 0 0 0 0 0 0 0 0 0 0 0 0 0 0 0 0 0 0 0 0 0 0 0 0 0 0 0 0 0 0 0 0 0 0 0 0 0 0 0 0 0 1273 1291 1305 1310 1316 1321 1323 1325 1326 1330 1333 1336 1339 1341 1343 1345 1350 1355 1360 1362 1364 1366 1368 1371 1371 1373 1373 1374 1374 1375 1375 1375 1374 1374 1374 1374 1373 1372 1371 1369 1368 1367 1361 1344 0 0 0 0 0 0 0 0 0 0 0 1310 1305 1304 1304 1303 1303 1303 0 1318 1330 1332 1336 1354 1362 1365 1365 1366 1366 1367 1368 1369 1369 1370 1370 1370 1370 1370 1370 1370 1370 1370 1369 1368 1368 1367 1366 1365 1364 1362 1360 1358 1355 1352 1352 1352 1353 1355 1355 1355 1355 1355 1355 1354 1353 1351 1349 1347 1347 1347 1347 1350 1350 1350 1350 1350 1352 1354 1354 1354 1354 1354 1354 1354 1354 1354 1353 1353 1353 1352 1352 1352 1352 1351 1351 1350 1350 1349 1349 1349 1349 1347 1346 1346 1344 1343 1343 1341 1340 1339 1339 1339 1339 1340 1340 1340 1339 1339 1339 1339 1339 1339 1339 1339 1338 1338 1337 1336 1336 1335 1335 1335 1335 1335 1335 1335 1336 1336 1336 1336 1336 1336 1336 1336 1336 1335 1335 1335 1334 1334 1333 1332 1331 1330 1329 1328 1327 1326 1326 1325 1324 1324 1324 1323 1322 1322 1321 1321 1320 1320 1319 1318 1318 1317 1317 1317 1317 1317 1317 1317 1316 1316 1316 1316 1316 1316 1316 1316 1315 1315 1315 1315 1314 1314 1313 1313 1312 1312 1311 1311 1311 1310 1310 1310 1309 1309 1309 1309 1308 1308 1307 1307 1306 1306 1306 1306 1305 1305 1305 1305 1305 1304 1304 1304 1304 1304 1303 1303 1303 1303 1302 1302 1301 1301 1301 1301 1301 1301 1300 1300 1299 1299 1299 1298 1298 1298 1298 1298 1298 1298 1297 1297 1297 1297 1297 1297 1297 1297 1297 1297 1297 1297 1297 1297 1297 1297 1296 1295 1295 1294 1294 1293 1293 1292 1292 1292 1291 1290 1289 1289 1288 1288 1287 1287 1286 1286 1286 1286 1286 1286 1286 1286 1286 1287 1290 1296 1307 0 0 0 0 0 0 0 0 0 1341 1324 1308 1300 1290 1284 1278 1277 1274 1271 1268 1268 1268 1267 1267 1267 1267 1267 1268 1269 1269 1270 1273 1277 1283 1289 1297 1314 0 0 0 0 1536 1549 1554 1556 1557 1557 1557 1557 1557 1557 1557 1557 1557 1557 1557 1558 1558 1558 1558 1559 1559 1559 1560 1560 1561 1561 1561 1561 1561 1560 1560 1560 1560 1559 1559 1559 1558 1558 1557 1557 1557 1556 1555 1554 1552 1552 1551 1551 1551 1551 1551 1551 1551 1552 1552 1553 1554 1555 1556 1557 1559 1560 1561 1562 1564 1565 1567 1569 1570 1571 1572 1573 1574 1575 1577 1579 1581 1582 1584 1585 1587 1588 1590 1590 1591 1592 1593 1593 1593 1594 1594 1595 1596 1597 1598 1598 1599 1599 1601 1601 1602 1602 1603 1604 1604 1606 1607 1608 1609 1610 1610 1611 1611 1611 1611 1611 1612 1612 1612 1613 1613 1614 1614 1614 1615 1617 1617 1618 1619 1620 1620 1620 1620 1620 1620 1620 1620 1620 1620 1620 1620 1619 1619 1619 1619 1618 1617 1617 1617 1617 1617 1617 1616 1616 1616 1615 1615 1614 1613 1597 1581 1570 1564 0 0 0 0 0 0 0 0 0 0 0 0 0 0 0 0 0 0 0 0 0 0 0 0 0 0 0 0 0 0 0 0 0 0 0 0 0 0 0
0 0 0 0 0 0 0 0 0 0 0 0 0 0 0 0 0 0 0 0 0 0 0 0 0 0 0 0 0 0 0 0 0 0 0 0 0 0 0 0 0 0 0 0 0 0 1271 1290 1303 1310 1312 1318 1321 1322 1325 1326 1330 1332 1336 1339 1342 1344 1349 1354 1358 1361 1362 1366 1367 1370 1371 1371 1372 1373 1374 1375 1375 1375 1374 1374 1374 1374 1373 1372 1371 1370 1370 1370 1368 1367 1351 1349 1347 1346 1346 1346 1356 1356 1356 1350 1345 1341 1339 1339 1339 1341 1342 1343 1347 1350 1353 1354 1354 1358 1364 1365 1365 1366 1366 1367 1368 1369 1369 1369 1370 1370 1370 1370 1370 1370 1370 1369 1369 1369 1368 1367 1367 1366 1364 1363 1363 1363 1362 1359 1358 1358 1358 1357 1357 1357 1357 1357 1356 1356 1356 1355 1355 1352 1351 1351 1351 1353 1353 1353 1353 1353 1353 1353 1353 1353 1353 1353 1353 1354 1354 1353 1353 1353 1352 1352 1352 1352 1351 1351 1351 1350 1350 1350 1349 1349 1349 1347 1346 1346 1345 1343 1343 1342 1341 1341 1341 1341 1341 1342 1342 1342 1341 1340 1340 1340 1340 1340 1340 1340 1339 1338 1337 1336 1336 1336 1335 1335 1335 1335 1335 1335 1336 1336 1336 1336 1336 1336 1336 1336 1335 1335 1335 1334 1334 1333 1332 1332 1331 1330 1329 1328 1327 1327 1326 1326 1325 1324 1324 1324 1324 1323 1322 1322 1321 1321 1320 1319 1319 1319 1318 1318 1318 1318 1318 1317 1317 1317 1317 1317 1317 1317 1317 1316 1316 1315 1315 1315 1314 1314 1313 1313 1312 1312 1312 1311 1311 1311 1311 1311 1310 1310 1310 1309 1309 1308 1308 1308 1308 1307 1307 1306 1306 1306 1306 1306 1306 1306 1305 1305 1305 1304 1304 1304 1304 1303 1303 1303 1303 1303 1303 1303 1303 1302 1302 1301 1301 1300 1300 1299 1299 1299 1298 1298 1298 1298 1298 1298 1298 1298 1298 1298 1298 1298 1298 1299 1299 1299 1299 1299 1297 1297 1297 1297 1296 1295 1295 1294 1293 1293 1292 1292 1291 1291 1290 1289 1288 1288 1287 1287 1287 1286 1286 1286 1286 1286 1286 1286 1286 1286 1286 1291 1300 0 0 0 0 0 0 0 1339 1331 1321 1304 1295 1292 1287 1282 1278 1277 1274 1271 1268 1268 1268 1268 1268 1268 1268 1270 1270 1270 1270 1270 1274 1282 1288 1295 1311 0 0 0 0 0 1551 1554 1554 1556 1557 1557 1557 1557 1557 1557 1557 1557 1557 1557 1557 1558 1558 1558 1558 1559 1559 1560 1561 1561 1561 1561 1561 1561 1561 1560 1560 1560 1560 1560 1560 1559 1559 1558 1557 1557 1557 1556 1555 1554 1552 1552 1551 1551 1551 1551 1551 1551 1551 1552 1553 1553 1554 1555 1556 1558 1559 1560 1562 1563 1564 1566 1567 1569 1570 1571 1572 1573 1574 1576 1578 1579 1581 1582 1584 1586 1588 1588 1590 1590 1591 1592 1592 1593 1593 1594 1595 1595 1596 1597 1597 1598 1598 1599 1599 1600 1601 1602 1603 1604 1604 1604 1605 1606 1608 1608 1609 1609 1611 1611 1611 1611 1611 1612 1612 1612 1613 1613 1613 1614 1615 1616 1616 1617 1618 1619 1619 1619 1620 1620 1620 1620 1620 1620 1620 1620 1619 1619 1619 1618 1618 1617 1616 1616 1615 1615 1615 1615 1615 1615 1613 1613 1612 1612 1612 1595 1582 1576 1572 0 0 0 0 0 0 0 0 0 0 0 0 0 0 0 0 0 0 0 0 0 0 0 0 0 0 0 0 0 0 0 0 0 0 0 0 0 0 0
555 555 0 0 0 0 0 0 0 0 0 0 0 0 0 0 0 0 0 0 0 0 0 0 0 0 0 0 0 0 0 0 0 0 0 0 0 0 0 0 0 0 0 0 0 0 1264 1287 1303 1307 1312 1314 1318 1319 1322 1325 1328 1332 1335 1338 1342 1344 1349 1353 1357 1359 1362 1365 1366 1369 1371 1371 1372 1373 1374 1374 1374 1374 1374 1374 1374 1374 1373 1372 1372 1371 1371 1370 1370 1370 1370 1370 1367 1366 1364 1364 1363 1363 1362 1362 1361 1360 1359 1355 1355 1355 1358 1359 1360 1360 1361 1361 1361 1363 1364 1365 1366 1366 1367 1367 1368 1369 1369 1369 1369 1370 1370 1370 1370 1370 1369 1369 1369 1369 1368 1367 1367 1366 1365 1365 1364 1363 1363 1363 1362 1362 1361 1361 1360 1359 1359 1358 1358 1358 1358 1358 1357 1355 1354 1354 1354 1354 1354 1354 1354 1354 1354 1353 1353 1353 1353 1353 1353 1353 1353 1353 1353 1353 1352 1352 1352 1352 1351 1351 1351 1350 1350 1350 1349 1349 1349 1347 1347 1346 1345 1344 1344 1344 1344 1343 1343 1343 1343 1343 1343 1343 1342 1341 1341 1341 1341 1341 1340 1340 1339 1338 1338 1336 1336 1336 1336 1336 1336 1336 1335 1335 1335 1335 1336 1336 1336 1335 1335 1335 1335 1335 1335 1334 1333 1333 1332 1331 1331 1330 1329 1329 1328 1328 1326 1326 1325 1325 1325 1325 1325 1324 1323 1323 1323 1321 1321 1321 1320 1319 1319 1319 1319 1319 1318 1318 1318 1318 1318 1318 1318 1318 1317 1317 1317 1316 1315 1315 1315 1314 1314 1313 1313 1312 1312 1311 1311 1311 1311 1311 1311 1311 1310 1310 1309 1309 1308 1308 1308 1308 1308 1308 1307 1307 1307 1307 1307 1307 1307 1307 1306 1306 1305 1305 1305 1305 1305 1305 1305 1305 1305 1305 1304 1304 1303 1303 1301 1301 1300 1300 1300 1299 1298 1298 1298 1298 1298 1299 1299 1299 1299 1299 1299 1299 1299 1300 1300 1300 1300 1300 1298 1298 1297 1297 1297 1296 1295 1294 1294 1294 1293 1293 1291 1291 1291 1290 1289 1288 1288 1288 1287 1286 1286 1286 1286 1286 1286 1286 1286 1286 1286 1288 1296 1315 1366 1366 1366 1349 1338 1333 1325 1314 1305 1295 1288 1285 1282 1279 1277 1276 1274 1270 1269 1268 1268 1268 1268 1269 1269 1270 1270 1270 1270 1270 1275 1282 1288 1305 1335 0 0 0 0 1542 1554 1555 1555 1555 1557 1557 1557 1557 1557 1557 1557 1557 1557 1557 1557 1557 1558 1558 1558 1559 1559 1560 1561 1561 1561 1561 1561 1561 1561 1560 1560 1560 1560 1560 1560 1559 1559 1558 1558 1558 1557 1557 1556 1555 1553 1552 1552 1552 1551 1551 1551 1551 1552 1552 1553 1554 1555 1555 1557 1558 1559 1560 1562 1563 1564 1566 1568 1569 1570 1571 1572 1573 1575 1576 1578 1579 1581 1582 1584 1586 1588 1589 1590 1590 1591 1592 1592 1593 1593 1594 1595 1595 1596 1597 1597 1598 1598 1598 1599 1600 1601 1601 1602 1603 1604 1604 1605 1606 1607 1607 1608 1609 1610 1611 1611 1611 1611 1612 1612 1612 1613 1613 1613 1614 1614 1615 1616 1617 1617 1619 1619 1619 1619 1619 1620 1620 1620 1620 1619 1619 1619 1618 1618 1618 1616 1616 1616 1616 1615 1615 1614 1614 1614 1613 1612 1610 1610 1610 1610 1593 1582 1576 1576 1571 0 0 0 0 0 0 0 0 0 0 0 0 0 0 0 0 0 0 0 0 0 0 0 0 0 0 0 0 0 0 0 0 0 0 0 0 0 0
509 509 509 509 509 509 508 0 0 0 0 0 0 0 0 0 0 0 0 0 0 0 0 0 0 0 0 0 0 0 0 0 0 0 0 0 0 0 0 0 0 0 0 0 0 0 1256 1281 1301 1307 1311 1312 1314 1317 1319 1324 1327 1331 1335 1338 1341 1344 1349 1353 1355 1358 1361 1364 1366 1368 1370 1371 1372 1373 1374 1374 1374 1374 1374 1374 1374 1374 1373 1372 1372 1371 1371 1371 1371 1371 1371 1371 1369 1367 1365 1364 1364 1364 1365 1365 1366 1365 1365 1363 1363 1363 1367 1367 1367 1367 1366 1365 1364 1364 1364 1365 1367 1367 1367 1367 1368 1369 1369 1369 1369 1369 1370 1370 1370 1370 1369 1369 1369 1369 1369 1368 1367 1367 1367 1366 1365 1364 1364 1363 1363 1362 1362 1362 1361 1359 1359 1359 1359 1358 1358 1358 1358 1356 1355 1354 1354 1354 1354 1354 1354 1354 1353 1353 1353 1353 1353 1353 1353 1353 1353 1352 1352 1352 1352 1352 1352 1351 1351 1351 1351 1350 1350 1349 1349 1349 1348 1347 1347 1346 1345 1344 1344 1344 1344 1344 1344 1343 1343 1343 1343 1343 1342 1342 1342 1342 1342 1341 1341 1340 1339 1339 1338 1337 1337 1337 1336 1336 1336 1336 1335 1335 1335 1335 1335 1335 1335 1335 1335 1335 1334 1334 1334 1333 1333 1332 1332 1331 1331 1330 1329 1329 1328 1328 1328 1327 1327 1327 1327 1326 1326 1326 1325 1325 1324 1324 1322 1321 1321 1321 1321 1321 1320 1320 1320 1319 1319 1319 1319 1319 1319 1318 1318 1318 1317 1317 1316 1315 1315 1314 1314 1313 1313 1313 1313 1312 1312 1312 1312 1312 1312 1311 1310 1310 1310 1309 1309 1309 1309 1309 1308 1308 1308 1308 1308 1308 1308 1308 1308 1307 1307 1306 1305 1305 1305 1305 1305 1305 1305 1305 1305 1305 1305 1304 1303 1303 1301 1301 1300 1300 1300 1299 1299 1299 1298 1298 1298 1299 1299 1299 1299 1299 1299 1299 1300 1301 1301 1301 1301 1300 1299 1298 1297 1297 1297 1297 1296 1295 1295 1295 1294 1293 1292 1292 1291 1290 1289 1289 1288 1288 1287 1287 1286 1286 1286 1286 1286 1286 1286 1286 1286 1286 1289 1303 1336 1336 1336 1336 1321 1318 1306 1296 1293 1287 1284 1283 1280 1279 1276 1274 1273 1270 1269 1269 1268 1268 1268 1270 1270 1271 1271 1270 1270 1272 1277 1284 1294 1313 0 0 0 0 1528 1553 1554 1555 1555 1555 1556 1557 1557 1557 1557 1557 1557 1557 1557 1557 1557 1557 1558 1558 1558 1558 1559 1560 1561 1561 1562 1562 1561 1561 1561 1560 1560 1560 1560 1560 1560 1560 1559 1558 1558 1558 1558 1557 1556 1555 1554 1553 1552 1552 1552 1552 1552 1552 1552 1552 1553 1554 1555 1556 1557 1558 1560 1561 1562 1564 1565 1567 1568 1569 1570 1572 1573 1574 1575 1576 1578 1580 1581 1583 1584 1586 1588 1589 1590 1590 1591 1592 1592 1593 1593 1594 1594 1595 1596 1596 1597 1597 1597 1597 1598 1599 1600 1601 1601 1603 1603 1603 1604 1606 1607 1607 1608 1609 1610 1611 1611 1611 1611 1612 1612 1612 1613 1613 1613 1614 1614 1615 1615 1617 1617 1618 1618 1618 1619 1619 1619 1619 1619 1619 1619 1619 1618 1617 1616 1616 1616 1616 1616 1616 1615 1615 1614 1613 1612 1610 1608 1608 1608 1608 1608 1592 1582 1579 1577 1573 0 0 0 0 0 0 0 0 0 0 0 0 0 0 0 0 0 0 0 0 0 0 0 0 0 0 0 0 0 0 0 0 0 0 0 0 0 0
509 509 509 509 506 504 496 491 476 0 0 0 0 0 0 0 0 0 0 0 0 0 0 0 0 0 0 0 0 0 0 0 0 0 0 0 0 0 0 0 0 0 0 0 0 0 1255 1277 1301 1307 1310 1312 1312 1314 1318 1322 1325 1329 1333 1336 1340 1343 1349 1353 1355 1357 1361 1364 1365 1367 1369 1370 1372 1373 1373 1373 1374 1374 1374 1374 1374 1374 1373 1373 1372 1372 1372 1372 1372 1371 1371 1371 1370 1368 1367 1367 1366 1366 1366 1366 1366 1366 1366 1366 1366 1366 1367 1367 1367 1367 1366 1365 1365 1365 1365 1366 1367 1367 1367 1368 1368 1369 1369 1369 1369 1369 1369 1369 1369 1369 1369 1369 1369 1369 1369 1368 1368 1368 1367 1366 1365 1364 1364 1364 1364 1363 1362 1362 1361 1360 1359 1359 1359 1358 1358 1358 1358 1357 1356 1355 1354 1354 1354 1354 1354 1353 1353 1353 1353 1353 1352 1352 1352 1352 1352 1352 1352 1352 1352 1352 1352 1351 1351 1351 1351 1350 1350 1349 1349 1348 1348 1347 1346 1346 1345 1345 1345 1345 1345 1345 1344 1344 1344 1343 1343 1343 1343 1343 1343 1342 1342 1342 1341 1341 1341 1340 1338 1338 1337 1337 1336 1336 1336 1335 1335 1335 1335 1335 1335 1335 1335 1335 1334 1334 1334 1334 1333 1333 1332 1331 1331 1330 1330 1330 1329 1329 1329 1329 1329 1328 1328 1328 1328 1328 1328 1327 1327 1326 1325 1324 1323 1323 1323 1322 1321 1321 1321 1320 1320 1320 1320 1320 1320 1319 1319 1319 1319 1318 1318 1318 1317 1317 1316 1315 1314 1314 1313 1313 1313 1313 1312 1312 1312 1312 1312 1311 1311 1310 1310 1310 1309 1309 1309 1309 1309 1308 1308 1308 1308 1308 1308 1308 1308 1307 1307 1306 1305 1305 1305 1305 1305 1305 1305 1306 1306 1306 1306 1304 1303 1303 1301 1301 1301 1300 1300 1300 1299 1299 1299 1299 1299 1300 1300 1300 1299 1299 1299 1299 1301 1301 1301 1301 1301 1300 1299 1299 1298 1298 1298 1297 1297 1296 1296 1295 1295 1293 1292 1292 1291 1291 1290 1289 1288 1288 1288 1287 1286 1286 1286 1286 1286 1286 1286 1286 1286 1286 1287 1294 1309 1321 1321 1321 1313 1303 1292 1288 1288 1286 1284 1282 1278 1277 1274 1273 1272 1270 1270 1270 1270 1270 1271 1271 1271 1271 1271 1272 1272 1275 1282 1293 1309 1335 0 0 0 0 1549 1555 1555 1555 1555 1555 1556 1557 1557 1557 1557 1557 1557 1557 1557 1557 1557 1557 1557 1557 1558 1558 1559 1560 1561 1561 1562 1562 1561 1561 1561 1561 1561 1561 1560 1560 1560 1560 1559 1558 1558 1558 1558 1557 1556 1555 1554 1553 1553 1553 1552 1552 1552 1552 1552 1553 1554 1554 1555 1556 1558 1559 1561 1562 1563 1565 1566 1567 1569 1570 1571 1572 1573 1574 1575 1576 1578 1579 1581 1583 1584 1585 1587 1588 1590 1590 1591 1592 1592 1593 1593 1593 1594 1594 1595 1595 1596 1596 1596 1596 1598 1598 1599 1600 1601 1602 1603 1603 1604 1605 1606 1607 1608 1608 1610 1610 1611 1611 1611 1612 1612 1613 1613 1613 1613 1613 1614 1615 1615 1617 1617 1617 1617 1618 1618 1618 1619 1619 1619 1619 1619 1618 1618 1617 1616 1616 1616 1616 1616 1616 1615 1615 1614 1613 1611 1610 1608 1607 1607 1607 1600 1592 1584 1581 1579 1575 0 0 0 0 0 0 0 0 0 0 0 0 0 0 0 0 0 0 0 0 0 0 0 0 0 0 0 0 0 0 0 0 0 0 0 0 0 0
509 509 509 509 505 505 493 490 457 456 440 0 0 0 0 0 0 0 0 0 0 0 0 0 0 0 0 0 0 0 0 0 0 0 0 0 0 0 0 0 0 0 0 0 0 0 1251 1273 1293 1300 1305 1308 1309 1312 1317 1320 1324 1327 1331 1334 1337 1340 1347 1352 1353 1356 1361 1363 1365 1367 1369 1370 1371 1372 1372 1373 1374 1374 1374 1374 1374 1374 1373 1373 1373 1373 1373 1373 1373 1371 1371 1371 1371 1370 1369 1368 1368 1368 1368 1368 1368 1369 1369 1369 1368 1368 1368 1367 1367 1367 1367 1366 1366 1366 1367 1367 1367 1367 1368 1368 1368 1369 1369 1369 1369 1369 1369 1369 1369 1369 1369 1369 1369 1369 1369 1368 1368 1368 1367 1366 1365 1364 1364 1364 1364 1363 1363 1362 1361 1360 1360 1359 1359 1358 1358 1358 1358 1357 1356 1355 1354 1354 1354 1353 1353 1353 1353 1352 1351 1351 1351 1351 1351 1351 1351 1351 1351 1351 1351 1351 1351 1351 1351 1350 1350 1350 1349 1348 1348 1348 1347 1347 1346 1346 1345 1345 1345 1345 1345 1345 1344 1344 1344 1344 1344 1343 1343 1343 1343 1343 1343 1343 1342 1342 1341 1340 1339 1339 1338 1337 1336 1336 1335 1335 1335 1335 1335 1335 1335 1334 1334 1334 1333 1333 1333 1333 1332 1332 1331 1331 1331 1330 1330 1330 1330 1329 1329 1329 1329 1328 1328 1328 1328 1328 1328 1327 1327 1327 1325 1325 1324 1323 1323 1322 1321 1321 1321 1321 1321 1321 1321 1320 1320 1319 1319 1319 1319 1318 1318 1318 1318 1317 1316 1315 1315 1315 1315 1315 1314 1313 1313 1312 1312 1312 1312 1312 1312 1312 1312 1310 1309 1309 1309 1309 1309 1309 1308 1308 1308 1308 1308 1308 1308 1308 1307 1306 1305 1305 1305 1305 1305 1306 1306 1307 1307 1307 1307 1305 1304 1304 1303 1302 1301 1300 1300 1300 1300 1299 1299 1299 1300 1300 1300 1300 1299 1299 1299 1300 1301 1302 1302 1302 1301 1300 1300 1300 1301 1301 1301 1301 1300 1298 1296 1296 1295 1294 1293 1292 1292 1292 1290 1289 1289 1288 1288 1287 1286 1286 1286 1286 1286 1286 1286 1286 1286 1286 1287 1290 1299 1299 1299 1299 1295 1289 1288 1287 1286 1285 1284 1279 1278 1277 1274 1273 1272 1271 1271 1271 1271 1271 1271 1271 1271 1272 1272 1272 1277 1282 1293 1305 1321 0 0 0 0 1550 1555 1556 1556 1556 1556 1556 1556 1557 1557 1557 1557 1556 1556 1556 1556 1556 1557 1557 1557 1557 1558 1559 1559 1560 1561 1561 1561 1562 1562 1562 1561 1561 1561 1561 1561 1560 1560 1560 1559 1559 1558 1558 1558 1557 1556 1555 1554 1554 1553 1553 1553 1553 1553 1553 1553 1554 1554 1555 1556 1557 1558 1559 1561 1562 1564 1565 1567 1568 1569 1570 1571 1572 1573 1574 1575 1577 1578 1579 1581 1582 1584 1585 1586 1588 1589 1589 1591 1591 1592 1592 1593 1593 1594 1594 1594 1594 1595 1596 1596 1596 1597 1597 1598 1600 1600 1600 1601 1602 1603 1604 1606 1607 1608 1608 1610 1610 1611 1612 1612 1613 1613 1613 1613 1613 1613 1613 1614 1615 1615 1616 1616 1617 1617 1617 1617 1618 1618 1619 1619 1618 1618 1618 1617 1617 1616 1616 1616 1616 1616 1616 1615 1615 1614 1612 1611 1610 1608 1607 1606 1605 1600 1592 1585 1584 1583 1581 0 0 0 0 0 0 0 0 0 0 0 0 0 0 0 0 0 0 0 0 0 0 0 0 0 0 0 0 0 0 0 0 0 0 0 0 0 0
501 501 505 505 505 504 480 480 457 455 440 430 0 0 0 0 0 0 0 0 0 0 0 0 0 0 0 0 0 0 0 0 0 0 0 0 0 0 0 0 0 0 0 0 0 0 1241 1268 1281 1289 1297 1300 1306 1312 1316 1318 1322 1326 1329 1330 1334 1336 1344 1350 1351 1356 1361 1363 1365 1367 1369 1370 1370 1371 1372 1372 1373 1373 1373 1373 1374 1374 1373 1373 1373 1373 1373 1373 1373 1372 1371 1371 1371 1370 1369 1369 1369 1369 1369 1369 1369 1369 1369 1369 1369 1369 1368 1368 1367 1367 1367 1367 1367 1367 1367 1367 1367 1368 1368 1368 1368 1368 1369 1369 1369 1369 1369 1369 1369 1369 1369 1369 1369 1369 1369 1368 1368 1367 1366 1366 1365 1365 1364 1364 1364 1363 1363 1361 1361 1360 1360 1360 1359 1358 1358 1358 1358 1357 1356 1355 1355 1354 1354 1353 1353 1352 1352 1351 1351 1351 1351 1350 1350 1350 1350 1350 1350 1350 1350 1350 1350 1350 1350 1350 1350 1349 1348 1348 1348 1347 1347 1346 1345 1345 1345 1345 1345 1345 1344 1344 1344 1344 1344 1344 1344 1343 1343 1343 1343 1343 1343 1343 1342 1342 1341 1340 1339 1339 1338 1337 1336 1335 1335 1335 1334 1334 1334 1334 1334 1334 1333 1333 1333 1332 1332 1332 1332 1331 1330 1330 1330 1330 1330 1330 1330 1329 1329 1329 1329 1328 1328 1328 1328 1328 1328 1328 1327 1327 1325 1325 1324 1324 1323 1322 1321 1321 1321 1322 1322 1322 1322 1321 1320 1320 1320 1319 1318 1318 1318 1318 1318 1318 1316 1316 1316 1316 1316 1316 1314 1314 1314 1313 1313 1313 1313 1313 1313 1313 1313 1310 1310 1310 1310 1310 1310 1309 1308 1308 1308 1309 1309 1309 1308 1308 1307 1306 1306 1304 1304 1304 1306 1306 1306 1307 1308 1308 1308 1305 1304 1304 1303 1302 1302 1302 1303 1304 1304 1304 1300 1300 1300 1302 1302 1302 1301 1301 1301 1301 1303 1304 1304 1304 1303 1303 1302 1302 1302 1302 1302 1301 1300 1298 1297 1296 1295 1294 1294 1293 1292 1292 1291 1290 1290 1288 1288 1288 1287 1286 1286 1286 1286 1286 1286 1286 1286 1286 1286 1290 1290 1290 1290 1288 1288 1287 1287 1286 1286 1285 1282 1278 1278 1276 1274 1273 1272 1272 1272 1272 1272 1272 1272 1272 1272 1272 1273 1278 1282 1289 1300 1317 0 0 0 0 1526 1551 1556 1557 1558 1558 1558 1558 1558 1558 1558 1558 1557 1557 1556 1556 1556 1556 1557 1557 1557 1558 1558 1559 1559 1560 1561 1561 1561 1562 1562 1562 1561 1561 1561 1561 1561 1561 1561 1560 1560 1559 1558 1558 1558 1557 1556 1555 1555 1554 1554 1554 1554 1554 1553 1553 1554 1554 1555 1555 1557 1557 1558 1560 1561 1563 1565 1566 1567 1569 1570 1571 1571 1572 1573 1575 1575 1577 1578 1579 1581 1582 1584 1585 1586 1588 1588 1589 1591 1591 1591 1591 1592 1592 1593 1593 1594 1594 1595 1595 1596 1596 1597 1597 1598 1598 1599 1599 1600 1601 1603 1604 1606 1607 1608 1608 1610 1610 1611 1612 1612 1613 1613 1613 1613 1613 1613 1613 1614 1614 1615 1616 1616 1616 1617 1617 1617 1617 1617 1618 1618 1618 1618 1617 1616 1616 1616 1616 1616 1616 1616 1616 1616 1615 1615 1612 1611 1610 1608 1607 1606 1605 1600 1594 1592 1589 1587 1586 0 0 0 0 0 0 0 0 0 0 0 0 0 0 0 0 0 0 0 0 0 0 0 0 0 0 0 0 0 0 0 0 0 0 0 0 0 0
501 501 505 505 505 478 478 473 456 452 440 430 430 0 0 0 0 0 0 0 0 0 0 0 0 0 0 0 0 0 0 0 0 0 0 0 0 0 0 0 0 0 0 0 0 0 1229 1260 1271 1284 1289 1298 1301 1310 1314 1316 1320 1324 1327 1329 1330 1333 1338 1345 1351 1355 1361 1363 1365 1367 1369 1370 1370 1370 1371 1371 1371 1372 1373 1373 1373 1373 1373 1373 1373 1373 1373 1373 1373 1372 1371 1371 1371 1370 1370 1370 1370 1370 1370 1369 1369 1369 1369 1369 1369 1369 1368 1368 1367 1367 1367 1367 1367 1367 1367 1367 1367 1368 1368 1368 1368 1368 1369 1369 1369 1369 1369 1369 1369 1369 1369 1369 1368 1368 1368 1368 1368 1367 1366 1366 1365 1365 1364 1364 1363 1363 1362 1361 1361 1360 1360 1360 1359 1358 1358 1358 1358 1357 1356 1355 1355 1353 1353 1353 1352 1351 1350 1350 1350 1350 1350 1349 1349 1349 1349 1349 1349 1349 1349 1349 1349 1349 1349 1348 1348 1348 1348 1347 1347 1346 1346 1346 1345 1345 1344 1344 1344 1344 1344 1344 1344 1344 1344 1344 1344 1343 1343 1343 1343 1343 1343 1343 1342 1342 1341 1340 1339 1339 1338 1336 1335 1335 1334 1334 1334 1333 1333 1332 1332 1332 1332 1332 1332 1331 1331 1330 1330 1329 1329 1329 1329 1329 1329 1330 1330 1329 1329 1329 1328 1327 1327 1327 1327 1328 1328 1328 1327 1327 1326 1326 1325 1324 1323 1322 1321 1321 1321 1322 1322 1322 1322 1321 1321 1321 1320 1319 1318 1318 1318 1318 1318 1318 1317 1317 1317 1317 1317 1317 1316 1314 1314 1314 1313 1313 1313 1313 1313 1313 1313 1310 1310 1310 1311 1311 1311 1309 1308 1308 1308 1309 1310 1310 1310 1309 1307 1306 1306 1304 1304 1304 1306 1307 1307 1310 1311 1311 1311 1308 1308 1307 1306 1306 1306 1306 1307 1308 1308 1308 1305 1304 1304 1304 1305 1305 1306 1306 1306 1306 1307 1308 1308 1308 1307 1307 1306 1306 1306 1304 1303 1303 1300 1300 1298 1297 1296 1295 1294 1294 1293 1292 1292 1291 1290 1290 1289 1288 1287 1287 1287 1287 1286 1286 1286 1286 1286 1286 1286 1289 1289 1289 1288 1288 1287 1287 1286 1286 1285 1281 1279 1278 1277 1276 1274 1273 1273 1273 1273 1273 1273 1273 1273 1273 1273 1276 1278 1282 1286 1297 1310 1333 0 0 0 1516 1544 1552 1556 1557 1558 1559 1559 1559 1559 1559 1558 1558 1557 1557 1556 1556 1556 1556 1557 1557 1557 1558 1558 1559 1560 1561 1561 1561 1561 1562 1562 1562 1561 1561 1561 1561 1561 1561 1561 1560 1560 1559 1559 1558 1558 1557 1556 1555 1555 1555 1555 1555 1555 1555 1555 1555 1555 1555 1555 1556 1557 1558 1560 1560 1562 1564 1565 1566 1568 1570 1570 1571 1572 1572 1573 1575 1576 1577 1578 1580 1581 1583 1584 1585 1586 1587 1588 1589 1590 1590 1591 1591 1591 1592 1593 1593 1593 1594 1595 1595 1595 1595 1596 1597 1597 1597 1598 1598 1599 1601 1602 1604 1606 1607 1608 1609 1610 1610 1611 1612 1613 1614 1614 1614 1614 1613 1613 1614 1614 1614 1615 1615 1616 1616 1616 1616 1616 1617 1617 1617 1617 1617 1616 1616 1616 1616 1616 1616 1616 1616 1616 1616 1616 1616 1615 1613 1612 1611 1609 1607 1606 1604 1602 1600 1596 1595 1593 1588 0 0 0 0 0 0 0 0 0 0 0 0 0 0 0 0 0 0 0 0 0 0 0 0 0 0 0 0 0 0 0 0 0 0 0 0 0 0
497 497 497 497 474 459 459 456 456 455 453 453 455 0 0 0 0 0 0 0 0 0 0 0 0 0 0 0 0 0 0 0 0 0 0 0 0 0 0 0 0 0 0 0 0 0 1229 1253 1265 1274 1281 1291 1294 1304 1309 1313 1316 1319 1322 1325 1327 1329 1333 1341 1348 1355 1361 1363 1365 1367 1369 1370 1370 1370 1370 1371 1371 1372 1373 1373 1373 1373 1373 1373 1373 1373 1373 1373 1373 1372 1371 1370 1369 1369 1369 1369 1370 1370 1370 1369 1369 1369 1369 1369 1369 1369 1368 1367 1367 1367 1367 1367 1367 1367 1367 1367 1367 1368 1368 1368 1368 1368 1368 1368 1368 1368 1368 1368 1368 1368 1368 1368 1368 1368 1368 1368 1367 1366 1366 1366 1365 1365 1364 1364 1363 1363 1362 1361 1361 1360 1360 1359 1358 1358 1358 1358 1358 1356 1356 1355 1355 1353 1352 1351 1351 1350 1350 1349 1349 1349 1349 1349 1348 1348 1348 1348 1348 1348 1348 1347 1347 1347 1347 1347 1347 1346 1346 1345 1345 1345 1345 1344 1343 1343 1343 1343 1343 1343 1344 1344 1344 1344 1344 1344 1343 1343 1343 1343 1343 1343 1343 1343 1342 1341 1341 1340 1339 1339 1337 1336 1334 1334 1333 1333 1332 1332 1331 1331 1331 1330 1330 1330 1330 1330 1329 1329 1328 1328 1328 1328 1327 1327 1327 1327 1327 1329 1329 1329 1328 1327 1327 1327 1327 1328 1328 1328 1328 1328 1328 1328 1326 1325 1325 1324 1323 1322 1322 1322 1322 1322 1322 1322 1321 1321 1321 1319 1319 1319 1319 1319 1319 1319 1319 1319 1319 1321 1321 1321 1317 1316 1315 1315 1314 1314 1314 1315 1315 1315 1313 1312 1312 1312 1313 1313 1313 1311 1310 1310 1310 1313 1317 1317 1317 1317 1310 1309 1307 1307 1307 1307 1308 1309 1310 1315 1316 1316 1316 1316 1316 1315 1314 1314 1314 1314 1313 1313 1313 1310 1310 1310 1308 1308 1309 1308 1308 1309 1313 1316 1316 1316 1315 1313 1313 1313 1317 1317 1317 1317 1307 1304 1302 1300 1299 1298 1297 1296 1295 1295 1293 1292 1292 1291 1291 1290 1289 1288 1288 1288 1287 1287 1287 1286 1286 1286 1286 1286 1287 1288 1288 1288 1288 1287 1286 1285 1285 1283 1283 1281 1279 1278 1277 1276 1274 1274 1274 1274 1275 1275 1275 1275 1275 1276 1276 1278 1284 1286 1293 1301 1313 0 0 0 0 1553 1557 1557 1557 1559 1559 1559 1559 1559 1559 1559 1558 1558 1557 1556 1556 1556 1556 1556 1557 1557 1557 1558 1558 1559 1560 1561 1561 1561 1561 1562 1562 1562 1561 1561 1561 1561 1561 1561 1561 1560 1560 1559 1559 1559 1558 1557 1557 1556 1556 1556 1556 1556 1556 1556 1556 1556 1556 1556 1557 1557 1558 1560 1561 1562 1563 1564 1565 1567 1569 1570 1571 1571 1572 1573 1574 1575 1576 1577 1578 1580 1581 1582 1583 1585 1586 1587 1588 1589 1590 1590 1590 1590 1591 1592 1592 1592 1593 1594 1594 1594 1595 1595 1596 1597 1597 1597 1597 1598 1599 1601 1602 1604 1607 1607 1609 1609 1610 1611 1611 1612 1613 1614 1614 1614 1614 1613 1613 1614 1614 1614 1614 1615 1615 1616 1616 1616 1616 1616 1616 1616 1616 1616 1616 1616 1615 1615 1615 1616 1616 1616 1616 1616 1616 1616 1615 1613 1612 1611 1609 1605 1604 1604 1604 1602 1601 1598 1595 1588 0 0 0 0 0 0 0 0 0 0 0 0 0 0 0 0 0 0 0 0 0 0 0 0 0 0 0 0 0 0 0 0 0 0 0 0 0 0
0 0 478 478 468 456 456 447 456 456 454 454 456 484 0 0 0 0 0 0 0 0 0 0 0 0 0 0 0 0 0 0 0 0 0 0 0 0 0 0 0 0 0 0 0 0 0 1250 1263 1265 1272 1285 1293 1296 1301 1306 1310 1314 1318 1320 1322 1324 1328 1335 1345 1355 1361 1363 1365 1367 1368 1368 1368 1369 1369 1370 1370 1371 1372 1372 1373 1373 1373 1372 1372 1372 1372 1372 1372 1372 1371 1370 1369 1369 1369 1369 1370 1370 1370 1369 1369 1369 1369 1369 1369 1369 1367 1367 1367 1367 1366 1366 1366 1366 1367 1367 1367 1367 1367 1367 1367 1367 1367 1368 1368 1368 1368 1367 1367 1367 1367 1367 1367 1367 1367 1367 1366 1366 1365 1365 1364 1364 1364 1363 1362 1361 1360 1360 1360 1359 1359 1358 1358 1358 1357 1357 1356 1355 1354 1354 1354 1353 1352 1350 1349 1349 1349 1349 1349 1349 1349 1348 1347 1346 1346 1346 1346 1346 1345 1345 1345 1345 1345 1345 1345 1345 1345 1344 1344 1344 1344 1344 1343 1342 1342 1342 1342 1343 1343 1343 1344 1344 1344 1344 1343 1343 1343 1343 1343 1343 1343 1343 1342 1341 1340 1339 1338 1337 1337 1335 1334 1333 1333 1332 1331 1331 1330 1329 1328 1328 1328 1328 1327 1327 1327 1327 1327 1327 1326 1326 1325 1325 1325 1327 1327 1328 1328 1328 1328 1327 1327 1327 1327 1328 1328 1328 1328 1329 1332 1332 1332 1329 1327 1324 1323 1323 1323 1323 1323 1322 1322 1323 1322 1322 1322 1322 1322 1322 1322 1321 1321 1322 1322 1324 1326 1326 1326 1323 1322 1320 1317 1317 1317 1318 1320 1320 1320 1320 1317 1317 1317 1317 1318 1318 1318 1311 1311 1311 1312 1317 1322 1325 1325 1325 1325 1315 1315 1315 1315 1315 1315 1315 1315 1318 1326 1326 1328 1329 1328 1328 1328 1321 1321 1321 1326 1326 1326 1327 1328 1333 1336 1336 1336 1330 1330 1330 1330 1334 0 0 0 0 0 0 0 0 0 1331 1331 1304 1302 1300 1300 1298 1298 1297 1297 1296 1295 1294 1292 1292 1291 1291 1290 1289 1288 1288 1287 1287 1287 1286 1286 1286 1286 1286 1287 1288 1288 1288 1287 1287 1287 1286 1286 1283 1283 1281 1279 1278 1277 1276 1275 1275 1275 1276 1279 1280 1280 1280 1279 1279 1279 1283 1288 1290 1298 1312 0 0 0 0 1535 1557 1557 1558 1558 1559 1559 1559 1559 1559 1559 1559 1558 1557 1557 1556 1556 1556 1556 1556 1556 1556 1557 1558 1558 1559 1560 1561 1561 1561 1561 1562 1562 1562 1562 1561 1561 1561 1561 1561 1561 1561 1561 1560 1559 1559 1558 1558 1557 1556 1556 1556 1557 1557 1557 1557 1558 1558 1558 1558 1558 1558 1558 1560 1561 1562 1564 1566 1566 1569 1570 1571 1572 1572 1573 1573 1575 1576 1576 1578 1578 1580 1581 1582 1583 1584 1586 1586 1587 1589 1589 1589 1589 1590 1590 1591 1592 1592 1593 1594 1594 1594 1595 1595 1596 1597 1597 1597 1597 1598 1599 1601 1602 1605 1607 1608 1609 1609 1610 1611 1611 1612 1613 1614 1614 1614 1614 1613 1613 1614 1614 1614 1614 1614 1615 1615 1615 1616 1615 1616 1615 1615 1615 1615 1615 1615 1615 1615 1615 1616 1616 1616 1616 1616 1616 1616 1615 1613 1612 1611 1609 1605 1604 1604 1604 1604 1602 1598 1595 1588 0 0 0 0 0 0 0 0 0 0 0 0 0 0 0 0 0 0 0 0 0 0 0 0 0 0 0 0 0 0 0 0 0 0 0 0 0 0
445 445 460 460 460 440 440 440 442 446 461 462 468 484 511 0 0 0 0 0 0 0 0 0 0 0 0 0 0 0 0 0 0 0 0 0 0 0 0 0 0 0 0 0 0 0 0 1244 1255 1263 1266 1281 1290 1293 1296 1301 1306 1310 1314 1317 1318 1321 1324 1332 1342 1352 1358 1362 1365 1365 1366 1366 1366 1367 1368 1369 1369 1370 1371 1372 1372 1372 1372 1372 1372 1372 1372 1371 1371 1371 1371 1369 1369 1369 1369 1369 1369 1369 1369 1369 1369 1369 1368 1368 1368 1368 1367 1367 1366 1366 1366 1366 1366 1366 1366 1366 1366 1366 1365 1365 1365 1365 1366 1367 1367 1367 1367 1367 1366 1366 1366 1366 1366 1366 1366 1366 1365 1365 1364 1364 1364 1363 1363 1363 1362 1360 1359 1358 1358 1358 1358 1358 1357 1357 1357 1356 1355 1354 1354 1353 1352 1351 1350 1349 1349 1348 1347 1347 1348 1347 1347 1346 1345 1344 1344 1344 1344 1344 1344 1343 1343 1343 1344 1344 1344 1344 1343 1343 1343 1343 1343 1343 1343 1341 1341 1341 1341 1342 1342 1342 1342 1343 1342 1342 1342 1341 1341 1341 1341 1342 1342 1342 1342 1341 1339 1337 1337 1337 1336 1335 1334 1333 1333 1332 1330 1329 1328 1328 1328 1328 1328 1328 1327 1326 1325 1325 1325 1325 1325 1324 1323 1323 1323 1327 1327 1328 1330 1330 1331 1335 1335 1335 1333 1332 1330 1330 1330 1330 1334 1336 1336 1336 1333 1327 1326 1326 1325 1325 1324 1323 1323 1324 1325 1325 1328 1331 1332 1332 1332 1331 1331 1331 1335 1337 1338 1338 1338 1333 1328 1322 1322 1322 1327 1331 1335 1335 1335 1334 1334 1334 1334 1337 1341 1350 1350 1350 0 0 0 0 0 0 0 1349 1349 1349 1350 1356 1356 1356 1346 1339 0 0 0 0 0 0 0 0 0 0 0 0 0 0 0 0 0 0 0 0 0 0 0 0 0 0 0 0 0 0 0 0 0 0 0 1400 1368 1330 1317 1307 1301 1300 1300 1300 1299 1297 1296 1294 1293 1293 1292 1291 1291 1289 1289 1288 1287 1287 1287 1286 1286 1286 1286 1286 1287 1288 1288 1288 1287 1287 1287 1286 1286 1283 1283 1282 1281 1280 1278 1278 1277 1277 1277 1279 1281 1282 1282 1282 1282 1282 1282 1286 1292 1303 1318 1346 0 0 0 0 1557 1557 1558 1558 1558 1559 1559 1559 1559 1559 1558 1558 1558 1557 1556 1556 1555 1555 1555 1555 1556 1556 1557 1558 1559 1559 1561 1561 1561 1562 1562 1562 1562 1562 1562 1562 1561 1561 1561 1561 1561 1561 1561 1560 1560 1559 1559 1559 1558 1557 1557 1557 1557 1558 1558 1558 1558 1559 1559 1559 1559 1559 1559 1561 1562 1563 1564 1567 1568 1569 1572 1572 1573 1573 1575 1575 1576 1576 1577 1578 1579 1580 1581 1582 1583 1584 1585 1586 1587 1588 1588 1588 1589 1589 1590 1591 1591 1592 1593 1594 1594 1594 1595 1595 1596 1597 1597 1598 1598 1598 1599 1601 1603 1605 1607 1608 1609 1610 1610 1611 1611 1612 1613 1614 1614 1614 1613 1613 1613 1613 1614 1614 1614 1614 1615 1615 1615 1615 1615 1615 1615 1614 1614 1614 1614 1614 1614 1614 1614 1614 1614 1615 1616 1616 1616 1616 1613 1613 1612 1611 1608 1605 1603 1603 1603 1602 1601 1598 1593 1586 1561 0 0 0 0 0 0 0 0 0 0 0 0 0 0 0 0 0 0 0 0 0 0 0 0 0 0 0 0 0 0 0 0 0 0 0 0 0
445 445 458 458 458 437 434 434 434 445 464 467 477 484 511 0 0 0 0 0 0 0 0 0 0 0 0 0 0 0 0 0 0 0 0 0 0 0 0 0 0 0 0 0 0 0 0 1242 1252 1255 1264 1279 1287 1289 1291 1294 1297 1302 1307 1311 1313 1318 1321 1330 1340 1349 1356 1360 1362 1364 1364 1364 1364 1365 1366 1367 1368 1370 1370 1370 1371 1371 1371 1371 1371 1370 1370 1370 1370 1370 1370 1369 1369 1369 1369 1369 1369 1369 1369 1369 1368 1367 1367 1367 1367 1367 1367 1367 1366 1366 1366 1366 1366 1365 1365 1365 1365 1365 1364 1364 1364 1365 1366 1367 1367 1367 1367 1367 1366 1365 1365 1365 1365 1365 1365 1365 1364 1364 1364 1364 1364 1363 1362 1362 1360 1359 1358 1357 1357 1357 1357 1357 1356 1356 1354 1354 1353 1352 1352 1350 1350 1349 1349 1348 1347 1347 1347 1345 1345 1344 1342 1342 1342 1341 1341 1341 1341 1341 1341 1341 1341 1341 1342 1342 1343 1342 1342 1342 1342 1342 1342 1342 1341 1340 1340 1340 1340 1341 1341 1342 1342 1342 1342 1340 1340 1340 1340 1340 1340 1340 1341 1341 1341 1339 1338 1337 1337 1336 1336 1335 1334 1333 1332 1332 1329 1329 1327 1326 1326 1326 1326 1326 1326 1325 1324 1322 1322 1322 1320 1320 1320 1320 1321 1323 1328 1328 1330 1333 1336 1337 1339 1339 1339 1339 1338 1338 1338 1342 1347 1347 1347 1344 1339 1339 1339 1338 1338 1332 1331 1331 1332 1332 1335 1337 1339 1342 1342 1342 1340 1340 1340 1347 1353 1353 1353 1353 1354 0 0 0 0 0 0 0 0 0 0 0 0 0 0 0 0 0 0 0 0 0 0 0 0 0 0 0 0 0 0 0 0 0 0 0 0 0 0 0 0 0 0 0 0 0 0 0 0 0 0 0 0 0 0 0 0 0 0 0 0 0 0 0 0 0 0 0 0 0 0 0 1368 1342 1329 1316 1313 1312 1305 1301 1301 1300 1299 1297 1295 1294 1293 1291 1291 1290 1289 1289 1288 1288 1288 1288 1287 1286 1286 1286 1287 1288 1288 1288 1287 1287 1287 1286 1286 1285 1283 1282 1281 1281 1281 1280 1280 1280 1280 1282 1284 1284 1284 1283 1283 1283 1286 1294 1307 1323 1349 0 0 0 0 1548 1557 1557 1557 1557 1557 1558 1558 1558 1558 1558 1558 1558 1557 1557 1556 1556 1555 1555 1555 1555 1555 1556 1557 1558 1559 1560 1561 1561 1561 1562 1562 1562 1562 1562 1562 1562 1562 1561 1561 1561 1561 1561 1561 1560 1560 1560 1560 1560 1559 1559 1559 1559 1559 1560 1560 1560 1560 1560 1561 1561 1561 1561 1561 1563 1564 1564 1566 1568 1569 1572 1572 1572 1574 1575 1575 1576 1576 1577 1577 1578 1579 1580 1581 1582 1583 1584 1585 1586 1586 1587 1587 1588 1589 1589 1589 1590 1591 1592 1593 1594 1594 1595 1595 1596 1597 1598 1598 1599 1600 1600 1601 1602 1603 1606 1607 1608 1609 1610 1610 1611 1611 1612 1613 1613 1613 1613 1613 1613 1613 1613 1614 1614 1614 1614 1614 1614 1614 1614 1614 1614 1613 1613 1613 1613 1613 1613 1613 1612 1612 1612 1612 1614 1615 1615 1615 1614 1612 1611 1611 1610 1608 1605 1603 1603 1603 1602 1601 1595 1593 1581 1555 0 0 0 0 0 0 0 0 0 0 0 0 0 0 0 0 0 0 0 0 0 0 0 0 0 0 0 0 0 0 0 0 0 0 0 0 0
445 445 454 454 454 436 434 434 434 445 466 467 473 479 481 0 0 0 0 0 0 0 0 0 0 0 0 0 0 0 0 0 0 0 0 0 0 0 0 0 0 0 0 0 0 0 0 1239 1248 1252 1263 1276 1284 1287 1288 1291 1294 1299 1302 1305 1308 1310 1318 1330 1340 1349 1355 1358 1360 1360 1361 1361 1361 1362 1363 1365 1367 1368 1368 1368 1368 1369 1369 1369 1369 1369 1369 1369 1369 1369 1369 1369 1368 1368 1368 1368 1368 1368 1368 1367 1367 1366 1366 1366 1366 1366 1365 1365 1365 1365 1365 1365 1365 1365 1365 1365 1364 1364 1364 1364 1364 1364 1365 1365 1365 1365 1365 1365 1365 1365 1365 1365 1365 1365 1365 1364 1364 1364 1363 1363 1363 1361 1360 1357 1357 1357 1355 1354 1354 1354 1355 1355 1355 1353 1352 1351 1350 1349 1349 1348 1348 1347 1346 1346 1345 1343 1343 1342 1342 1340 1340 1340 1337 1337 1337 1337 1337 1338 1338 1339 1339 1340 1340 1341 1341 1341 1341 1341 1341 1341 1341 1341 1339 1339 1339 1339 1339 1339 1340 1340 1340 1340 1340 1339 1339 1338 1338 1338 1338 1338 1338 1339 1339 1339 1338 1337 1337 1336 1336 1335 1334 1332 1331 1330 1329 1327 1326 1326 1326 1326 1326 1325 1325 1324 1322 1319 1316 1316 1316 1318 1318 1319 1321 1323 1335 1342 1342 1342 1341 1341 1341 1341 1341 1343 1343 1343 1352 1356 1359 1359 1359 1354 1354 0 0 0 0 0 0 0 0 0 0 0 0 0 0 0 0 0 0 0 0 0 0 0 0 0 0 0 0 0 0 0 0 0 0 0 0 0 0 0 0 0 0 0 0 0 0 0 0 0 0 0 0 0 0 0 0 0 0 0 0 0 0 0 0 0 0 0 0 0 0 0 0 0 0 0 0 0 0 0 1549 1549 1549 1549 1549 1559 1559 1559 1556 1552 1548 1542 0 0 0 0 1368 1342 1329 1316 1314 1312 1306 1302 1302 1301 1301 1300 1298 1296 1294 1292 1291 1291 1290 1290 1289 1288 1288 1288 1287 1287 1287 1287 1287 1288 1288 1288 1287 1287 1287 1287 1286 1286 1285 1282 1282 1282 1281 1281 1282 1282 1282 1283 1286 1286 1286 1285 1285 1285 1295 1308 1325 1350 1375 0 0 0 1529 1558 1558 1558 1556 1556 1556 1557 1558 1558 1558 1558 1558 1558 1557 1557 1556 1556 1555 1555 1555 1555 1555 1556 1557 1558 1559 1561 1561 1561 1562 1562 1563 1563 1563 1563 1563 1562 1562 1562 1562 1562 1562 1562 1562 1561 1561 1561 1561 1561 1562 1562 1562 1561 1562 1562 1562 1562 1562 1562 1562 1563 1563 1563 1563 1565 1565 1565 1566 1568 1571 1572 1574 1574 1575 1576 1576 1576 1577 1577 1578 1578 1579 1580 1581 1582 1583 1583 1584 1585 1586 1587 1587 1588 1588 1588 1589 1590 1591 1592 1593 1594 1594 1596 1596 1598 1598 1598 1599 1601 1601 1603 1603 1603 1605 1606 1607 1609 1609 1610 1610 1611 1611 1612 1612 1612 1613 1613 1613 1613 1613 1613 1613 1613 1613 1613 1613 1613 1613 1613 1613 1613 1612 1612 1612 1612 1612 1612 1611 1610 1610 1610 1611 1614 1614 1614 1614 1613 1611 1611 1611 1610 1607 1606 1603 1602 1601 1600 1598 1587 1574 1565 1536 0 0 0 0 0 0 0 0 0 0 0 0 0 0 0 0 0 0 0 0 0 0 0 0 0 0 0 0 0 0 0 0 0 0 0 0 0
462 462 459 459 445 436 434 434 434 445 469 473 473 476 479 488 0 0 0 0 0 0 0 0 0 0 0 0 0 0 0 0 0 0 0 0 0 0 0 0 0 0 1076 1094 1135 1159 1205 1239 1247 1252 1263 1276 1282 1284 1287 1289 1291 1295 1298 1303 1305 1308 1313 1328 1340 1349 1355 1357 1359 1359 1359 1359 1360 1360 1361 1363 1365 1366 1366 1367 1367 1367 1368 1368 1368 1368 1367 1367 1367 1367 1367 1367 1367 1367 1368 1368 1368 1368 1367 1365 1365 1365 1365 1365 1365 1364 1364 1364 1364 1364 1365 1365 1365 1365 1365 1364 1364 1364 1363 1363 1363 1364 1364 1364 1362 1362 1362 1363 1363 1363 1363 1363 1363 1363 1363 1362 1362 1363 1363 1363 1363 1359 1357 1354 1352 1351 1351 1351 1351 1352 1354 1354 1354 1351 1349 1347 1347 1347 1346 1346 1346 1345 1345 1345 1344 1343 1342 1338 1337 1336 1336 1335 1335 1334 1334 1334 1334 1336 1337 1337 1338 1339 1340 1340 1340 1340 1340 1340 1340 1340 1340 1338 1337 1336 1336 1336 1338 1338 1338 1338 1338 1336 1336 1336 1337 1338 1338 1338 1338 1338 1338 1339 1339 1339 1338 1337 1337 1337 1337 1337 1336 1332 1328 1325 1324 1324 1323 1323 1323 1323 1323 1322 1318 1312 1311 1311 1310 1309 1309 1308 1309 1309 1310 1320 1335 1342 1371 1371 0 0 0 0 0 0 0 0 0 0 0 0 0 0 0 0 0 0 0 0 0 0 0 0 0 0 0 0 0 0 0 0 0 0 0 0 0 0 0 0 0 0 0 0 0 0 0 0 0 0 0 0 0 0 0 0 0 0 0 0 0 1632 1626 1625 0 0 0 0 0 0 0 1593 1598 1598 1598 1598 1597 1593 1587 1583 1583 1583 1585 1588 1588 1588 1588 1587 1586 1586 1586 1584 1584 1581 1578 1577 1568 1568 1568 1572 1572 1572 1567 1562 1559 1548 1542 0 0 0 1359 1342 1329 1322 1315 1313 1306 1304 1302 1301 1301 1301 1298 1296 1294 1292 1292 1292 1291 1291 1290 1289 1289 1288 1288 1287 1287 1287 1287 1288 1288 1288 1288 1288 1288 1288 1288 1288 1288 1287 1286 1286 1285 1285 1285 1285 1288 1288 1288 1287 1287 1287 1288 1300 1317 1334 1353 1378 0 0 0 0 1552 1558 1558 1558 1556 1556 1556 1557 1558 1558 1558 1558 1558 1557 1557 1556 1556 1555 1555 1555 1555 1555 1555 1557 1557 1558 1559 1561 1562 1562 1562 1562 1563 1563 1563 1563 1563 1563 1562 1562 1562 1563 1563 1563 1563 1563 1563 1563 1563 1564 1564 1565 1565 1566 1566 1566 1565 1565 1565 1565 1565 1565 1566 1566 1567 1567 1568 1568 1569 1570 1572 1574 1576 1576 1576 1577 1577 1578 1578 1578 1579 1579 1580 1580 1581 1582 1583 1583 1584 1585 1586 1587 1587 1588 1588 1588 1589 1590 1590 1592 1593 1594 1595 1596 1598 1598 1599 1600 1601 1603 1604 1605 1605 1605 1606 1607 1609 1609 1610 1611 1611 1611 1611 1612 1612 1612 1613 1613 1613 1613 1613 1613 1613 1613 1613 1613 1613 1613 1613 1612 1612 1612 1611 1611 1610 1610 1610 1610 1610 1609 1609 1609 1610 1612 1613 1613 1613 1612 1611 1610 1610 1609 1607 1606 1603 1602 1601 1597 1592 1587 1574 1559 1525 0 0 0 0 0 0 0 0 0 0 0 0 0 0 0 0 0 0 0 0 0 0 0 0 0 0 0 0 0 0 0 0 0 0 0 0 0
463 463 446 446 436 434 433 433 433 449 469 470 470 471 471 478 0 0 0 0 0 0 0 0 0 0 0 0 0 0 0 0 0 0 0 0 0 0 0 0 0 1091 1093 1113 1135 1159 1202 1228 1235 1248 1263 1276 1282 1283 1284 1287 1288 1290 1295 1300 1304 1306 1311 1325 1340 1349 1353 1355 1356 1357 1357 1357 1358 1358 1359 1361 1362 1364 1365 1366 1366 1367 1367 1367 1367 1366 1365 1364 1364 1364 1364 1364 1364 1365 1365 1366 1366 1366 1363 1363 1363 1363 1363 1363 1363 1363 1363 1363 1363 1364 1364 1365 1365 1365 1365 1364 1364 1363 1363 1363 1363 1361 1360 1360 1360 1360 1362 1362 1362 1363 1362 1362 1362 1362 1362 1362 1362 1363 1363 1363 1363 1356 1354 1353 1350 1348 1347 1347 1347 1349 1350 1350 1350 1348 1346 1345 1344 1344 1344 1343 1343 1343 1343 1343 1343 1343 1341 1335 1333 1331 1330 1327 1327 1327 1327 1328 1333 1334 1334 1334 1334 1334 1336 1338 1338 1338 1338 1337 1336 1336 1336 1335 1333 1333 1333 1334 1334 1337 1337 1337 1336 1335 1335 1336 1337 1338 1338 1338 1337 1337 1337 1339 1339 1340 1344 1344 1344 1343 1341 1338 1336 1332 1324 1319 1319 1318 1318 1315 1315 1314 1313 1310 1305 1302 1297 1297 1297 1297 1297 1297 1297 1298 1301 1316 1335 1342 0 0 0 0 0 0 0 0 0 0 0 0 0 0 0 0 0 0 0 0 0 0 0 0 0 0 0 0 0 0 0 0 0 0 0 0 0 0 0 0 0 0 0 0 0 0 0 0 0 0 1703 1703 1703 1701 1696 1692 1690 1685 1682 1677 1667 1655 1646 1642 1642 1642 1646 1646 1646 1637 1626 1617 1616 1613 1612 1612 1612 1612 1612 1610 1606 1599 1598 1596 1595 1594 1593 1591 1591 1591 1590 1590 1590 1590 1590 1584 1582 1582 1580 1578 1577 1577 1576 1576 1573 1569 1562 1557 1543 0 0 0 1359 1342 1329 1322 1316 1313 1306 1305 1304 1304 1303 1302 1299 1296 1294 1294 1294 1293 1293 1292 1291 1290 1289 1289 1288 1287 1287 1287 1287 1288 1288 1288 1288 1288 1289 1290 1291 1292 1292 1292 1291 1291 1289 1289 1289 1294 1298 1305 1305 1306 1309 1322 0 0 0 0 0 0 0 0 0 1552 1557 1557 1557 1556 1556 1556 1556 1557 1558 1558 1558 1558 1558 1557 1557 1556 1555 1555 1555 1555 1555 1555 1556 1558 1558 1558 1560 1562 1563 1563 1563 1563 1564 1564 1564 1564 1564 1563 1563 1563 1563 1563 1564 1565 1565 1565 1565 1566 1566 1566 1566 1567 1568 1568 1568 1568 1568 1568 1569 1569 1569 1569 1569 1569 1569 1569 1570 1571 1571 1572 1574 1576 1577 1578 1578 1578 1578 1578 1578 1578 1579 1579 1580 1581 1581 1582 1583 1583 1584 1585 1586 1587 1587 1588 1589 1589 1590 1590 1590 1592 1595 1597 1597 1598 1599 1600 1600 1602 1603 1604 1605 1606 1607 1607 1608 1608 1610 1611 1611 1611 1611 1611 1612 1612 1612 1612 1613 1613 1613 1612 1612 1612 1612 1612 1612 1612 1612 1612 1612 1612 1612 1611 1611 1610 1610 1609 1609 1609 1609 1608 1608 1608 1609 1610 1610 1610 1610 1610 1610 1610 1609 1608 1607 1606 1603 1602 1601 1597 1592 1587 1574 1554 1525 0 0 0 0 0 0 0 0 0 0 0 0 0 0 0 0 0 0 0 0 0 0 0 0 0 0 0 0 0 0 0 0 0 0 0 0 0
447 447 432 432 432 432 432 433 438 457 469 470 470 470 462 462 0 0 0 0 0 0 0 0 0 0 0 0 0 0 0 0 0 0 0 0 0 0 0 0 0 1091 1095 1113 1135 1152 1170 1203 1222 1243 1266 1277 1282 1282 1284 1285 1286 1289 1292 1299 1303 1304 1308 1322 1338 1348 1349 1352 1353 1355 1355 1356 1356 1357 1357 1358 1359 1361 1363 1364 1364 1365 1366 1366 1366 1364 1362 1362 1362 1363 1363 1363 1363 1363 1363 1363 1363 1362 1359 1359 1359 1359 1360 1360 1360 1361 1361 1361 1362 1363 1363 1363 1363 1363 1364 1363 1363 1362 1361 1361 1360 1360 1358 1358 1358 1358 1362 1362 1362 1360 1360 1360 1360 1361 1361 1361 1361 1360 1360 1359 1357 1353 1352 1350 1349 1348 1345 1344 1344 1343 1343 1343 1343 1343 1343 1343 1343 1343 1342 1339 1335 1335 1335 1335 1335 1335 1335 1335 1330 1327 1325 1324 1324 1324 1325 1325 1331 1331 1331 1320 1320 1320 1323 1325 1329 1329 1329 1329 1329 1328 1328 1328 1328 1328 1328 1328 1332 1333 1335 1335 1336 1335 1335 1336 1337 1340 1340 1340 1336 1334 1334 1336 1336 1339 1344 1344 1344 1343 1341 1338 1336 1329 1322 1309 1308 1307 1307 1305 1302 1301 1301 1293 1290 1288 1288 1287 1270 1268 1267 1267 1267 1267 1273 1279 0 0 0 0 0 0 0 0 0 0 0 0 0 0 0 0 0 0 0 0 0 0 0 0 0 0 0 0 0 0 0 0 0 0 0 0 0 0 0 0 0 0 0 1751 1751 1751 1751 1751 1742 1741 1732 1732 1726 1719 1712 1705 1702 1697 1693 1689 1688 1678 1668 1664 1660 1653 1651 1650 1649 1649 1646 1640 1633 1625 1621 1621 1616 1616 1615 1615 1614 1612 1608 1605 1602 1598 1596 1594 1593 1593 1593 1592 1591 1591 1591 1591 1591 1589 1586 1586 1584 1583 1581 1580 1578 1576 1574 1572 1568 1564 1547 0 0 0 1359 1342 1329 1322 1319 1313 1306 1305 1305 1305 1305 1302 1299 1297 1296 1295 1294 1294 1293 1292 1291 1290 1290 1289 1288 1287 1287 1287 1287 1288 1288 1288 1288 1288 1292 1293 1294 1294 1294 1294 1294 1296 1297 1299 1304 1308 1313 1322 0 0 0 0 0 0 0 0 0 0 0 0 1553 1556 1556 1556 1556 1555 1555 1556 1556 1558 1558 1558 1558 1558 1557 1557 1557 1555 1555 1555 1555 1555 1555 1555 1557 1558 1558 1559 1560 1562 1563 1564 1564 1564 1564 1565 1565 1565 1565 1565 1565 1565 1565 1566 1566 1566 1567 1567 1568 1568 1568 1569 1569 1569 1570 1571 1571 1571 1571 1572 1573 1573 1573 1573 1572 1571 1571 1571 1572 1574 1574 1574 1576 1578 1579 1579 1579 1579 1579 1579 1579 1579 1580 1580 1580 1581 1582 1582 1583 1583 1584 1585 1586 1587 1587 1588 1589 1589 1590 1590 1590 1594 1597 1598 1599 1599 1600 1600 1601 1602 1605 1606 1607 1607 1608 1609 1609 1610 1611 1611 1612 1612 1612 1612 1612 1612 1612 1612 1612 1612 1612 1612 1612 1612 1612 1611 1611 1611 1611 1611 1611 1611 1611 1611 1611 1610 1609 1609 1609 1609 1608 1608 1608 1608 1608 1608 1608 1608 1607 1607 1607 1607 1606 1606 1604 1603 1603 1601 1598 1594 1592 1589 1576 1554 1525 0 0 0 0 0 0 0 0 0 0 0 0 0 0 0 0 0 0 0 0 0 0 0 0 0 0 0 0 0 0 0 0 0 0 0 0 0
