2121 2121 2152 2152 2185 2232 2282 2299 2321 2348 2374 2407 2433 2452 2465 2469 2495 2514 2522 2531 2542 2561 2586 2610 2621 2622 2622 2621 2618 2617 2615 2614 2613 2613 2609 2607 2606 2606 2593 2587 2575 2550 2530 2520 2515 2514 2510 2503 2487 2474 2462 2451 2442 2426 2422 2418 2416 2416 2414 2411 2403 2396 2386 2379 2378 2377 2377 2377 2379 2379 2379 2379 2377 2372 2372 2372 2376 2377 2377 2377 2371 2367 2367 2367 2368 2369 2370 2370 2371 2373 2379 2387 2390 2390 2390 2390 2390 2390 2391 2393 2393 2393 2392 2391 2390 2390 2390 2391 2394 2397 2397 2398 2399 2400 2403 2407 2410 2412 2412 2413 2414 2415 2417 2417 2419 2420 2422 2424 2427 2428 2429 2431 2433 2436 2438 2441 2443 2446 2447 2449 2451 2452 2454 2456 2460 2466 2471 2474 2475 2477 2477 2480 2483 2485 2486 2489 2489 2491 2491 2496 2501 2505 2509 2513 2520 2525 2525 2525 2525 2523 2523 2522 2523 2523 2523 2526 2530 2533 2538 2539 2539 2539 2539 2536 2533 2533 2533 2535 2536 2536 2536 2535 2535 2535 2539 2542 2544 2547 2552 2560 2570 2576 2577 2579 2579 2583 2586 2590 2596 2603 2609 2616 2624 2629 2634 2636 2640 2644 2647 2649 2650 2653 2657 2657 2657 2656 2656 2656 2656 2657 2657 2658 2665 2671 2677 2679 2679 2679 2680 2684 2688 2689 2691 2691 2692 2692 2692 2692 2691 2690 2686 2682 2677 2672 2666 2658 2648 2638 2630 2623 2610 2602 2602 2596 2594 2594 2562 0 0 0 0 0 0 0 0 0 0 0 0 2892 3287 3429 3453 3466 3478 3480 3484 3488 3488 3488 3488 3487 3485 3484 3483 3473 3466 3464 3444 3400 3315 3250 2898 0 0 0 0 1695 1690 1690 1690 1689 1687 1672 1658 1649 1640 1619 0 0 1447 1411 1391 1384 1379 1377 1373 1369 1367 1364 1360 1354 1346 1340 1329 1313 1294 1284 1280 1274 1269 1268 1268 1268 1268 1268 1263 1258 1255 1255 1255 1258 1258 1266 1273 1276 1276 1276 1276 1275 1273 1271 1269 1267 1265 1265 1264 1261 1257 1252 1250 1249 1249 1244 1239 1233 1229 1225 1216 1209 1194 1183 1174 1172 1172 1171 1170 1169 1167 1165 1163 1162 1161 1161 1161 1157 1157 1157 1158 1160 1163 1164 1165 1165 1166 1167 1167 1167 1165 1163 1160 1155 1153 1151 1149 1146 1145 1143 1141 1139 1138 1137 1136 1134 1132 1130 1128 1126 1126 1117 1114 1111 1110 1105 1105 1104 1104 1101 1099 1096 1094 1091 1087 1085 1083 1083 1083 1083 1083 1082 1081 1080 1080 1079 1077 1077 1075 1074 1073 1071 1069 1065 1064 1060 1054 1048 1041 1038 1038 1038 1038 1036 1034 1034 1033 1032 1031 1031 1029 1028 1027 1027 1026 1025 1025 1025 1023 1020 1019 1019 1019 1019 1019 1019 1018 1016 1015 1013 1012 1011 1009 1008 1008 1006 1006 1004 1003 1002 1001 999 998 997 996 995 993 992 991 990 988 987 986 985 984 983 982 981 980 979 978 977 976 975 974 973 972 971 970 970 969 968 967 966 966 965 964 964 964 964 964 965 965 966 967 968 973 979 994 1009 0 0 0 0 1420 1434 1436 1439 1439 1439 1440 1440 1440 1439 1439 1438 1437 1437 1436 1436 1436 1435 1435 1435 1435 1435 1435 1436 1436 1436 1435 1435 1434 1434 1433 1433 1432 1432 1432 1431 1430 1430 1430 1429 1428 1427 1427 1425 1424 1423 1423 1422 1420 1417 1414 1412 1411 1408 1406 1406 1404 1401 1399 1397 1396 1395 1395 1393 1390 1388 1388 1388 1385 1383 1379 1373 1373 1373 1373 0 0 0
2129 2129 2155 2156 2186 2232 2282 2303 2321 2348 2379 2414 2446 2466 2482 2515 2518 2534 2537 2545 2557 2582 2607 2611 2621 2622 2622 2621 2618 2617 2615 2614 2613 2613 2607 2604 2593 2569 2561 2555 2542 2520 2493 2475 2475 2471 2470 2465 2456 2440 2429 2427 2423 2416 2413 2410 2407 2407 2406 2395 2391 2388 2376 2368 2368 2368 2368 2368 2369 2369 2369 2369 2365 2364 2364 2364 2367 2370 2370 2370 2366 2362 2362 2362 2364 2365 2366 2366 2368 2371 2377 2382 2384 2385 2386 2386 2386 2387 2389 2389 2389 2389 2389 2388 2387 2387 2387 2387 2391 2394 2396 2397 2398 2400 2402 2406 2409 2410 2411 2411 2414 2415 2416 2416 2419 2420 2422 2424 2426 2428 2430 2432 2434 2437 2439 2442 2445 2446 2447 2449 2450 2450 2451 2453 2457 2462 2467 2471 2473 2474 2476 2477 2480 2481 2484 2487 2489 2490 2491 2492 2496 2500 2505 2511 2517 2520 2520 2520 2519 2519 2518 2518 2519 2520 2522 2526 2529 2532 2534 2534 2534 2534 2531 2530 2530 2530 2532 2535 2536 2537 2537 2537 2538 2538 2542 2546 2551 2552 2556 2566 2574 2578 2581 2583 2585 2585 2588 2594 2599 2605 2610 2615 2621 2626 2629 2631 2633 2640 2645 2646 2647 2650 2651 2651 2651 2652 2652 2651 2651 2652 2653 2653 2659 2665 2670 2673 2674 2675 2678 2681 2686 2689 2690 2691 2692 2693 2694 2694 2694 2691 2690 2683 2677 2672 2662 2657 2647 2638 2630 2623 2609 2586 2586 2585 2581 2581 2552 0 0 0 0 0 0 0 0 0 0 0 0 2900 3287 3429 3445 3454 3466 3480 3484 3488 3488 3488 3486 3486 3482 3481 3477 3464 3464 3459 3444 3400 3315 3267 2910 0 0 0 0 1695 1692 1692 1690 1689 1686 1672 1664 1653 1637 1612 0 0 1444 1406 1391 1384 1379 1377 1373 1369 1366 1363 1360 1354 1346 1339 1329 1314 1294 1284 1280 1280 1280 1276 1276 1276 1274 1274 1268 1263 1263 1263 1263 1263 1264 1266 1272 1275 1275 1275 1275 1273 1271 1267 1264 1263 1263 1262 1262 1257 1253 1249 1244 1242 1240 1238 1235 1230 1227 1220 1216 1209 1201 1199 1195 1192 1188 1184 1181 1178 1176 1174 1172 1169 1168 1168 1167 1166 1164 1163 1163 1163 1163 1164 1164 1164 1164 1164 1164 1163 1161 1159 1156 1148 1144 1143 1142 1140 1134 1129 1129 1129 1127 1126 1123 1121 1121 1121 1121 1118 1115 1112 1112 1111 1110 1107 1107 1106 1106 1103 1101 1098 1097 1095 1091 1088 1087 1087 1086 1086 1086 1085 1085 1084 1083 1082 1080 1079 1077 1076 1073 1071 1069 1065 1062 1059 1053 1041 1035 1035 1035 1035 1035 1034 1031 1030 1030 1029 1029 1027 1025 1024 1024 1024 1024 1021 1021 1019 1017 1017 1017 1017 1018 1018 1018 1018 1018 1017 1016 1014 1014 1012 1011 1010 1009 1008 1007 1005 1004 1003 1001 1000 999 999 997 996 994 993 992 990 988 988 986 985 984 983 982 981 980 979 978 977 976 975 974 973 971 971 970 969 968 967 967 966 965 964 964 964 964 963 963 964 965 966 967 968 972 979 994 1009 0 0 0 0 1420 1434 1436 1438 1439 1439 1440 1440 1440 1440 1439 1439 1438 1438 1437 1436 1436 1436 1436 1436 1435 1435 1436 1436 1436 1436 1435 1435 1434 1434 1433 1433 1432 1432 1432 1431 1430 1430 1429 1429 1427 1427 1426 1425 1423 1423 1422 1421 1419 1416 1414 1411 1410 1408 1406 1404 1402 1401 1399 1397 1395 1394 1392 1390 1388 1387 1386 1386 1384 1382 1379 1376 1376 1376 1376 0 0 0
2134 2134 2159 2160 2193 2232 2282 2303 2320 2348 2379 2414 2446 2466 2509 2527 2532 2540 2547 2554 2567 2582 2607 2611 2621 2622 2622 2621 2618 2617 2614 2605 2590 2588 2581 2564 2537 2512 2510 2505 2486 2476 2458 2430 2421 2420 2420 2418 2415 2411 2408 2407 2407 2405 2401 2399 2396 2393 2393 2383 2381 2378 2370 2362 2361 2358 2358 2358 2358 2358 2358 2357 2352 2352 2352 2355 2356 2359 2359 2359 2359 2359 2359 2360 2363 2363 2363 2364 2366 2368 2374 2378 2379 2379 2380 2380 2381 2383 2386 2386 2386 2385 2385 2385 2385 2385 2385 2385 2388 2391 2394 2395 2396 2398 2400 2402 2406 2407 2408 2408 2410 2413 2415 2416 2418 2420 2422 2424 2426 2428 2431 2434 2437 2437 2439 2442 2445 2446 2447 2448 2448 2448 2450 2451 2455 2458 2464 2468 2470 2472 2474 2475 2476 2478 2481 2484 2486 2486 2486 2488 2489 2495 2502 2508 2511 2512 2512 2512 2512 2512 2513 2513 2513 2518 2521 2524 2525 2526 2527 2527 2527 2527 2526 2526 2526 2529 2532 2535 2536 2537 2538 2540 2542 2542 2546 2552 2557 2561 2566 2569 2574 2580 2584 2585 2585 2585 2588 2594 2600 2605 2610 2614 2617 2620 2624 2627 2629 2635 2638 2639 2643 2646 2646 2646 2646 2646 2647 2647 2647 2648 2648 2648 2653 2656 2661 2665 2668 2671 2674 2678 2684 2689 2690 2691 2692 2693 2694 2694 2694 2691 2690 2685 2677 2672 2661 2655 2647 2639 2632 2623 2609 2585 2580 2580 2568 2568 2536 2503 0 0 0 0 0 0 0 0 0 0 0 2905 3293 3428 3442 3454 3466 3480 3484 3488 3488 3488 3483 3481 3481 3479 3475 3463 3447 3446 3425 3384 3315 3267 2910 0 0 0 0 1705 1697 1695 1694 1693 1686 1673 1668 1657 1636 1606 0 0 1442 1406 1390 1382 1379 1377 1373 1369 1366 1363 1360 1354 1347 1340 1330 1315 1294 1289 1289 1289 1291 1291 1291 1286 1279 1275 1268 1264 1264 1264 1264 1269 1272 1274 1274 1275 1275 1275 1272 1270 1269 1265 1261 1260 1260 1259 1255 1252 1251 1247 1242 1237 1232 1228 1226 1221 1219 1213 1211 1209 1205 1201 1201 1201 1199 1192 1189 1189 1188 1188 1183 1179 1177 1176 1176 1175 1175 1168 1165 1165 1165 1164 1164 1164 1163 1157 1157 1156 1154 1151 1145 1136 1134 1132 1131 1131 1129 1124 1122 1122 1120 1117 1114 1110 1110 1110 1110 1110 1111 1111 1111 1111 1111 1110 1110 1109 1107 1105 1103 1100 1099 1097 1095 1093 1091 1091 1090 1088 1087 1087 1086 1086 1084 1083 1082 1081 1080 1078 1075 1072 1069 1064 1060 1056 1050 1037 1032 1032 1032 1032 1032 1032 1030 1029 1027 1023 1021 1021 1021 1021 1021 1021 1019 1018 1017 1016 1016 1016 1016 1016 1018 1018 1018 1018 1018 1018 1017 1016 1014 1014 1012 1012 1010 1010 1007 1007 1005 1004 1003 1002 1001 1000 998 997 995 994 992 990 989 988 987 986 985 983 982 981 980 979 978 977 976 975 974 972 971 970 969 969 968 967 966 965 965 964 963 963 963 963 963 963 963 966 967 967 972 979 994 1008 0 0 0 0 1415 1434 1436 1437 1438 1439 1440 1440 1440 1440 1439 1439 1438 1438 1437 1437 1436 1436 1436 1436 1436 1436 1436 1436 1436 1436 1435 1435 1434 1433 1433 1433 1432 1432 1431 1431 1430 1430 1429 1428 1427 1426 1426 1424 1423 1422 1421 1420 1418 1415 1413 1411 1410 1407 1405 1403 1402 1400 1398 1396 1393 1392 1391 1389 1387 1386 1385 1384 1384 1382 1379 1376 1376 1376 1376 0 0 0
2134 2134 2159 2160 2193 2227 2279 2300 2317 2343 2379 2414 2446 2466 2509 2527 2532 2540 2547 2554 2567 2582 2606 2606 2607 2606 2604 2600 2589 2585 2585 2554 2523 2516 2506 2498 2482 2472 2464 2446 2428 2421 2412 2404 2404 2404 2404 2404 2403 2399 2393 2390 2386 2385 2380 2379 2378 2375 2372 2371 2369 2367 2358 2354 2353 2352 2351 2351 2351 2346 2346 2345 2345 2344 2344 2344 2346 2348 2349 2349 2349 2349 2350 2357 2360 2360 2361 2361 2363 2365 2371 2375 2375 2375 2375 2375 2377 2379 2379 2381 2381 2381 2381 2381 2380 2380 2380 2383 2385 2388 2390 2392 2393 2395 2396 2399 2401 2403 2404 2405 2406 2409 2413 2416 2418 2420 2422 2424 2426 2428 2432 2435 2437 2439 2439 2442 2445 2445 2446 2446 2447 2448 2449 2450 2453 2458 2462 2465 2469 2470 2471 2471 2472 2474 2477 2479 2479 2479 2479 2482 2487 2492 2498 2502 2503 2503 2504 2505 2507 2508 2509 2509 2511 2516 2518 2520 2520 2521 2521 2521 2522 2522 2523 2523 2523 2528 2532 2533 2535 2537 2538 2542 2544 2547 2549 2554 2560 2565 2569 2574 2579 2584 2585 2585 2585 2585 2588 2594 2600 2605 2610 2612 2614 2617 2621 2622 2626 2628 2629 2633 2637 2641 2641 2641 2641 2641 2642 2642 2642 2642 2642 2642 2644 2647 2652 2657 2661 2664 2668 2673 2681 2688 2690 2691 2691 2693 2694 2694 2694 2691 2690 2685 2676 2669 2660 2653 2646 2639 2632 2623 2608 2584 2573 2572 2564 2558 2528 2512 0 0 0 0 0 0 0 0 0 0 0 2950 3293 3424 3440 3454 3466 3479 3480 3481 3481 3481 3477 3477 3475 3474 3474 3463 3447 3446 3423 3375 3321 3275 2963 0 0 0 0 1706 1703 1703 1697 1696 1689 1676 1668 1657 1636 1598 0 0 1438 1406 1388 1380 1379 1378 1374 1368 1366 1362 1359 1354 1347 1340 1331 1319 1308 1305 1301 1301 1301 1301 1301 1301 1290 1285 1282 1278 1275 1275 1275 1274 1275 1275 1275 1272 1272 1265 1262 1261 1261 1260 1255 1252 1248 1245 1241 1241 1240 1239 1236 1227 1223 1218 1213 1212 1211 1211 1209 1209 1206 1205 1202 1202 1201 1198 1193 1193 1192 1191 1187 1183 1182 1182 1181 1181 1180 1175 1173 1170 1170 1168 1168 1164 1159 1147 1142 1140 1138 1135 1130 1125 1121 1120 1119 1118 1116 1111 1110 1107 1105 1105 1104 1104 1104 1104 1105 1107 1108 1111 1111 1112 1112 1112 1112 1111 1109 1108 1105 1103 1102 1099 1098 1097 1096 1094 1093 1091 1090 1089 1088 1087 1084 1084 1083 1082 1080 1079 1075 1072 1068 1064 1059 1055 1050 1036 1030 1027 1027 1027 1027 1027 1027 1024 1022 1018 1015 1015 1015 1015 1015 1015 1015 1015 1014 1013 1013 1013 1015 1016 1018 1018 1018 1018 1018 1018 1017 1017 1016 1015 1013 1012 1011 1010 1008 1008 1006 1005 1004 1003 1001 1000 999 998 996 995 992 991 990 988 987 986 985 983 982 981 980 979 978 976 976 974 973 972 970 970 969 968 968 966 966 965 964 964 963 963 963 963 963 963 963 965 965 968 972 980 995 1008 0 0 0 0 1412 1428 1433 1436 1438 1439 1440 1440 1440 1440 1440 1439 1439 1439 1438 1437 1437 1436 1436 1436 1436 1436 1436 1436 1436 1436 1435 1435 1434 1433 1433 1433 1432 1431 1431 1431 1430 1430 1429 1428 1426 1426 1425 1424 1423 1421 1421 1419 1417 1415 1413 1410 1409 1406 1404 1402 1400 1399 1396 1394 1393 1392 1389 1388 1386 1386 1384 1383 1382 1381 1379 1376 1376 1376 1376 0 0 0
2134 2134 2155 2156 2186 2222 2278 2299 2311 2340 2373 2399 2424 2451 2509 2527 2532 2540 2547 2554 2566 2566 2566 2546 2546 2545 2532 2502 0 0 0 0 0 0 0 0 2422 2422 2416 2397 2393 2392 2391 2391 2386 2372 2372 2372 2372 2371 2372 2371 2370 2369 2365 2362 2361 2361 2361 2361 2361 2355 2348 2346 2345 2345 2345 2344 2340 2337 2337 2337 2336 2336 2336 2336 2336 2336 2337 2337 2338 2339 2342 2352 2355 2356 2357 2357 2360 2363 2367 2370 2371 2372 2372 2373 2374 2376 2376 2377 2377 2377 2377 2377 2377 2377 2378 2379 2382 2384 2385 2387 2389 2391 2394 2396 2398 2400 2400 2402 2404 2406 2410 2414 2416 2420 2422 2423 2425 2429 2433 2435 2437 2439 2439 2441 2442 2443 2445 2445 2447 2448 2449 2449 2453 2457 2461 2464 2465 2467 2468 2469 2470 2472 2474 2475 2475 2476 2476 2480 2484 2490 2493 2495 2495 2496 2496 2499 2503 2506 2506 2508 2510 2514 2514 2514 2514 2514 2514 2515 2517 2518 2519 2520 2523 2526 2531 2531 2533 2535 2538 2542 2545 2547 2549 2554 2560 2566 2570 2576 2582 2584 2585 2585 2585 2585 2587 2593 2600 2605 2609 2612 2613 2614 2616 2620 2623 2626 2626 2629 2635 2635 2635 2635 2635 2635 2634 2634 2634 2634 2634 2637 2639 2641 2646 2650 2655 2659 2664 2670 2679 2686 2688 2688 2689 2688 2689 2690 2690 2689 2689 2685 2676 2669 2659 2649 2646 2639 2632 2622 2606 2574 2570 2567 2560 2554 2522 2514 0 0 0 0 0 0 0 0 0 0 0 2950 3293 3424 3438 3448 3465 3475 3479 3479 3479 3478 3474 3474 3474 3474 3474 3463 3447 3446 3423 3375 3322 3293 3021 0 0 0 0 1707 1704 1704 1697 1696 1690 1681 1668 1657 1630 1592 0 0 1438 1406 1388 1380 1379 1378 1374 1369 1365 1362 1359 1356 1349 1341 1333 1325 1316 1311 1311 1309 1308 1305 1305 1302 1299 1295 1294 1291 1287 1285 1281 1279 1277 1277 1275 1273 1261 1249 1246 1246 1245 1245 1245 1243 1240 1234 1230 1228 1228 1227 1223 1214 1208 1206 1205 1206 1207 1207 1207 1207 1207 1206 1206 1205 1204 1202 1198 1195 1194 1191 1190 1188 1186 1185 1183 1182 1180 1179 1178 1177 1175 1172 1169 1164 1159 1141 1131 1127 1122 1117 1113 1112 1112 1111 1110 1110 1110 1107 1105 1103 1097 1097 1096 1096 1097 1099 1104 1104 1108 1111 1112 1112 1112 1112 1112 1112 1110 1108 1107 1106 1103 1101 1100 1099 1098 1096 1094 1093 1092 1091 1090 1088 1085 1084 1083 1082 1080 1079 1075 1072 1068 1062 1056 1052 1047 1036 1029 1026 1026 1026 1025 1025 1025 1021 1017 1013 1011 1011 1011 1011 1012 1012 1012 1011 1011 1011 1011 1012 1014 1015 1016 1017 1018 1018 1018 1018 1018 1018 1017 1015 1015 1013 1012 1011 1009 1008 1006 1006 1004 1003 1002 1001 1000 999 997 995 994 992 991 989 987 986 985 983 982 981 980 979 978 976 976 974 973 972 970 970 969 968 967 966 965 964 964 963 963 962 962 962 962 962 962 964 965 968 969 980 995 1006 0 0 0 0 1412 1428 1432 1434 1436 1439 1440 1440 1440 1440 1440 1440 1440 1439 1438 1438 1437 1436 1436 1436 1437 1437 1437 1436 1436 1436 1435 1435 1434 1433 1433 1433 1432 1432 1432 1431 1430 1430 1429 1428 1426 1426 1425 1423 1422 1421 1419 1417 1416 1414 1412 1410 1408 1405 1402 1401 1399 1397 1396 1394 1392 1391 1389 1388 1386 1386 1384 1383 1382 1381 1379 1378 1377 1376 1371 0 0 0
0 0 0 0 0 0 0 0 0 0 0 0 0 0 0 0 0 0 0 0 0 0 0 0 0 0 0 0 0 0 0 0 0 0 2374 2374 2374 2374 2374 2367 2367 2367 2366 2366 2366 2348 2348 2348 2348 2348 2350 2351 2351 2351 2350 2350 2350 2350 2351 2351 2350 2344 2336 2336 2336 2336 2336 2332 2327 2326 2326 2326 2326 2327 2330 2330 2330 2330 2330 2330 2331 2333 2339 2343 2348 2351 2353 2354 2358 2359 2363 2365 2367 2367 2368 2370 2371 2373 2373 2373 2374 2374 2374 2374 2375 2375 2375 2377 2380 2380 2380 2381 2384 2388 2391 2394 2396 2397 2398 2400 2401 2405 2408 2413 2416 2418 2422 2423 2425 2430 2434 2435 2437 2439 2439 2440 2442 2442 2442 2443 2445 2446 2447 2448 2451 2454 2457 2460 2462 2464 2466 2467 2468 2470 2472 2472 2472 2472 2473 2477 2481 2484 2488 2490 2490 2491 2492 2496 2501 2506 2506 2507 2508 2510 2510 2510 2509 2509 2509 2510 2512 2514 2518 2519 2522 2525 2528 2530 2532 2535 2538 2542 2545 2547 2550 2554 2560 2566 2570 2576 2582 2584 2584 2584 2584 2584 2587 2592 2600 2605 2608 2609 2610 2611 2613 2616 2619 2621 2622 2625 2629 2629 2629 2629 2628 2627 2625 2627 2627 2627 2629 2632 2634 2636 2642 2646 2653 2658 2663 2669 2677 2680 2682 2682 2684 2684 2684 2684 2684 2683 2683 2679 2675 2669 2656 2646 2638 2629 2620 2612 2597 2573 2570 2560 2560 2548 2521 2514 0 0 0 0 0 0 0 0 0 0 0 2950 3293 3422 3438 3452 3465 3475 3479 3479 3479 3477 3474 3474 3474 3472 3472 3463 3457 3452 3423 3375 3323 3297 3046 2513 0 0 0 1708 1705 1705 1699 1698 1691 1688 1671 1653 1625 1589 0 0 1433 1406 1387 1379 1378 1378 1374 1369 1365 1362 1358 1356 1350 1343 1335 1329 1321 1318 1318 1317 1317 1313 1306 1304 1301 1299 1297 1297 1294 1292 1289 1284 1282 1279 1278 1275 1257 1233 1233 1233 1231 1231 1231 1225 1220 1217 1217 1210 1207 1205 1204 1200 1194 1190 1190 1190 1197 1207 1207 1208 1208 1208 1207 1206 1205 1204 1201 1200 1198 1195 1192 1191 1189 1188 1185 1183 1182 1181 1179 1177 1176 1172 1169 1164 1157 1141 1131 1127 1122 1116 1109 1106 1105 1105 1104 1103 1103 1102 1100 1096 1096 1095 1095 1096 1097 1099 1103 1103 1107 1111 1112 1113 1113 1113 1113 1112 1111 1109 1107 1106 1104 1103 1101 1100 1098 1096 1095 1094 1093 1092 1090 1088 1086 1085 1083 1082 1081 1079 1074 1071 1067 1062 1055 1048 1043 1036 1029 1025 1024 1024 1023 1022 1018 1016 1015 1013 1011 1009 1009 1009 1009 1009 1009 1009 1009 1009 1009 1010 1011 1012 1012 1015 1017 1018 1018 1018 1018 1018 1017 1015 1015 1013 1012 1011 1010 1008 1007 1006 1005 1003 1002 1001 1000 999 997 996 994 992 991 989 987 986 985 983 982 981 980 978 977 976 975 974 972 971 970 969 968 967 967 965 965 964 963 963 962 962 962 961 961 961 962 963 963 966 969 980 995 1005 0 0 0 0 1412 1428 1432 1434 1436 1439 1440 1440 1440 1440 1440 1440 1440 1439 1439 1438 1438 1437 1437 1437 1437 1437 1437 1436 1436 1436 1435 1435 1434 1433 1433 1433 1432 1432 1432 1431 1430 1430 1429 1428 1426 1426 1424 1423 1421 1420 1418 1416 1415 1414 1411 1408 1406 1404 1402 1401 1399 1397 1395 1394 1392 1390 1389 1387 1386 1386 1384 1383 1382 1381 1379 1378 1377 1376 1371 0 0 0
0 0 0 0 0 0 0 0 0 0 0 0 0 0 0 0 0 0 0 0 0 0 0 0 0 0 0 0 0 0 0 0 2318 2327 2332 2337 2337 2337 2337 2337 2338 2346 2346 2346 2342 2331 2329 2328 2326 2326 2326 2327 2333 2340 2342 2342 2342 2339 2339 2338 2333 2322 2322 2322 2323 2323 2323 2316 2311 2311 2311 2314 2316 2319 2323 2324 2324 2325 2325 2328 2330 2332 2333 2338 2344 2346 2349 2352 2355 2357 2359 2360 2362 2363 2364 2366 2369 2370 2370 2370 2372 2372 2372 2372 2372 2372 2372 2374 2376 2377 2377 2378 2381 2384 2388 2391 2393 2395 2396 2398 2401 2405 2408 2410 2412 2415 2418 2421 2424 2430 2434 2435 2435 2437 2437 2439 2440 2441 2442 2442 2443 2443 2444 2446 2448 2451 2454 2455 2458 2462 2465 2467 2468 2469 2469 2469 2469 2469 2470 2473 2475 2477 2480 2483 2486 2488 2491 2495 2501 2504 2505 2505 2507 2507 2507 2507 2504 2504 2504 2505 2508 2511 2516 2518 2520 2523 2525 2528 2532 2535 2538 2542 2545 2547 2550 2554 2559 2566 2570 2576 2582 2582 2582 2581 2581 2581 2587 2592 2598 2604 2608 2608 2608 2609 2610 2613 2616 2616 2618 2620 2623 2623 2623 2622 2620 2619 2619 2619 2620 2624 2627 2629 2631 2633 2635 2640 2647 2655 2662 2669 2674 2675 2675 2676 2679 2679 2679 2679 2679 2679 2679 2677 2672 2663 2651 2640 2628 2615 2606 2599 2586 2566 2565 2559 2556 2547 2519 2514 0 0 0 0 0 0 0 0 0 0 0 2950 3296 3422 3440 3459 3465 3475 3479 3479 3479 3476 3473 3471 3470 3470 3468 3463 3459 3452 3430 3386 3335 3310 3096 2594 0 0 0 1717 1709 1709 1705 1705 1694 1688 1673 1648 1623 1581 0 0 1432 1404 1387 1379 1378 1377 1374 1369 1364 1361 1358 1356 1350 1345 1340 1334 1328 1324 1322 1320 1319 1314 1311 1309 1307 1304 1299 1298 1297 1294 1291 1289 1287 1283 1278 1274 1257 1224 1216 1216 1216 1216 1216 1205 1199 1195 1191 1189 1189 1189 1190 1190 1190 1187 1187 1187 1197 1207 1208 1210 1211 1211 1211 1210 1208 1208 1206 1203 1200 1197 1195 1193 1191 1190 1188 1186 1185 1183 1181 1178 1176 1172 1168 1163 1156 1141 1131 1127 1122 1114 1108 1102 1101 1100 1100 1100 1099 1097 1094 1094 1094 1095 1095 1096 1097 1098 1101 1102 1107 1111 1113 1113 1113 1113 1113 1112 1111 1109 1109 1107 1105 1104 1103 1101 1099 1098 1096 1095 1093 1092 1091 1089 1087 1085 1084 1082 1080 1077 1074 1071 1067 1062 1053 1047 1041 1035 1028 1025 1024 1023 1022 1019 1017 1015 1014 1012 1011 1009 1008 1007 1007 1006 1006 1006 1007 1007 1008 1009 1010 1011 1011 1014 1017 1018 1018 1018 1018 1018 1017 1016 1015 1014 1012 1011 1010 1009 1007 1006 1005 1004 1002 1001 1000 999 997 996 994 992 991 989 987 986 985 983 982 981 979 978 976 975 974 973 972 970 969 969 967 966 966 965 964 963 963 962 962 962 961 961 961 961 961 961 963 965 970 977 986 998 0 0 0 0 0 1431 1432 1434 1436 1439 1440 1441 1441 1441 1441 1441 1441 1440 1440 1439 1438 1438 1438 1438 1438 1437 1437 1437 1436 1436 1435 1435 1435 1434 1434 1433 1432 1432 1432 1431 1430 1430 1429 1428 1427 1426 1424 1423 1421 1420 1418 1415 1414 1413 1410 1408 1406 1404 1402 1400 1399 1397 1395 1393 1392 1390 1389 1387 1387 1386 1385 1384 1384 1381 1379 1378 1377 1376 1371 0 0 0
0 0 0 0 0 0 0 0 0 0 0 0 0 0 0 0 0 0 0 0 0 0 2208 2221 2231 2241 2241 2246 2246 2247 2248 2262 2282 2288 2297 2300 2302 2302 2309 2316 2316 2316 2315 2309 2309 2309 2311 2311 2311 2308 2308 2308 2311 2320 2324 2324 2324 2320 2316 2313 2305 2305 2305 2305 2306 2306 2306 2301 2300 2300 2300 2305 2308 2309 2309 2309 2310 2311 2317 2319 2323 2326 2329 2333 2336 2342 2346 2348 2351 2353 2356 2357 2357 2359 2360 2362 2364 2366 2366 2366 2367 2369 2369 2369 2369 2369 2369 2371 2374 2375 2375 2376 2378 2380 2383 2386 2389 2391 2392 2395 2399 2404 2407 2408 2408 2412 2414 2418 2424 2430 2432 2433 2433 2433 2435 2437 2439 2440 2440 2441 2441 2442 2442 2446 2448 2450 2451 2453 2457 2461 2464 2466 2466 2466 2466 2465 2465 2465 2468 2469 2470 2472 2473 2476 2481 2486 2489 2494 2498 2501 2502 2505 2505 2505 2505 2505 2502 2500 2500 2500 2503 2508 2513 2516 2517 2519 2522 2526 2531 2536 2539 2542 2545 2547 2550 2554 2558 2564 2568 2574 2577 2578 2578 2578 2579 2581 2585 2590 2596 2602 2605 2605 2605 2606 2608 2612 2612 2612 2612 2612 2612 2614 2614 2614 2614 2614 2616 2617 2617 2618 2620 2623 2626 2626 2627 2628 2635 2647 2656 2663 2668 2669 2670 2670 2672 2672 2673 2673 2673 2675 2675 2675 2671 2661 2649 2635 2623 2615 2603 2591 2580 2565 2562 2558 2556 2546 2513 0 0 0 0 0 0 0 0 0 0 0 0 2950 3296 3422 3440 3459 3465 3473 3479 3479 3479 3475 3471 3467 3465 3463 3460 3459 3459 3452 3435 3402 3356 3324 3172 2770 0 0 0 1721 1711 1711 1711 1711 1699 1697 1677 1645 1618 1576 0 0 1430 1403 1386 1379 1378 1376 1373 1368 1364 1361 1358 1355 1350 1345 1341 1335 1329 1326 1324 1322 1321 1315 1313 1311 1308 1305 1302 1300 1298 1295 1293 1292 1288 1286 1278 1274 1253 1218 1207 1206 1205 1203 1202 1198 1193 1190 1187 1183 1183 1183 1186 1186 1186 1186 1186 1186 1197 1206 1209 1211 1212 1212 1212 1211 1211 1211 1207 1205 1202 1200 1197 1196 1194 1191 1190 1188 1185 1184 1181 1179 1176 1172 1168 1163 1153 1140 1131 1125 1122 1113 1105 1102 1099 1099 1097 1095 1094 1092 1092 1092 1094 1095 1095 1096 1097 1098 1101 1101 1107 1111 1112 1113 1113 1113 1113 1113 1112 1111 1110 1108 1106 1105 1104 1102 1100 1098 1097 1095 1094 1093 1092 1090 1087 1086 1084 1082 1080 1077 1074 1071 1066 1061 1053 1046 1036 1029 1025 1022 1021 1020 1020 1018 1017 1015 1014 1011 1010 1008 1006 1005 1004 1004 1004 1004 1005 1005 1006 1007 1008 1010 1010 1013 1016 1018 1018 1018 1018 1018 1017 1016 1015 1014 1013 1011 1010 1009 1007 1006 1005 1004 1002 1001 1000 999 997 996 994 992 991 989 987 986 985 983 981 980 979 978 976 975 974 973 971 970 969 968 967 966 966 965 964 963 962 961 961 961 961 961 961 961 961 962 962 966 970 977 985 997 0 0 0 0 0 1434 1434 1436 1440 1441 1441 1441 1441 1441 1441 1441 1441 1441 1440 1439 1439 1439 1438 1438 1438 1438 1438 1437 1437 1437 1436 1436 1435 1435 1434 1434 1432 1432 1432 1431 1430 1430 1429 1428 1427 1426 1424 1423 1421 1420 1417 1415 1414 1413 1410 1408 1405 1404 1402 1400 1398 1396 1395 1393 1392 1390 1389 1387 1387 1386 1386 1386 1386 1386 1382 1378 1378 1376 1374 0 0 0
0 0 0 0 0 0 0 0 0 0 0 0 0 0 2037 2044 2046 2059 2071 2090 2123 2152 2161 2164 2181 2196 2198 2202 2202 2214 2215 2241 2252 2254 2262 2266 2267 2269 2269 2285 2286 2288 2291 2291 2295 2297 2299 2299 2299 2296 2295 2295 2295 2302 2306 2306 2306 2300 2298 2296 2291 2290 2290 2290 2292 2292 2292 2289 2289 2289 2291 2298 2300 2300 2300 2300 2301 2302 2308 2312 2315 2318 2322 2327 2331 2334 2338 2342 2346 2348 2350 2352 2353 2354 2355 2355 2359 2360 2361 2361 2362 2363 2365 2365 2365 2365 2365 2367 2370 2373 2374 2375 2376 2377 2379 2383 2386 2387 2388 2390 2394 2400 2403 2404 2405 2408 2411 2416 2424 2430 2430 2430 2431 2431 2432 2435 2438 2438 2438 2439 2439 2440 2442 2445 2448 2450 2451 2452 2456 2460 2463 2464 2464 2464 2463 2463 2463 2464 2465 2467 2468 2468 2468 2471 2475 2482 2487 2491 2494 2496 2498 2500 2500 2502 2502 2502 2499 2495 2495 2495 2499 2504 2510 2513 2515 2517 2519 2523 2530 2536 2540 2543 2545 2547 2550 2554 2558 2564 2567 2569 2569 2570 2573 2577 2579 2581 2583 2588 2593 2597 2601 2602 2602 2603 2607 2610 2610 2610 2604 2602 2602 2602 2602 2602 2604 2607 2610 2613 2613 2613 2614 2615 2617 2618 2618 2618 2625 2635 2644 2654 2657 2660 2661 2664 2668 2668 2668 2667 2667 2667 2667 2667 2667 2657 2643 2632 2623 2615 2603 2590 2579 2561 2560 2553 2548 2546 2508 0 0 0 0 0 0 0 0 0 0 0 0 2973 3327 3431 3452 3459 3465 3473 3477 3477 3477 3473 3467 3462 3462 3458 3455 3455 3453 3448 3448 3422 3382 3367 3271 3017 0 0 0 0 1713 1713 1712 1711 1709 1704 1677 1639 1605 1570 0 0 1416 1398 1386 1380 1378 1375 1373 1368 1364 1361 1357 1354 1350 1345 1342 1336 1331 1329 1325 1322 1321 1318 1316 1313 1310 1306 1305 1302 1299 1298 1295 1295 1294 1286 1277 1270 1247 1217 1206 1203 1199 1198 1196 1191 1187 1183 1180 1178 1178 1178 1180 1180 1180 1182 1182 1186 1197 1206 1211 1213 1214 1214 1214 1213 1213 1211 1209 1207 1205 1202 1200 1197 1196 1193 1192 1190 1187 1185 1181 1179 1176 1172 1167 1161 1149 1136 1131 1125 1122 1113 1105 1102 1098 1097 1096 1093 1091 1091 1091 1091 1094 1096 1096 1096 1097 1098 1101 1101 1106 1111 1112 1113 1113 1113 1113 1113 1113 1111 1111 1109 1108 1105 1104 1102 1100 1099 1097 1096 1095 1093 1092 1090 1088 1086 1084 1082 1080 1076 1074 1070 1066 1061 1053 1046 1033 1027 1023 1021 1019 1018 1017 1015 1015 1014 1013 1011 1009 1007 1006 1004 1003 1003 1003 1004 1004 1004 1005 1005 1007 1008 1008 1012 1016 1018 1018 1018 1018 1018 1017 1016 1015 1014 1013 1011 1010 1008 1007 1006 1004 1003 1002 1001 1000 998 997 996 994 992 991 989 987 986 985 983 981 980 979 977 976 975 974 972 971 970 969 968 967 966 965 964 963 963 962 961 961 961 960 960 960 960 960 962 963 966 970 977 985 997 0 0 0 0 0 1434 1437 1439 1442 1442 1442 1442 1442 1441 1441 1441 1441 1441 1440 1440 1440 1439 1439 1438 1438 1438 1438 1438 1438 1437 1437 1436 1435 1435 1434 1434 1433 1432 1432 1431 1430 1430 1429 1428 1427 1426 1424 1423 1421 1420 1417 1415 1414 1412 1410 1407 1405 1403 1402 1399 1398 1396 1395 1393 1392 1390 1389 1387 1387 1386 1386 1386 1386 1386 1383 1377 1373 1373 1373 0 0 0
1806 0 0 0 0 0 0 0 0 0 0 0 0 1997 2012 2026 2028 2034 2036 2053 2088 2126 2146 2147 2149 2163 2163 2164 2171 2178 2181 2206 2220 2224 2229 2236 2243 2243 2243 2243 2243 2263 2268 2272 2272 2278 2278 2284 2284 2284 2280 2273 2273 2273 2277 2280 2281 2281 2281 2280 2278 2278 2278 2278 2281 2281 2281 2281 2281 2281 2282 2288 2289 2290 2292 2293 2294 2297 2302 2307 2309 2311 2315 2320 2324 2327 2330 2334 2338 2340 2343 2345 2346 2349 2349 2349 2352 2356 2356 2356 2356 2359 2360 2361 2361 2361 2362 2364 2367 2369 2372 2373 2374 2375 2377 2380 2382 2385 2385 2386 2389 2394 2396 2399 2400 2403 2406 2413 2420 2426 2428 2428 2428 2428 2431 2434 2436 2436 2437 2437 2437 2439 2441 2444 2447 2449 2451 2452 2456 2459 2461 2462 2462 2462 2462 2462 2462 2462 2464 2465 2466 2467 2467 2468 2471 2477 2484 2488 2490 2493 2494 2495 2497 2499 2499 2499 2497 2494 2494 2494 2498 2503 2507 2510 2513 2516 2519 2523 2530 2536 2540 2543 2546 2547 2551 2555 2558 2564 2566 2567 2568 2570 2572 2575 2577 2579 2580 2582 2587 2592 2597 2598 2598 2599 2602 2604 2604 2604 2597 2592 2592 2591 2591 2592 2592 2596 2603 2605 2606 2608 2609 2610 2610 2610 2612 2612 2617 2627 2636 2642 2646 2650 2654 2660 2665 2665 2665 2662 2659 2659 2658 2658 2657 2650 2639 2630 2622 2616 2602 2590 2575 2560 2559 2548 2547 2537 2506 0 0 0 0 0 0 0 0 0 0 0 2582 3077 3356 3451 3468 3470 3471 3473 3475 3475 3475 3470 3466 3462 3460 3458 3453 3453 3453 3452 3447 3446 3420 3370 3316 3090 2581 0 0 0 1723 1721 1713 1713 1709 1704 1679 1635 1603 1567 0 0 1412 1398 1386 1380 1378 1375 1373 1368 1364 1360 1357 1353 1351 1347 1342 1338 1334 1331 1329 1326 1323 1321 1318 1315 1311 1310 1306 1304 1300 1298 1297 1297 1296 1287 1277 1266 1239 1217 1205 1199 1196 1193 1192 1188 1182 1179 1178 1177 1177 1177 1177 1177 1177 1177 1177 1188 1198 1206 1211 1214 1214 1214 1214 1214 1213 1211 1210 1208 1205 1203 1201 1199 1197 1194 1192 1191 1188 1186 1183 1181 1176 1172 1167 1161 1148 1131 1123 1118 1116 1111 1102 1100 1096 1096 1095 1092 1091 1091 1091 1091 1093 1096 1096 1096 1097 1098 1101 1101 1106 1110 1112 1113 1113 1113 1113 1113 1113 1112 1111 1109 1108 1106 1104 1102 1101 1099 1097 1096 1095 1093 1092 1090 1088 1086 1084 1081 1078 1076 1074 1070 1066 1060 1052 1044 1033 1027 1023 1021 1019 1016 1015 1014 1014 1013 1012 1010 1009 1006 1005 1004 1003 1003 1003 1003 1003 1004 1004 1005 1006 1008 1008 1012 1015 1017 1018 1018 1018 1017 1017 1016 1015 1014 1013 1011 1010 1008 1007 1006 1004 1003 1002 1001 1000 998 997 995 993 992 990 989 987 985 984 982 981 980 979 977 976 975 973 972 970 970 968 967 966 966 965 964 963 963 962 961 961 960 960 960 960 960 961 962 962 965 971 978 985 997 0 0 0 0 0 1434 1437 1442 1442 1442 1442 1442 1442 1442 1442 1441 1441 1441 1440 1440 1440 1440 1440 1439 1439 1439 1439 1438 1438 1437 1437 1436 1436 1435 1435 1435 1434 1433 1432 1431 1430 1430 1429 1428 1427 1426 1424 1423 1421 1420 1417 1415 1414 1412 1410 1407 1405 1403 1401 1399 1397 1396 1395 1393 1392 1390 1389 1387 1386 1386 1386 1386 1386 1386 1383 1377 1375 1375 1372 0 0 0
1806 1806 0 0 0 0 0 0 0 0 0 0 0 1996 2002 2026 2028 2034 2036 2053 2075 2096 2110 2119 2130 2137 2140 2143 2148 2156 2157 2168 2175 2190 2202 2208 2208 2208 2209 2209 2220 2234 2244 2245 2245 2246 2246 2252 2256 2256 2256 2250 2250 2250 2254 2261 2263 2263 2265 2265 2265 2265 2265 2267 2271 2271 2271 2271 2271 2271 2272 2275 2276 2279 2284 2287 2288 2293 2296 2301 2304 2305 2309 2312 2316 2318 2321 2325 2331 2334 2336 2339 2340 2340 2341 2343 2347 2350 2352 2352 2353 2354 2355 2358 2358 2358 2358 2358 2360 2362 2366 2369 2371 2372 2375 2375 2379 2382 2384 2385 2387 2389 2390 2392 2395 2398 2402 2407 2413 2419 2423 2424 2424 2425 2427 2432 2434 2434 2435 2435 2435 2436 2440 2443 2446 2449 2450 2452 2455 2458 2460 2460 2460 2460 2460 2460 2460 2461 2461 2463 2466 2466 2467 2468 2470 2474 2479 2485 2489 2493 2494 2495 2495 2495 2495 2495 2495 2494 2494 2494 2498 2502 2504 2509 2513 2516 2518 2523 2530 2535 2540 2543 2546 2548 2551 2555 2558 2561 2564 2565 2568 2570 2571 2573 2573 2574 2575 2578 2583 2588 2590 2593 2593 2595 2597 2597 2597 2597 2590 2586 2586 2585 2583 2583 2583 2588 2595 2602 2602 2603 2603 2603 2603 2603 2603 2603 2612 2623 2633 2637 2639 2644 2650 2658 2663 2663 2663 2661 2655 2649 2646 2645 2644 2640 2632 2628 2622 2616 2602 2585 2566 2551 2550 2544 2536 2524 2492 0 0 0 0 0 0 0 0 0 0 0 2669 3122 3380 3454 3468 3470 3471 3476 3476 3476 3474 3470 3465 3460 3460 3458 3452 3452 3452 3452 3446 3446 3421 3375 3316 3165 2701 0 0 0 1745 1722 1721 1719 1709 1704 1679 1631 1600 1566 0 0 1412 1398 1386 1380 1377 1373 1370 1366 1363 1360 1357 1353 1351 1348 1345 1341 1338 1335 1331 1329 1325 1322 1319 1315 1313 1310 1308 1306 1302 1300 1298 1297 1296 1287 1277 1266 1239 1214 1203 1198 1194 1193 1192 1188 1181 1177 1176 1176 1176 1176 1176 1176 1176 1176 1178 1193 1200 1206 1211 1214 1215 1215 1215 1215 1213 1212 1211 1209 1206 1204 1202 1200 1198 1195 1193 1192 1190 1187 1185 1181 1177 1172 1166 1160 1148 1121 1109 1108 1107 1104 1100 1098 1095 1095 1094 1092 1091 1091 1091 1091 1093 1095 1095 1096 1097 1098 1100 1101 1106 1110 1112 1113 1113 1113 1113 1113 1113 1112 1111 1110 1108 1106 1104 1102 1101 1099 1097 1096 1095 1094 1092 1090 1088 1086 1084 1081 1078 1076 1074 1069 1064 1057 1051 1043 1033 1027 1022 1019 1017 1015 1014 1014 1013 1012 1011 1009 1008 1006 1005 1004 1003 1002 1002 1002 1003 1003 1004 1004 1006 1007 1008 1011 1015 1016 1018 1018 1018 1017 1017 1016 1015 1014 1013 1011 1010 1008 1007 1005 1004 1003 1002 1000 999 998 997 995 993 992 990 989 987 985 984 982 981 980 978 977 975 974 973 972 970 969 968 967 966 965 964 964 962 962 961 961 960 960 960 960 960 960 960 961 962 964 971 979 989 997 0 0 0 0 0 1434 1437 1442 1442 1442 1442 1442 1442 1441 1441 1441 1441 1441 1441 1441 1440 1440 1440 1440 1440 1440 1439 1438 1438 1437 1437 1437 1436 1436 1435 1435 1434 1433 1432 1431 1431 1430 1428 1428 1427 1426 1424 1423 1421 1420 1417 1416 1414 1412 1410 1407 1404 1402 1401 1398 1397 1395 1395 1393 1392 1390 1388 1387 1386 1385 1385 1385 1385 1384 1383 1377 1375 1375 1372 0 0 0
1842 1842 0 0 0 0 0 0 0 0 0 0 0 1996 2002 2026 2028 2034 2036 2053 2075 2096 2109 2119 2128 2128 2130 2131 2133 2134 2138 2142 2147 2162 2172 2176 2178 2180 2180 2187 2193 2204 2217 2220 2222 2222 2223 2229 2233 2233 2233 2227 2227 2227 2233 2236 2236 2237 2244 2245 2245 2248 2248 2253 2257 2257 2257 2256 2252 2252 2252 2261 2263 2269 2275 2278 2282 2286 2289 2294 2298 2298 2301 2305 2308 2313 2315 2320 2324 2327 2330 2332 2334 2335 2335 2338 2342 2346 2346 2346 2347 2350 2352 2353 2353 2353 2354 2354 2354 2355 2359 2363 2367 2368 2371 2372 2375 2378 2381 2384 2386 2387 2388 2389 2391 2394 2398 2403 2406 2411 2416 2419 2421 2421 2425 2428 2430 2431 2432 2432 2433 2434 2437 2441 2445 2447 2448 2449 2451 2453 2456 2457 2457 2457 2457 2458 2458 2458 2459 2462 2464 2466 2466 2467 2469 2472 2475 2481 2487 2491 2494 2494 2494 2494 2494 2494 2493 2493 2493 2494 2498 2502 2504 2509 2512 2515 2517 2522 2529 2535 2539 2542 2546 2548 2551 2555 2556 2557 2561 2565 2568 2569 2569 2570 2570 2570 2572 2577 2581 2585 2588 2590 2590 2590 2593 2593 2593 2592 2586 2582 2581 2579 2578 2578 2578 2584 2591 2594 2595 2596 2596 2596 2596 2597 2598 2602 2610 2620 2630 2634 2635 2642 2649 2657 2663 2663 2663 2658 2649 2639 2634 2633 2632 2627 2625 2624 2622 2616 2602 2582 2566 2546 2537 2531 2521 2498 2458 0 0 0 0 0 0 0 0 0 0 0 2690 3174 3398 3457 3468 3470 3471 3476 3476 3476 3473 3467 3462 3459 3458 3458 3452 3452 3452 3452 3449 3449 3423 3377 3341 3235 3084 0 0 0 0 1744 1727 1725 1710 1706 1679 1631 1597 1559 0 0 1412 1397 1388 1378 1377 1373 1369 1365 1362 1359 1357 1353 1351 1348 1346 1342 1339 1336 1333 1330 1326 1323 1319 1317 1314 1312 1310 1306 1304 1300 1298 1297 1296 1287 1277 1263 1237 1212 1201 1195 1191 1191 1190 1183 1179 1174 1170 1170 1170 1171 1172 1172 1173 1173 1180 1195 1201 1206 1211 1214 1215 1215 1215 1215 1213 1213 1212 1209 1207 1205 1203 1201 1198 1196 1195 1193 1191 1188 1185 1181 1177 1172 1165 1159 1146 1117 1100 1099 1099 1097 1095 1094 1093 1093 1093 1092 1090 1090 1090 1090 1091 1093 1095 1096 1096 1097 1100 1100 1105 1110 1112 1112 1113 1113 1113 1113 1113 1112 1111 1110 1108 1106 1104 1102 1101 1099 1097 1096 1095 1094 1092 1090 1088 1086 1083 1081 1078 1076 1071 1066 1061 1057 1049 1042 1034 1027 1022 1019 1017 1015 1013 1012 1012 1011 1010 1009 1007 1006 1005 1004 1003 1002 1002 1002 1002 1002 1003 1004 1006 1007 1008 1011 1014 1016 1017 1017 1017 1017 1016 1016 1015 1014 1013 1011 1010 1008 1006 1005 1004 1003 1001 1000 999 998 996 995 993 991 990 988 987 985 984 982 981 980 978 976 975 974 973 971 970 969 968 967 965 965 964 963 962 962 961 961 960 959 959 959 960 960 961 962 962 966 972 979 989 995 0 0 0 0 0 1431 1437 1442 1442 1442 1442 1441 1441 1441 1441 1441 1441 1441 1441 1441 1440 1440 1440 1440 1440 1440 1439 1439 1438 1438 1437 1437 1437 1436 1436 1435 1435 1434 1433 1432 1431 1430 1428 1428 1427 1426 1424 1422 1421 1420 1418 1416 1414 1412 1410 1407 1404 1401 1400 1398 1396 1395 1394 1393 1392 1390 1388 1387 1385 1385 1385 1384 1384 1382 1382 1376 1375 1375 1369 0 0 0
1902 1902 0 0 0 0 0 0 0 0 0 0 0 0 2002 2050 2053 2059 2062 2063 2075 2096 2109 2117 2127 2128 2128 2131 2131 2133 2134 2137 2141 2146 2154 2163 2167 2171 2171 2172 2175 2177 2177 2188 2193 2198 2201 2207 2207 2207 2207 2207 2207 2210 2215 2216 2216 2221 2229 2229 2231 2233 2233 2234 2243 2243 2243 2241 2241 2241 2244 2250 2257 2262 2266 2271 2274 2276 2280 2284 2290 2291 2293 2298 2302 2308 2311 2315 2319 2322 2324 2327 2328 2330 2331 2332 2335 2339 2339 2339 2340 2344 2347 2348 2349 2349 2349 2350 2350 2350 2351 2357 2360 2364 2366 2367 2370 2373 2378 2381 2384 2387 2387 2388 2390 2392 2396 2399 2403 2405 2410 2413 2415 2417 2420 2424 2426 2428 2428 2429 2431 2433 2435 2439 2441 2444 2445 2446 2447 2449 2451 2453 2454 2455 2455 2455 2455 2457 2458 2461 2461 2463 2464 2466 2469 2469 2472 2477 2483 2489 2493 2493 2493 2493 2492 2492 2492 2492 2492 2496 2499 2502 2504 2508 2511 2514 2517 2521 2527 2533 2537 2542 2546 2548 2551 2553 2555 2556 2560 2564 2567 2567 2568 2568 2568 2568 2571 2575 2580 2584 2586 2586 2587 2588 2591 2591 2591 2590 2584 2581 2578 2576 2576 2576 2577 2582 2584 2585 2586 2587 2587 2587 2588 2588 2590 2597 2604 2615 2624 2628 2634 2640 2648 2655 2656 2656 2656 2648 2639 2627 2623 2622 2618 2618 2617 2616 2615 2610 2602 2581 2565 2545 2532 2531 2506 2481 2445 0 0 0 0 0 0 0 0 0 0 0 2714 3199 3411 3457 3462 3464 3468 3476 3476 3476 3473 3465 3460 3459 3457 3457 3450 3446 3446 3446 3434 3434 3429 3377 3353 3313 3142 2745 0 0 0 0 1749 1732 1715 1706 1681 1631 1595 0 0 0 1414 1397 1388 1377 1375 1372 1368 1364 1361 1359 1357 1354 1351 1348 1346 1342 1339 1336 1333 1331 1328 1324 1321 1318 1315 1313 1310 1306 1304 1302 1298 1297 1294 1285 1277 1263 1236 1206 1200 1193 1186 1185 1182 1176 1172 1171 1168 1168 1168 1171 1171 1172 1173 1173 1183 1195 1201 1206 1211 1215 1215 1215 1215 1215 1214 1214 1212 1210 1208 1205 1203 1201 1199 1197 1195 1193 1191 1188 1185 1181 1177 1173 1165 1157 1143 1117 1099 1097 1095 1094 1094 1094 1093 1092 1091 1091 1090 1089 1089 1089 1090 1092 1094 1094 1094 1095 1099 1100 1103 1109 1112 1113 1113 1113 1113 1113 1112 1112 1111 1110 1108 1106 1104 1102 1101 1099 1098 1096 1095 1094 1091 1090 1088 1086 1083 1081 1078 1074 1070 1065 1060 1055 1049 1042 1034 1027 1022 1019 1017 1015 1013 1012 1012 1011 1010 1008 1007 1006 1005 1004 1003 1002 1002 1002 1002 1002 1003 1003 1006 1006 1008 1011 1014 1015 1016 1016 1016 1016 1016 1016 1014 1014 1012 1011 1009 1008 1006 1005 1004 1002 1001 1000 999 997 996 994 993 991 990 988 987 985 983 982 980 979 977 976 975 974 972 971 970 968 967 966 965 965 964 963 962 961 961 960 960 959 959 959 960 960 961 961 962 966 972 979 989 993 0 0 0 0 0 1431 1439 1442 1442 1442 1442 1441 1441 1441 1441 1441 1441 1441 1441 1441 1441 1440 1440 1440 1440 1440 1439 1439 1438 1438 1437 1437 1437 1437 1436 1435 1435 1434 1433 1432 1432 1430 1428 1428 1427 1426 1424 1422 1421 1420 1418 1416 1415 1412 1410 1407 1404 1401 1399 1398 1396 1394 1394 1392 1391 1390 1388 1387 1385 1385 1384 1384 1382 1382 1379 1374 1372 1372 1372 0 0 0
1902 1902 1944 1966 1988 2022 2056 2090 0 0 0 0 0 0 0 0 0 0 0 0 2111 2117 2117 2117 2127 2128 2128 2128 2131 2131 2133 2137 2141 2144 2145 2146 2152 2158 2158 2158 2159 2159 2159 2162 2163 2163 2163 2164 2165 2171 2178 2187 2196 2199 2200 2201 2202 2205 2209 2213 2216 2217 2219 2221 2223 2225 2229 2230 2230 2234 2240 2245 2252 2255 2260 2263 2264 2265 2269 2274 2281 2284 2288 2292 2296 2302 2305 2310 2312 2315 2318 2321 2324 2326 2326 2327 2328 2331 2333 2334 2335 2338 2341 2343 2343 2344 2345 2346 2347 2347 2347 2351 2355 2358 2360 2363 2366 2369 2372 2376 2381 2384 2386 2388 2389 2391 2394 2397 2399 2401 2405 2407 2410 2413 2417 2420 2422 2424 2426 2428 2430 2431 2432 2436 2438 2441 2442 2443 2443 2445 2447 2449 2451 2451 2452 2452 2452 2455 2458 2459 2460 2460 2462 2465 2467 2468 2468 2473 2479 2484 2488 2488 2488 2489 2490 2491 2491 2492 2493 2496 2499 2502 2504 2507 2510 2514 2515 2519 2524 2530 2537 2540 2544 2547 2550 2550 2552 2556 2559 2563 2566 2566 2566 2566 2566 2568 2571 2574 2579 2582 2584 2584 2585 2585 2586 2586 2585 2584 2581 2579 2575 2573 2573 2573 2574 2578 2579 2579 2579 2578 2578 2578 2580 2581 2584 2589 2600 2610 2618 2622 2629 2635 2640 2647 2647 2647 2647 2637 2625 2617 2616 2613 2609 2607 2607 2604 2604 2604 2592 2574 2557 2532 2516 2515 2498 2469 2421 0 0 0 0 0 0 0 0 0 0 0 2749 3225 3435 3457 3462 3464 3468 3476 3476 3476 3473 3465 3460 3455 3454 3453 3446 3437 3437 3437 3433 3433 3433 3396 3360 3323 3258 3094 2616 0 0 0 0 1760 1723 1708 1681 1630 0 0 0 0 1417 1398 1388 1376 1374 1370 1367 1364 1361 1359 1357 1354 1351 1349 1346 1343 1340 1336 1334 1331 1329 1325 1323 1319 1316 1313 1311 1307 1304 1302 1299 1295 1291 1284 1276 1263 1239 1202 1193 1187 1179 1177 1175 1172 1166 1165 1165 1165 1166 1170 1171 1172 1173 1173 1183 1195 1201 1206 1211 1215 1215 1215 1215 1215 1214 1214 1212 1211 1209 1206 1204 1202 1199 1198 1195 1193 1191 1188 1185 1182 1177 1173 1165 1154 1141 1117 1099 1096 1094 1094 1093 1093 1093 1091 1089 1089 1089 1088 1088 1088 1088 1090 1091 1094 1094 1095 1098 1100 1103 1108 1111 1113 1113 1113 1113 1113 1112 1112 1111 1110 1108 1106 1104 1102 1101 1099 1098 1096 1095 1093 1091 1090 1088 1086 1083 1081 1077 1073 1069 1064 1059 1054 1048 1041 1034 1027 1024 1021 1018 1015 1013 1012 1012 1011 1010 1008 1007 1006 1005 1004 1003 1002 1002 1002 1002 1002 1003 1003 1005 1006 1008 1012 1014 1015 1016 1016 1016 1016 1016 1015 1014 1013 1012 1010 1009 1007 1006 1005 1003 1002 1000 1000 998 997 996 994 993 991 990 988 986 985 983 982 980 979 977 976 974 973 972 971 970 968 967 966 965 964 963 962 961 961 961 960 959 959 959 959 959 960 960 961 962 964 971 979 989 995 0 0 0 0 0 1431 1440 1441 1441 1441 1441 1441 1441 1441 1441 1441 1441 1441 1441 1441 1441 1440 1440 1440 1439 1439 1439 1439 1438 1438 1438 1437 1437 1437 1436 1436 1435 1434 1433 1433 1432 1430 1430 1428 1427 1426 1424 1422 1420 1420 1418 1417 1415 1412 1410 1407 1404 1401 1399 1398 1397 1394 1393 1392 1391 1390 1388 1387 1386 1385 1384 1383 1382 1382 1377 1373 1371 1371 1371 1371 1376 0
1902 1902 1944 1966 1988 2022 2056 2090 2138 0 0 0 0 0 0 0 0 0 0 0 0 0 0 0 2131 2132 2147 2147 2147 2137 2137 2137 2140 2140 2140 2140 2142 2142 2147 2147 2149 2149 2149 2148 2148 2148 2148 2148 2150 2157 2168 2175 2185 2192 2192 2192 2195 2196 2196 2201 2207 2210 2211 2212 2213 2214 2217 2218 2221 2228 2234 2240 2244 2249 2253 2256 2256 2256 2260 2266 2271 2275 2278 2283 2287 2293 2300 2305 2308 2310 2314 2315 2318 2320 2321 2321 2321 2324 2327 2329 2330 2334 2336 2338 2338 2340 2340 2342 2343 2343 2344 2346 2350 2354 2356 2358 2362 2366 2369 2373 2377 2381 2383 2385 2386 2389 2392 2395 2398 2400 2402 2404 2408 2411 2414 2417 2419 2421 2424 2426 2428 2429 2429 2431 2436 2438 2439 2440 2441 2443 2443 2445 2447 2448 2448 2449 2450 2453 2455 2457 2457 2457 2459 2462 2465 2466 2467 2469 2472 2477 2481 2483 2483 2485 2486 2490 2491 2491 2494 2496 2499 2501 2503 2507 2510 2513 2515 2518 2524 2529 2534 2539 2542 2544 2546 2549 2552 2555 2558 2562 2564 2565 2565 2566 2566 2567 2570 2573 2574 2578 2580 2582 2582 2582 2582 2580 2579 2579 2579 2577 2575 2570 2569 2569 2569 2571 2573 2574 2574 2574 2574 2574 2574 2577 2580 2586 2596 2605 2611 2619 2625 2631 2634 2639 2639 2639 2637 2626 2615 2614 2613 2611 2601 2590 2590 2590 2589 2589 2572 2555 2535 2514 2500 2490 2482 2451 2395 0 0 0 0 0 0 0 0 0 0 0 2846 3267 3448 3460 3462 3464 3468 3476 3476 3476 3473 3465 3460 3453 3450 3448 3441 3432 3432 3432 3433 3433 3433 3413 3378 3341 3317 3252 2967 2570 0 0 0 0 0 0 0 0 0 0 0 0 1417 1397 1383 1376 1373 1368 1366 1364 1361 1359 1356 1354 1351 1349 1346 1343 1340 1338 1334 1332 1329 1326 1323 1319 1317 1314 1311 1308 1305 1302 1299 1295 1291 1284 1275 1263 1237 1202 1189 1182 1176 1172 1170 1165 1162 1162 1162 1164 1166 1169 1171 1172 1172 1173 1183 1192 1199 1207 1212 1215 1215 1215 1215 1215 1214 1214 1213 1211 1209 1207 1205 1202 1201 1198 1196 1194 1191 1188 1184 1182 1177 1173 1163 1151 1136 1117 1100 1096 1093 1093 1093 1092 1091 1091 1089 1088 1088 1087 1087 1087 1087 1087 1089 1092 1094 1095 1096 1100 1103 1108 1111 1112 1113 1113 1113 1113 1112 1111 1110 1109 1108 1106 1104 1102 1100 1099 1098 1096 1095 1093 1091 1090 1088 1086 1083 1080 1077 1073 1069 1064 1059 1053 1047 1041 1034 1029 1026 1023 1020 1017 1014 1013 1012 1011 1010 1008 1007 1006 1005 1004 1003 1003 1002 1002 1002 1002 1003 1003 1005 1006 1008 1012 1014 1014 1015 1016 1016 1016 1016 1015 1014 1013 1011 1010 1009 1007 1005 1005 1003 1002 1000 999 998 997 995 994 993 991 990 988 986 985 983 982 980 979 977 976 974 973 972 970 969 967 967 965 964 963 962 962 961 960 959 959 959 959 959 959 959 959 960 961 962 964 969 979 989 995 0 0 0 0 0 1430 1441 1441 1441 1441 1441 1441 1441 1441 1441 1441 1441 1441 1441 1441 1441 1440 1440 1440 1439 1439 1439 1439 1438 1438 1437 1437 1437 1436 1436 1436 1435 1434 1433 1433 1432 1431 1430 1428 1428 1426 1424 1422 1420 1420 1418 1417 1414 1412 1410 1407 1404 1401 1399 1398 1397 1395 1393 1392 1391 1390 1388 1387 1386 1385 1384 1383 1382 1382 1377 1373 1370 1370 1370 1370 1376 0
1888 1888 1930 1966 1968 2005 2056 2090 2138 2157 0 0 0 0 0 0 0 0 0 0 0 0 0 0 0 0 0 0 2149 2149 2149 2144 2144 2138 2136 2133 2132 2132 2132 2132 2132 2132 2129 2125 2125 2125 2125 2126 2131 2143 2151 2161 2173 2182 2182 2182 2184 2184 2184 2191 2199 2202 2203 2203 2203 2203 2205 2207 2211 2219 2225 2230 2235 2243 2248 2250 2251 2253 2257 2260 2263 2267 2269 2271 2277 2285 2292 2298 2302 2306 2308 2311 2312 2313 2313 2313 2313 2315 2318 2322 2326 2329 2330 2331 2334 2335 2336 2337 2338 2339 2340 2343 2345 2347 2349 2353 2357 2363 2367 2370 2372 2375 2378 2379 2383 2385 2388 2392 2396 2399 2401 2404 2407 2409 2412 2414 2416 2419 2422 2424 2426 2427 2427 2429 2433 2434 2436 2438 2439 2439 2440 2441 2442 2445 2446 2447 2448 2449 2449 2450 2451 2453 2455 2457 2461 2464 2465 2465 2467 2470 2475 2476 2476 2478 2482 2487 2489 2491 2494 2496 2499 2501 2503 2507 2509 2511 2513 2517 2522 2527 2533 2537 2539 2541 2545 2547 2551 2553 2555 2558 2562 2563 2563 2564 2565 2567 2568 2568 2568 2571 2573 2578 2579 2579 2579 2575 2575 2574 2574 2573 2570 2566 2565 2565 2565 2569 2571 2573 2573 2573 2573 2573 2573 2575 2578 2586 2595 2603 2606 2615 2621 2627 2631 2631 2631 2631 2624 2618 2611 2611 2610 2607 2596 2582 2582 2581 2575 2569 2549 2531 2514 2492 2489 2484 2463 2436 0 0 0 0 0 0 0 0 0 0 0 0 2846 3283 3448 3460 3462 3471 3476 3479 3479 3479 3474 3465 3459 3452 3444 3442 3441 3432 3432 3432 3433 3433 3433 3413 3384 3351 3327 3272 3240 3012 2643 0 0 0 0 0 0 0 0 0 0 0 1417 1395 1380 1374 1370 1368 1366 1364 1361 1359 1356 1354 1351 1349 1345 1343 1340 1338 1335 1332 1329 1326 1323 1320 1317 1314 1311 1308 1305 1302 1299 1295 1290 1284 1274 1263 1236 1201 1188 1180 1172 1167 1163 1163 1161 1161 1161 1162 1165 1168 1171 1172 1172 1174 1182 1189 1197 1207 1213 1215 1216 1216 1216 1216 1215 1214 1213 1211 1209 1207 1205 1203 1201 1199 1196 1194 1191 1188 1184 1180 1176 1170 1161 1150 1132 1117 1100 1096 1093 1092 1092 1092 1091 1090 1089 1088 1087 1086 1085 1084 1084 1084 1086 1089 1092 1094 1096 1099 1104 1108 1111 1112 1113 1113 1113 1113 1111 1111 1110 1109 1107 1106 1103 1102 1100 1099 1098 1096 1094 1093 1091 1089 1087 1085 1083 1080 1076 1073 1069 1064 1059 1053 1047 1041 1034 1029 1027 1023 1021 1017 1015 1014 1014 1012 1011 1009 1008 1006 1005 1005 1004 1003 1002 1002 1002 1002 1003 1004 1005 1006 1008 1012 1013 1014 1015 1016 1016 1016 1016 1014 1014 1013 1011 1009 1008 1006 1005 1004 1003 1001 1000 999 998 997 995 994 993 991 990 988 986 984 983 982 980 979 977 976 974 973 971 970 968 967 966 965 964 963 962 961 961 960 959 959 958 958 958 959 960 960 960 960 962 964 969 979 988 995 0 0 0 0 0 1430 1441 1441 1441 1441 1441 1441 1441 1441 1441 1441 1441 1441 1441 1440 1440 1440 1440 1440 1439 1439 1439 1439 1438 1438 1437 1437 1437 1436 1436 1436 1435 1434 1433 1433 1432 1431 1430 1429 1428 1426 1424 1422 1420 1420 1418 1417 1414 1412 1409 1406 1404 1401 1399 1398 1397 1395 1393 1392 1391 1390 1389 1388 1387 1385 1383 1383 1383 1382 1377 1373 1367 1367 1367 1365 1373 0
1886 1886 1925 1959 1962 1998 2036 2088 2113 2151 0 0 0 0 0 0 0 0 0 0 0 0 0 0 0 0 0 0 0 0 0 2154 2148 2138 2136 2133 2122 2107 2107 2107 2106 2106 2105 2100 2100 2100 2103 2106 2116 2123 2129 2141 2157 2168 2169 2169 2172 2172 2172 2177 2187 2190 2190 2191 2191 2191 2195 2197 2201 2206 2211 2218 2226 2235 2241 2246 2248 2251 2255 2258 2258 2261 2263 2265 2270 2275 2283 2288 2294 2298 2301 2304 2304 2304 2305 2306 2306 2307 2311 2314 2320 2323 2324 2325 2328 2330 2332 2333 2334 2335 2335 2337 2338 2340 2343 2347 2353 2358 2363 2367 2369 2369 2371 2373 2377 2380 2383 2388 2393 2397 2400 2403 2404 2405 2406 2409 2412 2415 2419 2422 2425 2426 2426 2427 2430 2431 2432 2434 2436 2437 2438 2438 2440 2441 2443 2444 2445 2446 2446 2446 2448 2449 2451 2455 2459 2461 2463 2463 2463 2467 2469 2472 2473 2474 2478 2484 2487 2490 2494 2496 2499 2500 2503 2507 2509 2511 2512 2515 2519 2523 2528 2534 2536 2539 2542 2547 2550 2552 2554 2556 2558 2559 2560 2561 2562 2563 2563 2563 2564 2566 2571 2574 2574 2574 2574 2570 2569 2568 2568 2567 2564 2562 2562 2562 2564 2566 2568 2570 2572 2572 2572 2572 2572 2572 2575 2583 2595 2599 2602 2608 2615 2622 2622 2622 2622 2618 2612 2610 2609 2608 2608 2606 2595 2572 2551 2539 2532 2524 2516 2505 2493 2473 2466 2458 2449 2428 0 0 0 0 0 0 0 0 0 0 0 0 2846 3283 3448 3460 3462 3471 3476 3479 3479 3479 3474 3465 3459 3452 3444 3442 3441 3437 3436 3436 3436 3433 3433 3413 3385 3361 3337 3311 3255 3198 3093 2710 0 0 0 0 0 0 0 0 0 0 1410 1395 1377 1372 1370 1368 1366 1364 1362 1359 1356 1354 1351 1348 1345 1343 1340 1338 1335 1332 1329 1326 1323 1320 1317 1314 1311 1308 1305 1302 1299 1295 1290 1282 1272 1261 1235 1199 1187 1180 1171 1163 1161 1161 1161 1159 1159 1159 1161 1165 1169 1172 1172 1175 1182 1189 1197 1207 1213 1215 1216 1216 1216 1216 1215 1214 1213 1211 1209 1208 1205 1203 1201 1199 1196 1194 1191 1186 1183 1180 1175 1168 1159 1149 1130 1117 1103 1096 1093 1092 1092 1092 1091 1091 1088 1087 1086 1085 1084 1084 1084 1084 1086 1086 1088 1091 1095 1099 1104 1108 1111 1112 1113 1113 1113 1113 1111 1111 1109 1108 1107 1105 1103 1102 1100 1099 1098 1096 1094 1092 1091 1089 1087 1085 1083 1080 1076 1073 1069 1065 1059 1053 1047 1039 1034 1029 1027 1024 1021 1017 1016 1014 1014 1012 1011 1009 1008 1006 1005 1005 1005 1003 1003 1003 1003 1003 1004 1005 1006 1007 1008 1011 1013 1014 1015 1016 1016 1016 1015 1014 1013 1013 1011 1009 1007 1006 1004 1003 1002 1001 1000 999 998 997 995 994 992 991 989 988 986 984 983 981 980 979 977 976 974 973 971 969 968 967 966 964 963 962 961 961 960 959 959 958 958 958 958 959 960 960 960 960 960 962 969 977 988 995 0 0 0 0 0 1430 1441 1441 1441 1441 1441 1440 1440 1440 1440 1440 1440 1440 1440 1440 1440 1440 1440 1439 1439 1439 1439 1438 1438 1438 1437 1437 1437 1436 1436 1435 1435 1433 1433 1433 1432 1431 1430 1429 1428 1426 1425 1422 1420 1420 1418 1417 1414 1412 1409 1406 1404 1401 1399 1398 1397 1396 1394 1392 1391 1390 1389 1388 1387 1385 1383 1383 1383 1383 1383 1378 1367 1367 1367 1365 1373 0
1871 1885 1885 1929 1932 1980 2032 2080 2111 0 0 0 0 0 0 0 0 0 0 0 0 0 0 0 0 0 0 0 0 0 0 0 0 0 0 2133 2122 2107 2107 2107 2106 2106 2100 2082 2082 2082 2082 2085 2092 2099 2106 2119 2132 2145 2148 2148 2150 2152 2154 2165 2173 2176 2178 2179 2180 2183 2187 2191 2195 2197 2202 2211 2220 2228 2234 2239 2243 2247 2251 2253 2254 2256 2258 2259 2263 2266 2271 2279 2286 2292 2295 2295 2296 2297 2297 2299 2300 2301 2304 2310 2315 2317 2319 2320 2322 2324 2325 2327 2329 2329 2330 2330 2331 2334 2338 2342 2347 2353 2358 2362 2365 2366 2367 2368 2371 2375 2379 2383 2390 2395 2397 2400 2400 2400 2400 2402 2407 2412 2417 2420 2422 2423 2423 2426 2427 2429 2430 2432 2434 2435 2436 2436 2436 2437 2439 2441 2442 2444 2444 2445 2445 2446 2448 2452 2455 2458 2460 2460 2462 2464 2467 2468 2470 2472 2476 2481 2485 2488 2491 2494 2496 2498 2501 2504 2506 2509 2510 2512 2515 2517 2522 2528 2533 2537 2541 2546 2549 2552 2552 2553 2553 2554 2555 2557 2558 2558 2558 2558 2560 2564 2569 2570 2570 2570 2566 2563 2562 2561 2560 2560 2559 2558 2558 2559 2560 2560 2562 2563 2566 2567 2567 2567 2568 2568 2569 2579 2590 2595 2595 2598 2606 2613 2613 2613 2613 2606 2601 2601 2601 2603 2603 2603 2583 2548 2517 2497 0 0 0 0 2458 2445 2438 2433 2426 2372 0 0 0 0 0 0 0 0 0 0 0 0 2834 3283 3433 3450 3460 3471 3476 3479 3479 3479 3474 3465 3458 3452 3444 3443 3443 3442 3437 3436 3436 3430 3422 3411 3389 3361 3344 3319 3304 3249 3185 3091 2829 0 0 0 0 0 0 0 0 0 1403 1385 1376 1372 1370 1369 1366 1364 1362 1359 1356 1354 1351 1348 1345 1343 1340 1338 1335 1332 1328 1326 1323 1320 1317 1314 1310 1308 1305 1302 1297 1292 1290 1281 1272 1258 1230 1194 1176 1172 1167 1163 1161 1161 1161 1159 1159 1159 1161 1164 1167 1171 1172 1173 1182 1189 1197 1207 1213 1216 1216 1216 1216 1216 1215 1214 1213 1212 1209 1208 1206 1204 1201 1199 1197 1193 1191 1186 1183 1179 1174 1166 1159 1149 1130 1117 1110 1104 1097 1094 1092 1092 1092 1091 1088 1086 1085 1085 1084 1084 1084 1084 1085 1086 1086 1089 1094 1099 1104 1108 1112 1112 1113 1113 1113 1113 1112 1111 1109 1108 1106 1105 1103 1102 1100 1099 1098 1095 1094 1092 1091 1089 1087 1085 1082 1079 1076 1073 1069 1065 1059 1053 1047 1039 1034 1031 1028 1025 1022 1019 1017 1015 1014 1012 1012 1010 1008 1008 1006 1006 1006 1005 1003 1003 1003 1003 1004 1006 1007 1007 1008 1011 1013 1014 1015 1015 1015 1015 1015 1014 1013 1012 1011 1009 1007 1006 1004 1003 1002 1001 999 998 998 996 995 994 992 991 989 987 986 984 983 981 980 979 978 976 974 972 971 969 968 966 965 964 963 962 961 960 960 959 959 958 958 958 958 959 959 959 959 959 959 962 969 976 986 995 1022 0 0 0 0 1429 1441 1441 1441 1441 1440 1439 1439 1439 1440 1440 1440 1440 1440 1440 1440 1439 1439 1439 1439 1439 1438 1438 1438 1437 1437 1437 1436 1436 1435 1435 1435 1433 1433 1432 1432 1431 1430 1429 1428 1426 1425 1422 1421 1420 1418 1417 1414 1411 1409 1406 1404 1401 1399 1398 1397 1396 1394 1393 1392 1390 1389 1388 1387 1385 1384 1384 1384 1384 1384 1383 1378 1373 1373 1373 1373 0
0 0 0 0 0 0 0 0 0 0 0 0 0 0 0 0 0 0 0 0 0 0 0 0 0 0 0 0 0 0 0 0 0 0 0 0 0 0 0 2107 2106 2106 2100 2081 2064 2064 2064 2065 2069 2078 2085 2098 2110 2118 2118 2120 2121 2129 2140 2151 2162 2166 2167 2167 2170 2177 2180 2186 2188 2188 2194 2203 2215 2223 2228 2232 2236 2239 2243 2245 2246 2248 2250 2252 2252 2256 2261 2271 2280 2284 2284 2286 2286 2286 2292 2294 2296 2299 2302 2306 2310 2314 2314 2316 2317 2317 2318 2320 2322 2324 2324 2324 2326 2329 2334 2338 2343 2349 2353 2359 2363 2364 2365 2366 2369 2372 2375 2380 2385 2390 2393 2395 2395 2395 2395 2397 2402 2407 2412 2415 2417 2419 2420 2422 2424 2426 2427 2430 2432 2433 2433 2433 2434 2434 2435 2438 2441 2442 2443 2443 2444 2445 2446 2450 2452 2456 2459 2460 2461 2463 2463 2465 2467 2470 2475 2477 2482 2484 2485 2486 2488 2492 2495 2499 2502 2504 2506 2508 2509 2511 2515 2522 2528 2533 2539 2543 2547 2550 2550 2550 2550 2550 2550 2554 2554 2554 2554 2554 2555 2558 2562 2562 2562 2561 2557 2556 2555 2555 2554 2554 2554 2554 2554 2554 2554 2554 2555 2555 2557 2558 2558 2558 2560 2561 2563 2573 2584 2588 2588 2591 2597 2606 2608 2608 2608 2601 2598 2593 2593 2590 2589 2579 2560 2525 2489 2465 0 0 0 0 0 0 2394 2385 2380 0 0 0 0 0 0 0 0 0 0 0 0 0 2826 3209 3364 3417 3427 3443 3467 3474 3474 3474 3464 3459 3458 3455 3454 3454 3452 3449 3437 3436 3420 3413 3407 3406 3393 3381 3354 3330 3317 3276 3207 3134 2950 2511 0 0 0 0 0 0 0 0 1398 1381 1374 1372 1371 1369 1367 1364 1362 1359 1356 1354 1351 1348 1345 1343 1340 1337 1334 1332 1328 1325 1322 1320 1317 1313 1310 1308 1305 1302 1297 1291 1288 1281 1270 1255 1227 1192 1176 1172 1167 1163 1161 1161 1161 1159 1159 1159 1161 1164 1167 1170 1171 1173 1180 1189 1199 1207 1213 1216 1216 1216 1216 1216 1215 1214 1213 1211 1209 1207 1206 1204 1201 1199 1197 1193 1191 1186 1183 1179 1171 1165 1159 1149 1130 1118 1111 1107 1099 1095 1094 1092 1092 1090 1088 1084 1082 1082 1082 1082 1082 1083 1085 1086 1086 1089 1094 1097 1103 1108 1112 1113 1113 1113 1113 1113 1112 1110 1109 1108 1106 1105 1103 1102 1100 1099 1097 1095 1094 1092 1090 1089 1087 1085 1082 1079 1076 1073 1069 1065 1059 1053 1047 1039 1034 1032 1030 1027 1024 1020 1018 1015 1014 1012 1012 1011 1009 1008 1008 1007 1007 1006 1005 1004 1004 1004 1005 1006 1007 1007 1009 1011 1013 1015 1015 1015 1015 1015 1015 1014 1013 1012 1010 1009 1007 1006 1004 1003 1002 1001 999 998 998 996 995 994 992 991 989 987 986 984 983 981 980 979 978 976 974 972 971 969 968 966 965 963 963 962 961 960 959 959 959 958 958 958 958 959 959 959 959 959 959 962 969 975 985 995 1022 0 0 0 0 1429 1441 1441 1441 1441 1440 1439 1439 1439 1440 1440 1440 1440 1440 1440 1439 1439 1439 1439 1439 1439 1438 1438 1438 1437 1437 1437 1436 1435 1435 1434 1434 1433 1433 1432 1432 1431 1430 1429 1428 1426 1425 1422 1421 1420 1418 1416 1414 1411 1409 1406 1404 1402 1401 1398 1397 1396 1394 1393 1392 1390 1389 1388 1387 1385 1384 1384 1384 1384 1384 1383 1380 1378 1378 1378 1378 0
0 0 0 0 0 0 0 0 0 0 0 0 0 0 0 0 0 0 0 0 0 0 0 0 0 0 0 0 0 0 0 0 0 0 0 0 0 0 0 0 2153 2119 2100 2081 2063 2051 2049 2049 2049 2051 2055 2069 2084 2094 2097 2098 2101 2108 2120 2136 2146 2152 2153 2154 2159 2169 2172 2178 2181 2181 2185 2194 2208 2218 2223 2224 2227 2229 2232 2234 2235 2239 2240 2242 2244 2248 2254 2265 2275 2279 2279 2281 2281 2281 2287 2291 2293 2296 2300 2303 2306 2309 2311 2312 2312 2312 2312 2313 2316 2319 2320 2321 2323 2326 2330 2335 2340 2344 2349 2354 2359 2362 2363 2364 2367 2370 2375 2378 2381 2385 2387 2389 2390 2391 2391 2394 2398 2403 2407 2411 2413 2416 2417 2417 2420 2422 2425 2427 2430 2430 2430 2430 2431 2431 2432 2435 2437 2440 2441 2442 2442 2442 2444 2447 2449 2451 2455 2457 2459 2460 2460 2461 2463 2467 2472 2474 2476 2478 2479 2479 2480 2485 2488 2492 2496 2499 2503 2505 2507 2508 2511 2517 2524 2529 2533 2537 2543 2546 2546 2546 2545 2545 2545 2547 2547 2547 2547 2547 2548 2551 2554 2554 2554 2552 2550 2550 2549 2549 2549 2549 2549 2550 2550 2550 2550 2550 2550 2550 2550 2550 2552 2552 2552 2553 2557 2567 2578 2581 2583 2584 2590 2597 2603 2603 2603 2601 2596 2592 2589 2580 2574 2560 2525 2498 0 0 0 0 0 0 0 0 0 0 0 0 0 0 0 0 0 0 0 0 0 0 0 0 2739 3127 3345 3345 3346 3355 3355 3371 3403 3436 3444 3452 3458 3461 3461 3461 3454 3449 3437 3421 3415 3413 3407 3406 3404 3394 3379 3362 3317 3278 3212 3134 2951 2511 0 0 0 0 0 1528 1477 1431 1398 1378 1373 1372 1371 1369 1367 1364 1362 1359 1356 1354 1351 1349 1346 1343 1340 1337 1334 1331 1328 1325 1322 1319 1316 1313 1310 1307 1305 1301 1297 1291 1286 1278 1268 1254 1224 1192 1176 1172 1167 1163 1163 1162 1162 1160 1160 1160 1161 1164 1167 1170 1170 1173 1177 1189 1201 1207 1214 1216 1216 1216 1215 1215 1215 1214 1213 1211 1209 1207 1206 1203 1201 1199 1197 1193 1190 1187 1183 1179 1170 1165 1160 1150 1130 1119 1111 1107 1100 1095 1095 1094 1093 1090 1086 1081 1081 1080 1080 1080 1081 1081 1084 1086 1086 1089 1094 1097 1103 1109 1113 1113 1113 1113 1113 1113 1112 1110 1109 1108 1106 1104 1103 1102 1099 1098 1097 1095 1094 1092 1090 1089 1087 1085 1082 1079 1076 1073 1069 1065 1059 1054 1047 1039 1036 1035 1031 1028 1024 1021 1018 1016 1015 1013 1012 1011 1010 1010 1009 1009 1007 1007 1006 1005 1005 1005 1005 1006 1007 1008 1010 1012 1013 1015 1015 1015 1015 1015 1015 1014 1013 1012 1010 1009 1007 1006 1004 1003 1002 1000 999 998 997 996 995 993 992 991 989 987 986 984 983 981 980 979 977 975 974 972 970 969 968 966 965 963 963 961 960 960 959 959 959 958 958 958 958 958 958 959 959 959 959 963 970 975 984 996 1021 0 0 0 0 1428 1440 1441 1441 1441 1440 1438 1438 1438 1439 1439 1439 1439 1439 1439 1439 1439 1439 1439 1439 1439 1438 1438 1438 1437 1437 1436 1435 1435 1435 1434 1434 1433 1433 1432 1431 1430 1430 1429 1428 1426 1424 1422 1421 1421 1419 1416 1414 1411 1409 1406 1404 1402 1401 1398 1397 1396 1394 1393 1392 1391 1389 1388 1387 1385 1384 1384 1384 1384 1384 1383 1382 1382 1382 1382 1385 0
0 0 0 0 0 0 0 0 0 0 0 0 0 0 0 0 0 0 0 0 0 0 0 0 0 0 0 0 0 0 0 0 0 0 0 0 0 0 0 0 2185 2158 2127 2081 2060 2048 2040 2037 2029 2029 2029 2031 2042 0 0 0 0 2094 2102 2110 2123 2134 2137 2142 2149 2157 2161 2167 2169 2169 2173 2183 2196 2210 2213 2214 2214 2215 2218 2218 2226 2231 2233 2233 2236 2242 2249 2260 2267 2274 2276 2277 2277 2278 2284 2288 2289 2291 2294 2299 2302 2305 2307 2307 2307 2307 2307 2309 2313 2315 2317 2319 2321 2323 2326 2331 2334 2339 2344 2349 2354 2361 2361 2362 2363 2367 2372 2375 2378 2381 2381 2384 2386 2388 2390 2392 2395 2398 2402 2406 2410 2412 2413 2415 2416 2419 2422 2424 2426 2427 2427 2427 2427 2427 2430 2434 2436 2437 2438 2439 2440 2440 2442 2443 2445 2446 2450 2453 2456 2458 2458 2459 2461 2465 2466 2468 2470 2472 2473 2475 2477 2480 2485 2489 2494 2497 2501 2503 2504 2504 2507 2512 2519 2524 2528 2531 2534 2540 2542 2542 2542 2539 2539 2538 2538 2539 2539 2539 2540 2541 2543 2543 2545 2545 2545 2546 2546 2546 2546 2545 2545 2545 2545 2546 2547 2547 2547 2545 2545 2545 2545 2547 2547 2547 2551 2560 2568 2573 2574 2579 2585 2588 2595 2599 2599 2599 2596 2592 2588 2580 2564 2546 2525 2498 0 0 0 2279 0 0 0 0 0 0 0 0 0 0 0 0 0 0 0 0 0 0 0 0 2598 2870 3080 3217 3233 3241 3244 3255 3326 3375 3405 3438 3461 3462 3462 3462 3454 3449 3438 3421 3413 3413 3407 3406 3404 3394 3379 3372 3345 3289 3226 3134 2956 2511 0 0 0 0 1554 1518 1474 1429 1397 1378 1373 1372 1371 1370 1367 1364 1362 1359 1356 1354 1351 1349 1346 1343 1340 1337 1334 1330 1328 1325 1321 1319 1315 1312 1310 1307 1304 1301 1296 1290 1283 1275 1267 1251 1221 1192 1183 1177 1170 1169 1168 1168 1168 1165 1162 1162 1162 1165 1168 1170 1170 1170 1176 1189 1201 1208 1214 1214 1215 1215 1215 1215 1215 1214 1212 1211 1209 1207 1206 1203 1201 1199 1197 1193 1190 1187 1183 1179 1170 1165 1161 1151 1138 1121 1112 1107 1102 1099 1097 1097 1095 1090 1085 1081 1081 1080 1080 1080 1081 1081 1084 1086 1087 1091 1095 1097 1103 1110 1114 1114 1114 1113 1113 1112 1112 1110 1109 1108 1106 1104 1103 1101 1099 1098 1097 1095 1093 1092 1090 1088 1087 1085 1082 1079 1076 1073 1069 1064 1059 1054 1049 1042 1038 1035 1032 1028 1025 1021 1019 1017 1016 1015 1013 1013 1012 1011 1010 1009 1009 1008 1008 1007 1006 1006 1006 1006 1007 1009 1011 1012 1013 1015 1015 1015 1015 1015 1015 1014 1013 1012 1010 1009 1007 1006 1004 1003 1002 1000 999 998 997 995 994 992 992 991 989 987 985 984 983 981 980 979 977 975 974 972 970 969 968 966 965 963 963 961 960 960 959 959 959 958 958 958 958 958 958 959 959 960 960 963 969 975 983 996 1021 0 0 0 0 1428 1440 1441 1441 1441 1440 1438 1438 1438 1438 1439 1439 1439 1439 1439 1439 1439 1439 1439 1438 1438 1438 1437 1437 1436 1436 1436 1435 1435 1435 1434 1433 1433 1432 1432 1431 1430 1430 1429 1427 1425 1424 1422 1421 1420 1418 1416 1414 1411 1409 1406 1404 1402 1401 1398 1397 1396 1394 1393 1392 1391 1390 1388 1386 1384 1384 1384 1384 1384 1384 1384 1384 1384 1387 1387 1387 0
0 0 0 0 0 0 0 0 0 0 0 0 0 0 0 0 0 0 0 0 0 0 0 0 0 0 0 0 0 0 0 0 0 0 0 0 0 0 0 0 0 2158 2127 2081 2057 2036 2014 2012 0 0 0 0 0 0 0 0 0 0 0 2064 2086 2107 2119 2129 2140 2146 2149 2154 2156 2158 2164 2172 2184 2196 2201 2202 2202 2203 2205 2210 2216 2223 2226 2228 2233 2238 2245 2252 2260 2264 2265 2269 2270 2274 2278 2282 2284 2286 2290 2294 2297 2299 2301 2301 2302 2302 2304 2307 2310 2313 2314 2317 2318 2320 2324 2326 2329 2332 2336 2341 2351 2357 2357 2358 2359 2363 2368 2371 2375 2378 2379 2381 2383 2386 2388 2390 2392 2394 2397 2402 2405 2408 2409 2411 2413 2416 2420 2421 2423 2423 2423 2423 2423 2424 2426 2429 2432 2433 2435 2436 2436 2437 2439 2440 2442 2444 2446 2448 2452 2452 2454 2455 2458 2461 2463 2466 2466 2468 2468 2472 2475 2480 2485 2488 2491 2496 2498 2499 2499 2500 2502 2507 2514 2517 2521 2525 2527 2530 2535 2535 2535 2531 2529 2529 2529 2530 2531 2531 2531 2532 2533 2537 2539 2539 2539 2539 2539 2539 2539 2539 2539 2539 2541 2541 2543 2543 2543 2543 2543 2543 2543 2543 2543 2544 2546 2553 2560 2566 2568 2572 2577 2581 2585 2587 2591 2591 2591 2590 2588 2579 2564 2545 2525 2494 0 0 2264 2229 2229 0 0 0 0 0 0 0 0 0 0 0 0 0 0 0 0 0 0 0 0 2542 2676 2795 2815 2873 2876 2897 2993 3179 3371 3426 3467 3467 3467 3462 3453 3448 3438 3421 3413 3408 3408 3407 3404 3394 3379 3372 3348 3301 3229 3136 2957 0 0 0 0 0 1550 1510 1468 1428 1397 1378 1373 1371 1371 1370 1367 1364 1361 1359 1356 1354 1352 1349 1346 1343 1340 1337 1334 1330 1328 1325 1321 1318 1315 1312 1309 1306 1303 1299 1295 1290 1281 1274 1266 1249 1221 1198 1188 1182 1176 1174 1172 1172 1170 1167 1166 1166 1166 1166 1168 1170 1170 1170 1176 1189 1202 1210 1214 1215 1215 1215 1214 1214 1214 1214 1212 1211 1209 1207 1205 1203 1201 1199 1197 1193 1190 1187 1182 1178 1170 1167 1161 1151 1138 1121 1112 1108 1104 1101 1101 1099 1096 1090 1085 1081 1081 1080 1080 1080 1081 1081 1084 1087 1091 1093 1096 1098 1105 1111 1112 1113 1113 1113 1112 1112 1111 1110 1108 1108 1106 1104 1103 1101 1099 1098 1096 1095 1093 1091 1089 1088 1086 1084 1082 1079 1076 1073 1068 1064 1059 1055 1050 1045 1039 1035 1032 1029 1025 1022 1020 1018 1017 1016 1015 1015 1015 1014 1012 1011 1009 1009 1009 1008 1007 1006 1006 1006 1008 1009 1011 1012 1014 1015 1016 1016 1016 1015 1015 1014 1013 1012 1011 1008 1007 1006 1004 1003 1002 1000 999 998 997 995 994 992 991 990 988 987 985 984 982 981 980 979 977 975 974 972 970 969 967 966 965 963 962 961 960 960 959 959 959 958 958 958 958 958 958 959 959 959 960 963 969 975 983 995 1014 0 0 0 0 1424 1440 1440 1440 1439 1439 1437 1437 1437 1438 1438 1438 1438 1438 1438 1438 1438 1438 1438 1438 1438 1437 1437 1436 1436 1436 1436 1435 1435 1434 1433 1433 1433 1432 1431 1431 1429 1428 1427 1426 1425 1424 1422 1421 1420 1418 1415 1413 1410 1408 1406 1404 1402 1401 1398 1397 1396 1394 1393 1392 1391 1390 1388 1385 1383 1383 1383 1383 1383 1383 1384 1384 1384 1387 1387 1387 0
0 0 0 0 0 0 0 0 0 0 0 0 0 0 0 0 0 0 0 0 0 0 0 0 0 0 0 0 0 0 0 0 0 0 0 0 0 0 0 0 0 0 0 0 0 0 0 0 0 0 0 0 0 0 0 0 0 0 0 0 0 2077 2103 2119 2133 2139 2142 2144 2147 2152 2158 2166 2176 2186 2193 2194 2194 2196 2198 2204 2210 2216 2222 2225 2227 2233 2239 2245 2250 2254 2255 2259 2262 2268 2274 2277 2278 2280 2285 2289 2293 2293 2295 2296 2299 2300 2302 2305 2307 2311 2312 2314 2316 2318 2320 2322 2323 2325 2330 2334 2339 2345 2351 2353 2355 2359 2364 2367 2372 2376 2378 2379 2379 2383 2385 2387 2388 2391 2394 2397 2400 2402 2404 2408 2410 2414 2417 2418 2418 2418 2419 2419 2419 2421 2424 2425 2427 2429 2429 2431 2432 2434 2435 2437 2439 2441 2443 2445 2446 2446 2448 2451 2454 2457 2461 2462 2463 2464 2467 2470 2475 2479 2483 2486 2490 2493 2494 2494 2495 2495 2497 2501 2506 2510 2512 2515 2519 2522 2526 2526 2526 2524 2521 2521 2521 2521 2525 2525 2526 2526 2527 2531 2533 2533 2534 2534 2534 2533 2534 2534 2534 2536 2537 2539 2539 2540 2540 2540 2540 2540 2541 2542 2542 2543 2545 2550 2556 2558 2561 2564 2570 2575 2577 2577 2577 2580 2580 2580 2578 2574 2563 2544 2524 2494 0 0 2200 2183 2183 0 0 0 0 0 0 2527 2573 2704 2704 2704 2665 2535 0 0 0 0 0 0 0 0 0 0 0 0 0 0 2749 2911 3134 3409 3467 3467 3467 3462 3452 3448 3437 3424 3413 3411 3408 3403 3393 3387 3375 3372 3348 3303 3241 3136 2956 0 0 0 0 0 1548 1510 1466 1424 1397 1378 1373 1371 1371 1370 1367 1363 1361 1358 1356 1354 1352 1349 1346 1343 1340 1336 1334 1330 1328 1324 1321 1318 1315 1311 1308 1305 1302 1298 1294 1289 1281 1273 1265 1248 1221 1204 1195 1189 1185 1181 1177 1175 1173 1170 1169 1169 1169 1172 1172 1172 1173 1173 1176 1189 1202 1210 1214 1215 1215 1215 1214 1214 1214 1213 1212 1211 1208 1207 1204 1203 1201 1199 1196 1193 1189 1186 1182 1177 1172 1168 1161 1152 1140 1124 1112 1109 1108 1105 1104 1102 1098 1090 1085 1084 1084 1083 1083 1084 1084 1084 1086 1089 1093 1095 1098 1101 1105 1112 1112 1112 1112 1112 1112 1112 1111 1110 1108 1107 1105 1104 1102 1101 1099 1097 1096 1095 1093 1091 1089 1088 1085 1083 1081 1078 1075 1072 1068 1064 1060 1055 1050 1045 1040 1035 1032 1029 1026 1023 1021 1019 1017 1017 1017 1017 1016 1014 1012 1011 1010 1010 1009 1009 1008 1008 1008 1008 1009 1010 1011 1012 1014 1015 1016 1016 1016 1015 1015 1014 1013 1012 1010 1009 1007 1006 1004 1003 1001 1000 999 997 996 994 993 992 991 989 988 986 985 984 982 981 980 978 977 975 974 972 970 969 967 966 965 963 962 961 960 960 959 959 958 958 957 957 957 958 958 959 959 960 960 961 964 970 977 988 1009 0 0 0 0 1423 1435 1437 1437 1437 1437 1437 1437 1437 1437 1438 1438 1438 1438 1438 1438 1437 1437 1437 1437 1437 1437 1437 1436 1436 1436 1435 1434 1434 1433 1433 1432 1432 1432 1431 1429 1429 1427 1426 1425 1424 1423 1422 1421 1420 1418 1415 1413 1410 1407 1405 1403 1401 1399 1398 1396 1396 1394 1393 1393 1392 1390 1388 1384 1382 1382 1382 1382 1381 1381 1381 1381 1384 1387 1387 1387 0
0 0 0 0 0 0 0 0 0 0 0 0 0 0 0 0 0 0 0 0 0 0 0 0 0 0 0 0 0 0 0 0 0 0 0 0 0 0 0 0 0 0 0 0 0 0 0 0 0 0 0 0 0 0 0 0 0 0 0 0 0 0 2086 2110 2122 2130 2130 2134 2140 2146 2150 2158 2168 2177 2185 2188 2190 2192 2194 2198 2205 2212 2216 2219 2220 2225 2232 2239 2243 2246 2248 2252 2255 2261 2267 2271 2274 2277 2280 2285 2287 2288 2288 2292 2294 2297 2300 2302 2306 2308 2311 2314 2315 2315 2317 2318 2319 2320 2324 2328 2334 2342 2349 2350 2353 2357 2362 2365 2369 2374 2376 2376 2377 2379 2382 2384 2386 2387 2389 2393 2395 2397 2400 2402 2404 2407 2411 2413 2413 2413 2413 2414 2417 2419 2421 2421 2421 2423 2425 2427 2428 2429 2430 2432 2436 2439 2441 2442 2442 2443 2443 2446 2451 2454 2455 2456 2458 2461 2465 2469 2473 2477 2479 2483 2487 2489 2489 2489 2489 2489 2492 2495 2498 2502 2504 2507 2512 2517 2521 2521 2521 2519 2518 2517 2517 2517 2520 2521 2522 2522 2522 2526 2530 2530 2530 2530 2530 2529 2529 2529 2531 2533 2534 2534 2534 2535 2536 2536 2537 2537 2537 2537 2539 2540 2545 2550 2555 2555 2556 2559 2562 2563 2563 2563 2562 2562 2562 2562 2562 2560 2556 2540 2524 2494 0 0 2157 2156 2156 0 0 0 0 0 2595 2693 2747 2798 2841 2841 2841 2785 2724 2620 0 0 0 0 0 0 0 0 0 0 0 0 0 2650 3015 3348 3464 3464 3464 3457 3452 3447 3437 3424 3414 3412 3408 3403 3391 3378 3367 3358 3348 3303 3241 3134 2951 0 0 0 0 0 0 1510 1465 1419 1395 1377 1373 1371 1370 1370 1367 1363 1361 1358 1356 1354 1352 1349 1346 1342 1339 1336 1333 1330 1328 1324 1320 1318 1314 1311 1308 1304 1301 1297 1293 1288 1280 1273 1265 1248 1223 1213 1208 1199 1193 1188 1183 1181 1175 1172 1172 1172 1173 1175 1175 1175 1178 1178 1182 1190 1201 1210 1214 1215 1215 1215 1214 1214 1213 1212 1211 1209 1208 1206 1204 1202 1200 1198 1195 1192 1189 1184 1181 1175 1172 1168 1161 1154 1144 1132 1118 1113 1110 1105 1105 1104 1100 1092 1089 1088 1088 1087 1087 1086 1086 1086 1089 1091 1094 1097 1100 1102 1106 1112 1112 1112 1112 1112 1112 1112 1111 1110 1108 1107 1105 1103 1102 1101 1099 1097 1095 1094 1092 1090 1088 1087 1084 1082 1080 1077 1075 1072 1068 1064 1060 1055 1050 1045 1040 1035 1032 1030 1026 1024 1021 1019 1019 1018 1017 1017 1016 1014 1013 1011 1010 1010 1009 1009 1009 1009 1009 1009 1010 1010 1011 1012 1014 1015 1015 1015 1015 1015 1015 1014 1013 1012 1010 1009 1007 1006 1004 1003 1001 1000 998 997 996 994 993 992 990 989 988 986 985 984 982 981 979 978 976 975 974 971 970 969 967 966 965 963 962 961 961 960 959 959 958 958 957 957 957 957 958 959 959 959 960 960 963 969 977 984 998 0 0 0 0 1422 1430 1433 1435 1435 1436 1436 1436 1436 1437 1437 1437 1437 1437 1437 1437 1437 1437 1437 1437 1437 1437 1436 1436 1435 1435 1435 1434 1433 1432 1432 1431 1430 1430 1429 1429 1428 1426 1426 1425 1424 1422 1420 1420 1419 1417 1414 1412 1409 1407 1405 1403 1401 1399 1397 1396 1395 1394 1393 1393 1391 1390 1386 1384 1382 1382 1382 1381 1380 1378 1378 1378 1380 1383 1383 1383 0
0 0 0 0 0 0 0 0 0 0 0 0 0 0 0 0 0 0 0 0 0 0 0 0 0 0 0 0 0 0 0 0 0 0 0 0 0 0 0 0 0 0 0 0 0 0 0 0 0 0 0 0 0 0 0 0 0 0 0 0 0 0 0 2092 2102 2107 2116 2120 2127 2135 2142 2149 2157 2168 2176 2181 2184 2187 2190 2194 2199 2204 2209 2211 2215 2221 2228 2234 2239 2244 2248 2252 2255 2259 2263 2268 2271 2274 2278 2281 2283 2283 2284 2286 2290 2293 2297 2300 2303 2306 2309 2311 2312 2312 2312 2313 2315 2317 2319 2325 2332 2340 2346 2349 2351 2355 2359 2362 2367 2371 2373 2374 2375 2377 2380 2382 2383 2384 2385 2388 2391 2394 2396 2397 2399 2399 2402 2405 2406 2407 2408 2409 2412 2415 2416 2417 2417 2418 2420 2422 2425 2427 2428 2429 2433 2438 2439 2439 2439 2439 2439 2442 2446 2448 2448 2450 2455 2458 2462 2467 2472 2477 2479 2481 2484 2484 2485 2485 2485 2485 2489 2491 2492 2495 2498 2505 2511 2515 2518 2518 2518 2518 2518 2517 2515 2515 2515 2517 2517 2518 2519 2523 2526 2526 2526 2526 2526 2526 2526 2526 2528 2530 2530 2530 2529 2529 2529 2530 2532 2532 2532 2532 2535 2538 2541 2547 2549 2549 2550 2554 2554 2554 2551 2548 2547 2547 2548 2548 2548 2548 2544 2534 2515 2489 0 0 0 2152 0 0 0 0 0 2528 2664 2761 2807 2829 2858 2858 2858 2834 2807 2746 2629 0 0 0 0 0 0 0 0 0 0 0 0 0 3002 3330 3451 3451 3451 3446 3445 3444 3437 3424 3414 3412 3407 3399 3389 3372 3358 3348 3340 3303 3241 3134 2924 0 0 0 0 0 0 0 0 0 1394 1377 1374 1371 1371 1370 1366 1363 1360 1358 1356 1354 1351 1348 1345 1341 1338 1335 1333 1330 1327 1323 1320 1316 1313 1310 1306 1303 1300 1296 1292 1288 1280 1274 1266 1249 1230 1216 1209 1202 1196 1192 1191 1186 1180 1176 1175 1175 1175 1177 1177 1177 1178 1178 1184 1193 1200 1209 1214 1214 1214 1214 1213 1213 1212 1211 1210 1208 1206 1205 1203 1201 1199 1197 1194 1191 1188 1183 1179 1175 1172 1168 1161 1154 1145 1134 1119 1115 1110 1107 1105 1104 1102 1095 1092 1090 1089 1089 1087 1086 1086 1086 1089 1092 1096 1098 1102 1104 1107 1111 1112 1112 1112 1112 1111 1111 1110 1109 1107 1106 1105 1103 1101 1100 1098 1096 1095 1093 1091 1089 1088 1086 1084 1082 1079 1076 1075 1071 1068 1064 1060 1055 1050 1045 1040 1035 1032 1030 1028 1025 1023 1021 1021 1020 1019 1017 1016 1015 1013 1012 1011 1010 1010 1010 1010 1010 1010 1011 1011 1011 1012 1013 1014 1014 1015 1015 1015 1015 1015 1013 1012 1012 1010 1008 1006 1005 1004 1002 1001 999 998 996 995 994 992 991 990 989 987 986 984 983 982 981 979 978 976 975 974 971 970 968 967 966 964 963 962 961 961 960 959 958 958 958 957 957 957 957 958 958 958 958 958 958 961 969 977 984 998 0 0 0 0 1415 1429 1430 1432 1433 1435 1435 1436 1436 1436 1437 1437 1437 1437 1437 1437 1437 1437 1437 1437 1437 1437 1436 1436 1435 1434 1434 1432 1432 1431 1431 1431 1430 1429 1429 1427 1427 1425 1425 1424 1422 1421 1419 1418 1416 1414 1413 1411 1408 1406 1404 1402 1400 1398 1396 1395 1394 1393 1393 1392 1391 1389 1386 1384 1382 1381 1381 1380 1379 1377 1377 1377 1377 1380 1380 1381 0
0 0 0 0 0 767 771 787 794 794 0 0 0 0 0 0 0 0 0 0 0 0 0 0 0 0 0 0 0 0 0 0 0 0 0 0 0 0 0 0 0 0 0 0 0 0 0 0 0 0 0 0 0 0 0 0 0 0 0 0 0 0 0 0 2085 2091 2100 2105 2115 2124 2130 2139 2147 2156 2164 2171 2175 2180 2184 2187 2191 2198 2202 2207 2211 2218 2226 2233 2239 2243 2247 2251 2254 2259 2263 2266 2269 2272 2276 2278 2280 2280 2282 2283 2286 2290 2293 2297 2300 2305 2307 2307 2308 2308 2308 2310 2312 2314 2317 2323 2330 2338 2343 2346 2349 2353 2357 2361 2364 2367 2370 2371 2373 2376 2378 2378 2378 2379 2379 2382 2386 2389 2392 2392 2393 2393 2395 2398 2400 2403 2405 2407 2411 2412 2412 2412 2414 2414 2416 2418 2422 2427 2428 2429 2431 2435 2435 2435 2436 2436 2436 2438 2440 2441 2442 2445 2450 2456 2461 2467 2472 2476 2479 2481 2483 2483 2483 2482 2482 2482 2484 2485 2486 2489 2498 2504 2510 2514 2516 2517 2517 2517 2517 2517 2512 2509 2509 2509 2512 2512 2515 2517 2519 2519 2520 2521 2521 2522 2523 2523 2526 2526 2526 2526 2524 2524 2524 2524 2527 2527 2527 2528 2528 2531 2534 2536 2537 2539 2542 2554 2554 2554 2547 2542 2541 2541 2539 2538 2528 2526 2523 2521 2510 2487 0 0 0 0 0 0 0 0 0 2565 2691 2776 2820 2851 2860 2860 2860 2839 2819 2754 2671 2552 0 0 0 0 0 0 0 0 0 0 0 0 2990 3330 3426 3433 3433 3433 3433 3431 3426 3417 3414 3412 3406 3397 3384 3372 3351 3344 3328 3283 3222 3129 2924 0 0 0 0 0 0 0 0 0 1391 1376 1374 1373 1371 1368 1365 1362 1360 1358 1355 1353 1350 1347 1343 1340 1338 1335 1332 1328 1325 1322 1319 1316 1313 1308 1305 1302 1300 1296 1292 1288 1281 1275 1267 1254 1238 1222 1212 1202 1197 1195 1194 1193 1186 1179 1178 1178 1178 1178 1178 1178 1178 1178 1185 1194 1200 1207 1214 1214 1214 1213 1213 1212 1211 1209 1208 1206 1205 1204 1202 1200 1197 1194 1191 1189 1186 1182 1178 1174 1171 1167 1161 1154 1145 1134 1119 1115 1110 1108 1108 1105 1102 1099 1094 1093 1091 1090 1088 1087 1087 1087 1089 1093 1096 1098 1102 1104 1107 1111 1112 1112 1112 1112 1110 1110 1109 1109 1107 1106 1103 1102 1100 1099 1098 1096 1094 1093 1091 1088 1087 1085 1083 1081 1079 1076 1074 1071 1068 1064 1060 1054 1050 1045 1040 1036 1032 1030 1028 1025 1023 1022 1022 1021 1019 1017 1016 1015 1013 1012 1011 1011 1011 1011 1010 1010 1010 1011 1012 1012 1012 1013 1014 1014 1015 1015 1015 1015 1014 1013 1012 1011 1010 1008 1006 1005 1003 1002 1000 999 998 996 995 993 992 991 990 989 987 985 984 983 981 980 979 977 976 974 973 971 970 968 966 965 964 963 962 961 961 959 959 958 958 957 956 956 956 956 957 958 958 958 958 958 961 968 980 984 998 0 0 0 0 1411 1426 1427 1431 1432 1433 1436 1436 1436 1436 1436 1437 1437 1437 1437 1437 1437 1437 1437 1437 1437 1437 1436 1436 1434 1434 1433 1432 1432 1431 1430 1429 1428 1428 1428 1427 1426 1425 1425 1424 1421 1419 1418 1416 1415 1413 1410 1408 1406 1405 1404 1400 1400 1397 1396 1395 1393 1393 1392 1392 1390 1389 1385 1383 1382 1381 1381 1379 1378 1375 1373 1373 1373 1380 1380 1380 0
0 0 0 0 765 767 771 773 787 787 790 0 0 0 0 0 0 0 0 0 0 0 0 0 0 0 0 0 0 0 0 0 0 0 0 0 0 0 0 0 0 0 0 0 0 0 0 0 0 0 0 0 0 0 0 0 0 0 0 0 0 0 0 0 2067 2080 2089 2093 2104 2115 2124 2131 2137 2144 2150 2158 2165 2172 2176 2179 2184 2189 2196 2202 2209 2217 2225 2233 2238 2242 2246 2250 2254 2258 2262 2265 2267 2269 2273 2275 2278 2279 2279 2282 2283 2286 2289 2294 2297 2301 2304 2304 2304 2304 2304 2307 2308 2312 2316 2321 2327 2334 2340 2343 2346 2349 2353 2358 2359 2365 2367 2370 2371 2372 2372 2372 2372 2371 2371 2371 2376 2382 2386 2387 2388 2390 2390 2392 2395 2400 2403 2406 2408 2408 2408 2408 2409 2410 2412 2416 2421 2425 2426 2426 2428 2430 2430 2430 2430 2430 2430 2434 2435 2436 2436 2439 2446 2454 2461 2466 2472 2476 2478 2481 2481 2481 2480 2480 2480 2480 2480 2483 2483 2488 2495 2500 2505 2508 2513 2515 2516 2516 2516 2515 2512 2504 2502 2502 2502 2504 2507 2508 2509 2511 2514 2515 2515 2516 2516 2521 2526 2526 2526 2525 2524 2523 2523 2523 2522 2522 2522 2522 2522 2521 2521 2521 2517 2517 2517 2534 2538 2538 2538 2534 2527 2525 2523 2516 2499 2499 2491 2491 2488 0 0 0 0 0 0 0 0 0 0 2572 2694 2776 2828 2852 2861 2861 2861 2839 2819 2766 2683 2579 2510 0 0 0 0 0 0 0 0 0 0 0 2990 3330 3417 3420 3421 3421 3421 3418 3417 3417 3413 3409 3402 3394 3382 3366 3351 3340 3314 3268 3202 3128 2907 0 0 0 0 0 0 0 0 0 1388 1375 1374 1373 1370 1367 1365 1361 1359 1357 1355 1352 1349 1345 1342 1338 1337 1334 1330 1325 1323 1321 1317 1315 1311 1307 1304 1301 1298 1294 1291 1288 1280 1275 1267 1254 1241 1222 1212 1205 1199 1196 1195 1195 1189 1182 1179 1178 1178 1178 1178 1178 1179 1179 1185 1193 1200 1207 1213 1213 1213 1213 1212 1211 1210 1208 1206 1204 1204 1202 1200 1198 1195 1191 1189 1186 1184 1181 1176 1173 1170 1166 1160 1154 1145 1134 1119 1115 1112 1110 1110 1105 1102 1099 1095 1094 1091 1090 1088 1088 1088 1088 1090 1094 1097 1099 1102 1104 1107 1110 1112 1112 1112 1111 1110 1109 1109 1108 1106 1105 1103 1101 1100 1099 1097 1094 1093 1092 1090 1088 1086 1084 1083 1081 1079 1076 1073 1071 1067 1063 1058 1054 1050 1045 1040 1036 1033 1030 1028 1026 1024 1023 1022 1022 1019 1017 1016 1015 1014 1013 1012 1011 1011 1011 1011 1011 1011 1011 1012 1012 1012 1013 1014 1014 1015 1015 1015 1014 1014 1012 1012 1011 1009 1007 1006 1004 1003 1002 1000 998 997 996 994 993 992 990 990 987 986 984 983 982 980 979 978 976 975 974 973 971 970 968 966 965 964 963 962 961 960 959 959 958 958 957 956 956 956 956 956 957 957 958 958 959 961 969 980 991 996 0 0 0 0 0 1426 1427 1431 1432 1433 1435 1436 1436 1436 1436 1437 1437 1437 1437 1437 1437 1437 1437 1437 1437 1437 1436 1436 1434 1434 1433 1432 1431 1431 1430 1429 1428 1427 1427 1426 1426 1425 1424 1422 1420 1418 1417 1415 1413 1411 1408 1406 1405 1403 1402 1400 1398 1397 1395 1394 1392 1391 1391 1389 1389 1387 1385 1383 1382 1381 1380 1377 1375 1369 1369 1369 1372 1378 1378 1378 0
0 0 0 0 792 792 792 792 787 773 773 773 781 0 0 0 0 0 0 0 0 0 0 0 0 0 0 0 0 0 0 0 0 0 0 0 0 0 0 0 0 0 0 0 0 0 0 0 0 0 0 0 0 0 0 1602 1616 1627 0 0 0 0 0 0 2059 2077 2086 2090 2101 2108 2117 2124 2131 2140 2147 2150 2157 2164 2170 2178 2182 2185 2190 2196 2202 2213 2222 2228 2234 2240 2245 2248 2251 2255 2259 2261 2264 2268 2271 2272 2275 2276 2277 2279 2280 2281 2286 2290 2294 2296 2299 2299 2299 2300 2304 2306 2307 2307 2311 2317 2323 2330 2334 2338 2341 2345 2350 2356 2358 2362 2364 2365 2365 2365 2365 2364 2363 2363 2363 2367 2372 2377 2381 2383 2385 2387 2388 2389 2391 2397 2402 2405 2405 2405 2404 2404 2404 2406 2409 2413 2419 2422 2422 2423 2423 2423 2424 2426 2426 2426 2426 2428 2428 2428 2429 2431 2440 2453 2460 2466 2469 2474 2476 2479 2479 2479 2478 2478 2478 2478 2479 2480 2482 2487 2490 2493 2496 2502 2505 2510 2511 2514 2514 2514 2510 2499 2492 2492 2492 2495 2496 2498 2498 2501 2506 2509 2511 2512 2513 2518 2522 2524 2524 2524 2524 2523 2522 2522 2520 2518 2517 2516 2516 2516 2515 2511 2500 2500 2500 2503 2504 2505 2505 2503 2503 2500 2496 2481 2465 2462 2460 2456 2455 0 0 0 0 0 0 0 0 0 0 2579 2695 2776 2828 2860 2867 2867 2867 2853 2819 2766 2683 2579 2510 0 0 0 0 0 0 0 0 0 0 0 2990 3332 3417 3417 3417 3413 3411 3407 3407 3407 3406 3401 3391 3382 3363 3325 3311 3305 3287 3252 3194 3116 2889 0 0 0 0 0 0 0 0 0 1387 1375 1374 1373 1370 1367 1364 1361 1359 1356 1354 1351 1347 1344 1340 1337 1334 1331 1327 1324 1320 1318 1316 1313 1310 1306 1303 1299 1297 1293 1289 1286 1280 1275 1267 1254 1241 1222 1212 1207 1201 1197 1196 1195 1193 1186 1181 1178 1178 1178 1178 1178 1179 1179 1184 1191 1200 1207 1213 1213 1213 1213 1211 1210 1209 1207 1205 1203 1201 1199 1197 1195 1192 1190 1187 1183 1180 1177 1175 1173 1168 1163 1157 1150 1140 1131 1119 1116 1114 1113 1110 1106 1103 1100 1096 1096 1095 1093 1091 1088 1088 1088 1093 1097 1098 1099 1102 1104 1107 1110 1112 1112 1112 1111 1110 1109 1108 1108 1106 1104 1102 1100 1098 1097 1095 1093 1092 1090 1088 1087 1085 1083 1081 1080 1078 1075 1073 1070 1067 1063 1058 1054 1050 1045 1041 1036 1034 1031 1029 1026 1024 1024 1023 1022 1020 1018 1017 1016 1015 1013 1012 1012 1012 1011 1011 1011 1011 1011 1012 1013 1013 1013 1014 1014 1014 1014 1014 1014 1013 1012 1011 1009 1009 1007 1005 1004 1002 1000 999 997 996 995 994 992 991 989 989 987 985 984 982 981 980 978 977 976 975 973 972 971 969 968 966 965 964 963 962 961 960 959 959 958 957 957 956 956 956 956 956 957 957 958 958 959 961 969 980 991 996 0 0 0 0 0 1427 1427 1432 1432 1432 1434 1435 1435 1436 1437 1437 1437 1437 1437 1437 1438 1438 1438 1438 1437 1437 1436 1436 1434 1434 1433 1432 1431 1431 1430 1428 1427 1427 1426 1426 1426 1425 1423 1421 1420 1417 1415 1414 1412 1411 1408 1405 1403 1402 1401 1399 1398 1396 1394 1392 1390 1389 1389 1388 1387 1385 1384 1382 1381 1380 1378 1376 1373 1369 1369 1369 1369 1378 1378 1378 0
0 0 0 0 792 792 792 792 771 766 766 766 775 779 0 0 0 0 0 0 0 0 0 0 0 0 0 0 0 0 0 0 0 0 0 0 0 0 0 0 0 0 0 0 0 0 0 0 0 0 0 0 0 0 1575 1599 1614 1626 1642 0 0 0 0 0 2047 2066 2083 2088 2097 2106 2112 2121 2130 2140 2147 2149 2155 2162 2169 2175 2179 2185 2188 2191 2195 2205 2212 2219 2227 2235 2240 2242 2246 2249 2252 2257 2260 2265 2267 2269 2270 2271 2272 2274 2276 2278 2283 2288 2291 2292 2292 2292 2293 2296 2303 2305 2305 2305 2305 2310 2317 2321 2325 2330 2337 2343 2349 2353 2355 2356 2356 2356 2356 2356 2356 2356 2356 2357 2362 2367 2372 2375 2379 2380 2383 2385 2386 2387 2388 2393 2399 2403 2403 2403 2401 2401 2401 2402 2404 2410 2415 2418 2418 2418 2418 2419 2419 2423 2423 2423 2424 2423 2422 2423 2423 2423 2433 2445 2453 2458 2462 2466 2470 2474 2474 2474 2474 2474 2474 2476 2477 2478 2480 2481 2483 2483 2486 2494 2500 2504 2505 2507 2510 2510 2510 2498 2487 2487 2487 2487 2487 2488 2490 2491 2498 2502 2504 2506 2508 2513 2518 2521 2523 2523 2523 2522 2522 2522 2519 2514 2512 2512 2511 2511 2509 2505 2490 2483 2469 2469 2469 2472 2473 2473 2473 2473 2467 2446 2422 2421 2421 2414 2407 0 0 0 0 0 0 0 0 0 0 2587 2695 2776 2827 2860 2867 2867 2867 2852 2818 2766 2671 2579 2510 0 0 0 0 0 0 0 0 0 0 0 3009 3341 3417 3417 3417 3413 3403 3394 3389 3386 3386 3384 3373 3362 3326 3307 3305 3288 3287 3251 3193 3110 2879 0 0 0 0 0 0 0 0 1404 1381 1375 1374 1373 1370 1366 1364 1361 1359 1355 1352 1349 1347 1342 1339 1335 1333 1328 1325 1323 1320 1318 1315 1311 1308 1306 1301 1298 1295 1293 1289 1285 1279 1273 1261 1251 1241 1215 1212 1208 1203 1203 1202 1202 1200 1193 1184 1179 1179 1179 1179 1179 1180 1180 1181 1191 1200 1207 1211 1212 1212 1211 1210 1209 1207 1206 1203 1200 1198 1196 1195 1193 1190 1188 1186 1182 1178 1175 1173 1171 1167 1161 1157 1150 1140 1131 1119 1117 1116 1115 1110 1108 1104 1100 1100 1100 1100 1100 1098 1098 1098 1098 1100 1100 1101 1101 1102 1104 1107 1110 1111 1111 1111 1110 1109 1108 1108 1106 1104 1103 1100 1098 1098 1096 1094 1092 1090 1089 1087 1085 1083 1082 1079 1078 1077 1075 1072 1070 1066 1062 1058 1054 1050 1047 1041 1038 1034 1031 1029 1028 1026 1024 1023 1022 1020 1020 1019 1017 1016 1014 1013 1013 1013 1012 1011 1011 1011 1012 1013 1013 1013 1013 1013 1013 1013 1013 1013 1013 1012 1011 1010 1009 1008 1006 1005 1003 1002 1000 998 997 995 994 993 991 990 988 987 986 984 982 982 981 979 978 976 975 974 973 971 971 969 968 966 966 964 964 962 962 960 959 958 958 957 956 956 956 956 956 956 957 957 958 958 959 961 970 980 991 999 1017 0 0 0 0 1427 1432 1432 1432 1432 1434 1435 1435 1436 1437 1437 1437 1437 1437 1438 1438 1438 1438 1438 1438 1437 1436 1436 1435 1434 1433 1432 1431 1430 1429 1428 1427 1427 1426 1425 1425 1424 1423 1421 1419 1415 1414 1413 1411 1410 1407 1405 1403 1401 1399 1398 1396 1395 1392 1390 1389 1388 1388 1387 1385 1383 1382 1381 1380 1378 1377 1375 1373 1369 1367 1367 1367 1376 1376 1377 0
0 0 0 0 0 792 792 792 769 763 762 762 762 763 765 0 0 0 0 0 0 0 0 0 0 0 0 0 0 0 0 0 0 0 0 0 0 0 0 0 0 0 0 0 0 0 0 0 0 0 0 0 0 0 0 1594 1608 1624 0 0 0 0 0 0 2036 2054 2071 2073 2086 2098 2106 2115 2127 2138 2145 2148 2153 2159 2168 2174 2179 2185 2187 2188 2190 2195 2201 2209 2218 2229 2236 2239 2243 2245 2248 2252 2257 2261 2263 2264 2264 2264 2264 2265 2269 2276 2283 2285 2285 2286 2286 2286 2288 2294 2302 2303 2303 2303 2303 2303 2304 2310 2317 2325 2332 2338 2344 2345 2345 2345 2345 2345 2345 2347 2349 2350 2351 2356 2361 2366 2371 2375 2377 2378 2380 2383 2385 2387 2387 2389 2393 2397 2400 2400 2400 2399 2399 2399 2400 2406 2411 2414 2415 2415 2416 2417 2417 2420 2420 2420 2420 2420 2420 2420 2421 2422 2428 2436 2443 2447 2450 2454 2459 2465 2468 2468 2468 2468 2468 2472 2475 2475 2475 2474 2474 2474 2480 2488 2496 2497 2497 2499 2506 2506 2506 2495 2483 2483 2483 2480 2482 2484 2484 2485 2490 2497 2500 2502 2505 2510 2516 2518 2520 2521 2521 2522 2522 2522 2518 2514 2512 2512 2511 2511 2508 2497 2484 2471 2459 2458 2457 2455 2455 2445 2421 2408 2400 2385 2378 2378 2378 2374 2374 2369 0 0 0 0 0 0 0 0 0 2587 2700 2779 2831 2860 2861 2861 2861 2839 2818 2745 2652 2577 2507 0 0 0 0 0 0 0 0 0 0 0 3009 3341 3416 3416 3416 3413 3403 3389 3377 3373 3372 3371 3359 3345 3315 3307 3296 3288 3287 3248 3191 3090 2879 0 0 0 0 0 0 0 1419 1393 1378 1374 1373 1373 1369 1365 1363 1360 1357 1355 1352 1349 1346 1342 1338 1334 1330 1327 1322 1320 1318 1313 1310 1308 1304 1303 1299 1296 1294 1291 1289 1283 1278 1270 1260 1247 1230 1215 1212 1211 1211 1210 1209 1208 1207 1200 1189 1182 1180 1180 1179 1179 1180 1181 1181 1191 1201 1211 1211 1211 1211 1211 1209 1206 1205 1203 1202 1199 1196 1195 1193 1191 1189 1187 1184 1179 1177 1175 1172 1170 1166 1161 1155 1149 1140 1131 1122 1122 1121 1116 1112 1111 1109 1106 1105 1105 1105 1107 1107 1107 1107 1107 1106 1103 1103 1103 1103 1104 1107 1110 1110 1110 1110 1109 1108 1107 1106 1105 1103 1100 1099 1097 1095 1094 1092 1091 1088 1087 1085 1083 1082 1079 1078 1077 1075 1073 1070 1068 1064 1060 1058 1054 1050 1047 1041 1038 1034 1032 1030 1029 1026 1026 1024 1023 1021 1021 1020 1018 1017 1016 1015 1015 1013 1012 1012 1012 1013 1013 1013 1013 1013 1013 1013 1013 1013 1013 1012 1011 1011 1009 1009 1008 1007 1005 1003 1002 1000 999 997 995 994 993 991 990 988 987 986 984 984 982 981 980 978 977 976 975 973 972 971 970 969 968 967 966 964 964 963 962 960 959 958 957 957 956 955 955 955 955 956 957 957 957 958 959 961 970 979 991 996 1014 0 0 0 0 1428 1432 1432 1432 1433 1434 1435 1435 1437 1437 1438 1438 1438 1438 1438 1438 1438 1438 1438 1438 1437 1436 1436 1435 1434 1433 1432 1431 1430 1429 1428 1427 1426 1425 1424 1423 1423 1422 1420 1418 1415 1414 1413 1411 1410 1407 1405 1402 1401 1398 1397 1395 1393 1391 1390 1389 1387 1385 1385 1384 1383 1381 1380 1379 1377 1376 1375 1373 1372 1366 1366 1366 1369 1369 1370 0
615 0 0 0 0 0 0 744 742 742 742 762 762 763 765 773 0 0 0 0 0 0 0 0 0 0 0 0 0 0 0 0 0 0 0 0 0 0 0 0 0 0 0 0 0 0 0 0 0 0 0 0 0 0 0 0 0 0 0 0 0 0 0 0 2029 2042 2055 2070 2074 2084 2094 2106 2118 2129 2136 2139 2143 2152 2164 2173 2179 2182 2186 2187 2188 2190 2195 2203 2214 2227 2236 2239 2242 2243 2245 2250 2255 2259 2259 2259 2258 2258 2258 2259 2264 2272 2281 2281 2281 2281 2281 2281 2284 2290 2297 2300 2300 2300 2299 2299 2299 2302 2312 2321 2327 2331 2333 2335 2335 2335 2335 2335 2336 2341 2344 2347 2350 2355 2361 2365 2371 2374 2375 2377 2378 2382 2384 2385 2385 2387 2387 2390 2394 2397 2397 2397 2397 2397 2398 2403 2408 2410 2410 2410 2411 2411 2413 2415 2416 2416 2417 2418 2418 2419 2419 2422 2428 2435 2436 2437 2440 2442 2445 2453 2463 2463 2463 2464 2464 2465 2465 2465 2465 2465 2465 2468 2474 2484 2486 2487 2488 2490 2498 2498 2498 2487 2476 2475 2475 2475 2477 2477 2482 2485 2490 2492 2497 2498 2504 2508 2511 2515 2515 2517 2517 2519 2519 2519 2518 2514 2512 2510 2510 2509 2505 2496 2484 2470 2454 2451 2450 2442 2440 2425 2401 2385 2377 2365 2365 2365 2366 2366 2366 2351 0 0 0 0 0 0 0 0 0 2593 2709 2787 2831 2860 2861 2861 2861 2833 2814 2726 2638 2552 0 0 0 0 0 0 0 0 0 0 0 0 3009 3341 3415 3415 3415 3413 3402 3389 3377 3372 3371 3370 3359 3345 3315 3307 3296 3288 3287 3242 3176 3074 2879 0 0 0 0 0 0 0 1415 1392 1375 1373 1371 1371 1366 1364 1361 1359 1356 1353 1352 1349 1346 1339 1330 1326 1321 1318 1317 1315 1311 1306 1304 1302 1300 1299 1298 1296 1294 1290 1286 1282 1277 1267 1257 1241 1230 1215 1213 1213 1212 1212 1213 1211 1210 1208 1200 1191 1187 1184 1184 1182 1181 1181 1181 1191 1201 1211 1211 1211 1210 1209 1207 1205 1203 1200 1196 1194 1194 1193 1190 1187 1186 1185 1182 1177 1175 1173 1171 1168 1165 1160 1155 1149 1140 1135 1130 1128 1125 1122 1119 1116 1116 1116 1115 1115 1114 1114 1114 1113 1110 1107 1106 1104 1104 1104 1104 1105 1108 1110 1110 1110 1109 1109 1107 1106 1104 1102 1100 1098 1097 1096 1094 1094 1092 1089 1087 1084 1082 1081 1079 1077 1077 1074 1072 1071 1068 1066 1063 1060 1058 1053 1050 1047 1042 1038 1035 1033 1032 1030 1030 1030 1028 1025 1024 1023 1022 1020 1019 1017 1016 1016 1015 1015 1014 1014 1014 1014 1014 1014 1013 1013 1013 1013 1013 1012 1011 1011 1009 1008 1007 1006 1005 1003 1002 1001 999 998 996 994 992 991 989 988 986 985 985 984 983 981 980 978 977 976 975 974 973 972 971 970 969 967 967 966 964 964 963 962 960 959 958 957 957 956 955 955 955 955 956 957 957 957 957 959 961 970 977 986 996 1009 0 0 0 0 1431 1432 1432 1432 1433 1434 1435 1435 1437 1438 1438 1438 1438 1438 1438 1438 1439 1439 1439 1438 1437 1437 1436 1435 1434 1433 1432 1431 1430 1429 1428 1427 1425 1424 1423 1423 1422 1420 1419 1418 1415 1414 1413 1411 1410 1407 1404 1402 1401 1398 1396 1394 1392 1390 1388 1386 1386 1383 1382 1382 1381 1380 1379 1377 1376 1375 1375 1375 1373 1365 1363 1362 1362 1362 1363 0
612 612 0 0 0 0 0 721 721 723 742 763 763 765 773 773 0 0 0 0 0 0 0 0 0 0 0 0 0 0 0 0 0 0 0 0 0 0 0 0 0 0 0 0 0 0 0 0 0 0 0 0 0 0 0 0 1605 1613 1628 0 0 0 0 0 2021 2033 2044 2056 2058 2070 2081 2095 2109 2115 2118 2122 2129 2139 2151 2163 2169 2175 2176 2182 2187 2189 2193 2202 2213 2226 2234 2237 2241 2242 2244 2248 2253 2257 2257 2257 2253 2252 2252 2252 2260 2266 2269 2275 2278 2278 2279 2279 2280 2282 2288 2292 2294 2294 2294 2295 2295 2299 2308 2319 2322 2324 2326 2327 2327 2327 2327 2328 2329 2333 2339 2344 2347 2353 2357 2362 2367 2370 2372 2374 2377 2380 2384 2384 2384 2384 2384 2384 2386 2390 2391 2392 2392 2394 2396 2400 2402 2402 2402 2402 2402 2403 2405 2406 2406 2409 2413 2415 2415 2415 2416 2417 2427 2432 2432 2432 2432 2432 2434 2442 2453 2455 2455 2455 2455 2455 2455 2455 2455 2457 2465 2466 2468 2468 2472 2472 2475 2478 2482 2482 2482 2473 2469 2469 2469 2470 2472 2477 2479 2483 2488 2490 2491 2494 2498 2503 2508 2510 2511 2512 2512 2513 2518 2518 2518 2513 2510 2510 2509 2508 2503 2495 2481 2469 2450 2439 2434 2429 2418 2403 2386 2374 2363 2351 2351 2351 2360 2360 2360 2335 0 0 0 0 0 0 0 0 0 2601 2713 2792 2831 2860 2861 2861 2861 2825 2788 2710 2595 0 0 0 0 0 0 0 0 0 0 0 0 0 3009 3335 3409 3413 3413 3413 3400 3385 3375 3370 3370 3369 3358 3339 3315 3307 3296 3289 3287 3240 3151 3017 2873 0 0 0 0 0 0 1431 1405 1387 1375 1373 1371 1368 1366 1362 1360 1356 1354 1352 1350 1348 1343 1335 1325 1318 1313 1309 1308 1307 1305 1299 1297 1296 1296 1295 1293 1293 1293 1287 1280 1275 1270 1261 1255 1241 1230 1220 1220 1219 1219 1219 1219 1217 1213 1208 1201 1197 1197 1197 1197 1197 1194 1194 1194 1196 1201 1211 1211 1211 1209 1208 1206 1205 1201 1196 1193 1192 1190 1189 1188 1185 1181 1179 1175 1173 1172 1171 1168 1165 1162 1159 1155 1149 1141 1136 1135 1133 1129 1125 1123 1123 1123 1123 1123 1121 1118 1116 1115 1113 1110 1110 1110 1109 1108 1106 1106 1106 1109 1110 1110 1110 1108 1107 1106 1105 1102 1098 1097 1096 1095 1093 1092 1091 1089 1086 1084 1082 1080 1079 1078 1075 1074 1072 1071 1069 1068 1065 1062 1059 1056 1053 1050 1048 1042 1039 1035 1033 1032 1032 1031 1031 1030 1027 1025 1025 1024 1023 1019 1018 1018 1017 1016 1015 1015 1015 1014 1014 1014 1014 1014 1014 1013 1013 1012 1011 1010 1010 1008 1007 1005 1004 1003 1001 1000 998 997 996 994 992 990 988 988 986 985 984 983 982 981 979 978 977 976 975 974 974 973 971 970 969 969 967 967 966 964 964 963 961 960 959 958 957 957 956 955 955 955 955 956 956 957 957 957 959 961 969 977 983 996 1007 0 0 0 0 1431 1433 1433 1433 1435 1435 1436 1437 1438 1439 1439 1439 1439 1438 1438 1438 1439 1439 1439 1439 1437 1437 1436 1435 1434 1433 1432 1431 1429 1429 1427 1426 1425 1424 1423 1422 1421 1420 1419 1418 1415 1414 1412 1411 1409 1407 1404 1402 1401 1398 1396 1393 1391 1389 1387 1385 1382 1381 1380 1380 1379 1379 1377 1375 1375 1375 1375 1375 1373 1365 1356 1356 1356 1354 1356 0
