1858 1878 1898 1914 1922 1929 1932 1937 1941 1949 1959 1968 1973 1985 1998 2016 2040 2063 2079 2096 2113 2133 2138 2149 2155 2161 2173 2187 2198 2211 2224 2238 2249 2256 2258 2260 2265 2272 2276 2282 2287 2295 2304 2309 2310 2313 2316 2319 2323 2331 2341 2352 2366 2376 2381 2388 2394 2401 2406 2413 2419 2428 2436 2443 2448 2452 2461 2472 2488 2495 2503 2509 2516 2519 2523 2527 2531 2537 2543 2552 2558 2564 2568 2573 2578 2582 2586 2589 2595 2601 2607 2612 2616 2618 2621 2624 2629 2632 2636 2638 2640 2641 2646 2651 2654 2657 2659 2662 2665 2669 2672 2675 2677 2678 2680 2683 2686 2688 2689 2691 2692 2693 2694 2694 2696 2697 2698 2701 2701 2701 2697 2690 2679 2671 2659 2633 2569 0 0 0 0 0 0 0 0 0 0 2627 3093 3378 3514 3544 3545 3547 3547 3552 3557 3558 3559 3559 3559 3560 3561 3563 3565 3567 3568 3570 3572 3574 3576 3578 3582 3585 3588 3588 3588 3588 3588 3588 3589 3591 3591 3593 3594 3594 3594 3594 3593 3593 3593 3592 3590 3589 3589 3588 3587 3587 3586 3585 3582 3579 3578 3577 3576 3576 3576 3573 3569 3564 3559 3557 3556 3553 3550 3543 3536 3529 3522 3515 3508 3500 3494 3486 3480 3473 3469 3461 3455 3447 3434 3431 3422 3403 3382 3359 3336 3311 3275 3224 3118 2893 2531 0 0 0 0 0 1401 1379 1368 1366 1365 1365 1363 1362 1361 1361 1360 1359 1359 1359 1359 1358 1358 1358 1358 1358 1357 1357 1356 1355 1354 1354 1352 1351 1348 1346 1343 1341 1339 1339 1337 1336 1335 1335 1335 1335 1335 1335 1335 1335 1335 1336 1336 1336 1337 1338 1338 1340 1341 1342 1343 1345 1346 1346 1347 1347 1348 1348 1348 1348 1348 1348 1348 1348 1348 1348 1347 1347 1347 1347 1346 1345 1345 1343 1343 1342 1340 1339 1337 1336 1334 1333 1331 1330 1330 1328 1328 1327 1327 1325 1325 1324 1323 1323 1323 1323 1323 1323 1323 1324 1324 1324 1325 1325 1327 1328 1330 1331 1332 1334 1334 1335 1335 1336 1336 1336 1336 1336 1336 1336 1336 1336 1335 1335 1335 1335 1335 1334 1333 1332 1331 1330 1328 1326 1323 1319 1317 1314 1312 1310 1310 1309 1309 1309 1309 1309 1310 1310 1311 1311 1312 1312 1312 1313 1313 1314 1314 1314 1316 1317 1319 1321 1323 1324 1326 1327 1328 1329 1330 1330 1331 1331 1331 1331 1331 1331 1331 1331 1330 1330 1330 1329 1329 1328 1327 1327 1326 1324 1322 1321 1321 1320 1317 1313 1307 1304 1302 1301 1298 1297 1297 1296 1296 1296 1296 1296 1296 1296 1296 1297 1297 1298 1298 1299 1299 1299 1302 1305 1308 1311 1316 1317 1318 1319 1320 1321 1322 1322 1322 1322 1322 1322 1322 1321 1321 1321 1321 1321 1321 1321 1321 1320 1320 1319 1318 1316 1315 1314 1312 1308 1303 1299 1294 1290 1287 1285 1284 1283 1281 1279 1278 1278 1278 1280 1281 1281 1281 1281 1281 1281 1281 1281 1281 1283 1284 1288 1294 1299 1303 1308 1309 1311 1313 1314 1315 1316 1316 1317 1317 1317 1317 1317 1317 1317 1317 1317 1316 1316 1316 1316 1316 1316 1316 1316 1316 1316 1316 1316 1316 1316 1316 1316 1316 1316 1315 1315 1314 1314 1314 1313 1313 1312 1312 1311 1311 1311 1310 1310 1310 1310 1310 1313 1324 1341 1377 1422 1431 1434 1438 1438 1438 1438 1435 1434 1434 1434 1432 1429 1427 1423 1420 1417 1413 1409 1402 1394 1384 1375 1370 1364 1358 1352 1350 1350 1350 1353 1362 1362 1362 1355 1352 1345 1339 1337 1327 1300
1853 1871 1888 1900 1912 1923 1929 1933 1937 1942 1950 1963 1973 1985 1998 2020 2042 2063 2079 2096 2113 2132 2137 2148 2154 2162 2174 2188 2203 2214 2224 2238 2249 2259 2263 2263 2267 2272 2276 2282 2288 2296 2304 2310 2313 2317 2321 2323 2328 2334 2344 2354 2366 2376 2381 2388 2394 2401 2406 2413 2419 2428 2436 2443 2448 2452 2461 2472 2488 2495 2503 2511 2516 2519 2523 2528 2531 2537 2545 2552 2558 2564 2567 2573 2577 2581 2584 2587 2593 2600 2607 2612 2616 2617 2621 2625 2629 2633 2636 2639 2641 2643 2647 2653 2657 2658 2659 2662 2666 2669 2672 2674 2676 2678 2680 2682 2684 2687 2688 2689 2690 2691 2692 2693 2694 2694 2695 2699 2699 2699 2695 2686 2672 2665 2658 2629 2565 0 0 0 0 0 0 0 0 0 0 2652 3099 3378 3514 3545 3551 3551 3553 3561 3561 3561 3560 3560 3560 3560 3561 3563 3563 3565 3565 3569 3572 3573 3574 3576 3580 3584 3586 3586 3587 3587 3587 3588 3590 3591 3592 3593 3596 3596 3596 3595 3594 3594 3594 3592 3591 3589 3589 3588 3587 3587 3587 3585 3582 3579 3578 3577 3577 3576 3576 3574 3569 3563 3559 3556 3553 3551 3546 3540 3536 3530 3525 3520 3513 3505 3498 3488 3481 3474 3469 3461 3455 3447 3434 3431 3422 3403 3382 3359 3328 3280 3235 3172 2994 2767 2492 0 0 0 0 0 1397 1376 1366 1366 1365 1365 1363 1362 1361 1360 1360 1359 1359 1359 1359 1358 1358 1358 1358 1358 1357 1357 1356 1355 1354 1354 1352 1350 1348 1346 1343 1341 1339 1339 1337 1336 1335 1334 1334 1334 1334 1334 1335 1335 1335 1335 1336 1336 1336 1337 1338 1340 1341 1342 1343 1345 1345 1346 1347 1347 1348 1348 1348 1348 1348 1348 1348 1348 1348 1348 1347 1347 1346 1346 1345 1345 1344 1343 1342 1342 1340 1338 1337 1336 1334 1332 1331 1331 1330 1329 1326 1326 1326 1325 1324 1324 1323 1323 1322 1322 1322 1322 1323 1323 1324 1324 1324 1325 1327 1328 1330 1332 1332 1334 1334 1335 1335 1336 1336 1336 1336 1336 1336 1336 1336 1336 1335 1335 1335 1335 1334 1333 1333 1332 1331 1330 1328 1326 1323 1319 1317 1314 1312 1311 1310 1309 1309 1309 1309 1309 1310 1310 1310 1311 1312 1312 1313 1313 1314 1314 1314 1314 1316 1317 1319 1321 1323 1324 1326 1327 1328 1329 1329 1330 1330 1330 1331 1331 1331 1331 1330 1330 1330 1330 1329 1329 1328 1328 1327 1326 1326 1324 1322 1321 1320 1319 1317 1313 1307 1304 1302 1301 1298 1297 1296 1295 1295 1295 1295 1295 1295 1296 1296 1296 1297 1297 1298 1298 1298 1298 1300 1304 1307 1311 1316 1317 1318 1319 1320 1321 1322 1322 1322 1322 1322 1322 1322 1321 1321 1321 1321 1321 1321 1321 1320 1320 1320 1319 1318 1316 1315 1313 1311 1308 1303 1298 1292 1289 1287 1285 1284 1283 1280 1278 1278 1278 1278 1279 1280 1280 1280 1280 1280 1280 1280 1280 1281 1283 1284 1288 1294 1299 1303 1307 1309 1312 1313 1314 1315 1316 1316 1317 1317 1317 1317 1316 1316 1316 1316 1316 1316 1316 1316 1316 1316 1316 1316 1316 1316 1316 1316 1316 1316 1316 1316 1315 1315 1315 1315 1315 1314 1314 1313 1313 1312 1312 1312 1311 1311 1311 1310 1310 1309 1309 1309 1313 1322 1341 1377 1425 1435 1437 1438 1439 1439 1439 1435 1434 1434 1434 1432 1429 1427 1423 1420 1416 1413 1409 1401 1393 1384 1375 1370 1364 1357 1351 1348 1348 1348 1349 1354 1355 1355 1355 1351 1342 1339 1337 1331 1296
1847 1863 1879 1889 1903 1920 1928 1932 1936 1942 1949 1958 1971 1985 2002 2020 2042 2063 2079 2096 2112 2127 2133 2145 2154 2162 2174 2189 2203 2214 2224 2238 2249 2259 2269 2270 2272 2272 2278 2283 2291 2300 2307 2310 2315 2323 2328 2330 2335 2340 2346 2355 2366 2376 2381 2388 2394 2401 2406 2413 2419 2428 2436 2443 2448 2452 2460 2472 2488 2495 2503 2511 2516 2517 2523 2528 2532 2538 2545 2552 2558 2564 2567 2572 2577 2578 2581 2585 2591 2598 2606 2612 2616 2617 2621 2625 2630 2633 2638 2641 2643 2645 2648 2653 2657 2659 2659 2662 2666 2669 2672 2674 2675 2677 2679 2682 2684 2684 2685 2686 2686 2688 2690 2691 2691 2691 2692 2693 2693 2693 2689 2683 2672 2665 2658 2626 2551 0 0 0 0 0 0 0 0 0 0 2671 3124 3378 3514 3545 3551 3554 3558 3561 3561 3561 3560 3560 3560 3560 3561 3561 3561 3562 3564 3567 3569 3572 3574 3575 3578 3581 3584 3585 3585 3587 3587 3589 3590 3591 3594 3596 3598 3598 3598 3596 3595 3595 3595 3593 3591 3589 3588 3588 3587 3587 3587 3585 3582 3579 3579 3579 3579 3579 3579 3574 3568 3561 3557 3554 3551 3548 3544 3539 3536 3530 3525 3520 3513 3505 3498 3488 3482 3475 3469 3461 3455 3447 3434 3425 3410 3391 3374 3341 3296 3236 3122 2995 2768 0 0 0 0 0 0 1426 1395 1375 1366 1366 1365 1365 1363 1362 1361 1360 1360 1359 1359 1359 1359 1358 1358 1358 1358 1358 1357 1357 1356 1355 1354 1353 1352 1349 1348 1346 1343 1341 1339 1338 1337 1336 1334 1334 1334 1334 1334 1334 1334 1334 1334 1334 1335 1336 1336 1337 1338 1339 1341 1342 1343 1345 1345 1346 1346 1347 1348 1348 1348 1348 1348 1348 1348 1347 1347 1347 1346 1346 1346 1345 1345 1345 1344 1343 1342 1341 1340 1338 1337 1336 1334 1332 1332 1331 1330 1328 1326 1326 1325 1324 1324 1324 1323 1322 1322 1322 1322 1322 1322 1323 1323 1324 1324 1325 1327 1328 1330 1332 1332 1334 1334 1334 1335 1335 1335 1335 1336 1336 1335 1335 1335 1335 1335 1334 1334 1334 1334 1333 1333 1331 1331 1329 1328 1326 1323 1319 1317 1315 1313 1312 1310 1309 1309 1309 1309 1309 1310 1310 1310 1311 1312 1312 1313 1313 1314 1315 1315 1315 1316 1317 1319 1320 1322 1324 1326 1327 1327 1328 1329 1330 1330 1330 1330 1330 1330 1330 1330 1330 1329 1329 1329 1329 1328 1327 1327 1326 1325 1324 1322 1320 1319 1318 1316 1313 1307 1304 1302 1301 1298 1297 1296 1295 1295 1295 1294 1294 1294 1294 1294 1295 1296 1296 1298 1298 1298 1298 1300 1302 1305 1310 1314 1316 1318 1319 1320 1321 1321 1322 1322 1322 1322 1322 1322 1321 1321 1321 1321 1321 1321 1321 1320 1320 1319 1319 1318 1316 1315 1313 1310 1307 1303 1295 1291 1289 1287 1285 1284 1280 1278 1277 1277 1277 1278 1279 1279 1279 1279 1279 1279 1279 1280 1280 1281 1282 1283 1287 1294 1299 1303 1307 1309 1312 1313 1314 1315 1316 1316 1316 1316 1316 1316 1316 1316 1316 1316 1316 1316 1316 1316 1316 1316 1316 1316 1315 1315 1315 1315 1316 1316 1316 1315 1315 1315 1315 1315 1314 1314 1314 1313 1312 1312 1312 1311 1311 1311 1310 1310 1309 1309 1309 1309 1310 1320 1340 0 1425 1435 1441 1441 1441 1441 1439 1435 1435 1435 1434 1432 1429 1426 1423 1419 1416 1412 1407 1401 1392 1384 1375 1371 1363 1357 1351 1348 1346 1346 1346 1346 1347 1350 1350 1350 1340 1338 1337 1331 1296
1842 1858 1869 1883 1900 1918 1927 1931 1936 1941 1946 1958 1970 1985 2002 2020 2042 2061 2075 2087 2102 2117 2131 2137 2150 2161 2174 2189 2203 2214 2223 2234 2246 2259 2269 2270 2272 2274 2282 2286 2294 2300 2307 2310 2315 2323 2330 2336 2339 2344 2349 2355 2368 2377 2382 2385 2392 2400 2405 2411 2419 2428 2435 2442 2446 2450 2455 2466 2482 2494 2503 2511 2513 2516 2521 2528 2532 2538 2545 2552 2558 2564 2567 2570 2572 2575 2577 2583 2590 2596 2602 2608 2613 2617 2621 2625 2630 2633 2638 2641 2643 2645 2648 2653 2657 2659 2659 2662 2666 2669 2672 2673 2674 2676 2678 2680 2682 2683 2683 2684 2685 2686 2688 2688 2689 2690 2690 2690 2690 2690 2686 2680 2672 2665 2657 2626 2539 0 0 0 0 0 0 0 0 0 0 2686 3125 3378 3505 3537 3551 3554 3558 3561 3561 3561 3561 3560 3560 3560 3560 3560 3560 3560 3562 3565 3567 3571 3572 3574 3578 3580 3583 3584 3585 3587 3589 3593 3595 3595 3596 3596 3598 3598 3598 3596 3596 3595 3595 3594 3592 3589 3588 3587 3587 3587 3587 3585 3582 3579 3579 3579 3579 3579 3579 3574 3567 3560 3554 3552 3549 3547 3543 3539 3535 3530 3525 3520 3513 3505 3498 3488 3482 3475 3466 3453 3445 3432 3420 3409 3395 3372 3347 3305 3243 3143 2984 2801 0 0 0 0 0 0 0 1424 1394 1375 1366 1365 1364 1364 1363 1362 1361 1360 1359 1359 1359 1359 1359 1358 1358 1358 1358 1357 1357 1357 1356 1355 1354 1353 1352 1349 1348 1345 1343 1341 1339 1338 1337 1336 1334 1333 1333 1333 1333 1333 1333 1333 1334 1334 1335 1336 1336 1337 1338 1339 1340 1342 1343 1345 1345 1346 1346 1347 1347 1348 1348 1348 1348 1348 1347 1347 1347 1347 1346 1345 1345 1345 1344 1344 1343 1342 1342 1341 1340 1338 1337 1336 1333 1332 1332 1331 1330 1328 1326 1326 1325 1324 1324 1324 1323 1322 1322 1322 1322 1322 1322 1322 1323 1324 1324 1325 1327 1328 1330 1332 1332 1333 1334 1335 1335 1335 1335 1335 1335 1335 1335 1335 1335 1334 1334 1334 1334 1334 1334 1333 1332 1331 1331 1329 1328 1326 1324 1320 1317 1315 1314 1312 1311 1309 1309 1309 1309 1309 1309 1310 1310 1311 1311 1312 1312 1313 1314 1315 1315 1315 1316 1317 1318 1320 1322 1324 1325 1327 1327 1328 1328 1329 1329 1329 1330 1330 1330 1330 1329 1329 1329 1329 1328 1328 1327 1327 1326 1325 1324 1323 1322 1320 1318 1317 1315 1311 1307 1303 1301 1300 1297 1296 1296 1295 1294 1294 1294 1294 1293 1293 1294 1294 1294 1295 1296 1297 1297 1297 1299 1300 1305 1309 1313 1316 1318 1319 1320 1321 1321 1322 1322 1322 1322 1322 1322 1321 1321 1321 1321 1321 1321 1320 1320 1320 1319 1319 1318 1316 1315 1312 1309 1307 1301 1294 1291 1290 1287 1285 1283 1279 1276 1276 1276 1277 1278 1278 1279 1279 1279 1279 1279 1279 1280 1280 1281 1282 1283 1287 1294 1298 1303 1307 1309 1312 1313 1314 1315 1315 1316 1316 1316 1316 1316 1316 1316 1316 1316 1316 1316 1316 1315 1315 1315 1315 1315 1315 1315 1315 1315 1315 1315 1315 1315 1315 1315 1315 1315 1314 1314 1313 1312 1312 1312 1312 1311 1311 1310 1310 1310 1309 1309 1309 1309 1309 1318 1339 0 1425 1437 1444 1444 1444 1441 1439 1438 1437 1435 1435 1432 1429 1425 1423 1418 1415 1412 1406 1401 1391 1382 1375 1371 1362 1357 1350 1346 1345 1344 1344 1344 1343 1343 1342 1342 1340 1338 1337 1331 1294
1841 1856 1868 1883 1897 1917 1927 1931 1935 1939 1946 1955 1968 1983 2002 2018 2034 2049 2062 2073 2089 2106 2122 2127 2141 2159 2174 2188 2203 2213 2222 2234 2243 2258 2269 2270 2272 2274 2282 2286 2294 2300 2307 2310 2315 2323 2330 2337 2340 2346 2352 2361 2368 2377 2382 2385 2392 2400 2405 2411 2418 2425 2431 2439 2444 2449 2455 2463 2473 2486 2494 2504 2509 2514 2520 2526 2532 2538 2542 2549 2556 2559 2561 2565 2566 2570 2576 2580 2587 2594 2599 2606 2612 2616 2621 2625 2630 2633 2638 2641 2643 2645 2648 2653 2657 2659 2659 2662 2666 2669 2671 2671 2671 2672 2675 2676 2678 2680 2680 2681 2683 2685 2687 2687 2687 2688 2688 2687 2687 2687 2682 2679 2672 2665 2657 2624 2531 0 0 0 0 0 0 0 0 0 0 2691 3126 3378 3502 3530 3547 3554 3558 3559 3560 3560 3560 3560 3560 3560 3560 3560 3560 3560 3562 3563 3566 3568 3571 3574 3576 3580 3582 3584 3585 3587 3591 3595 3596 3596 3596 3596 3598 3598 3598 3597 3596 3596 3595 3594 3592 3589 3588 3587 3587 3587 3586 3584 3581 3579 3579 3579 3579 3579 3579 3574 3566 3557 3552 3549 3547 3545 3543 3539 3535 3530 3525 3519 3508 3496 3488 3487 3482 3475 3465 3445 3427 3412 3404 3395 3377 3347 3302 3249 3161 3021 2862 2665 0 0 0 0 0 1516 1472 1420 1393 1375 1366 1365 1364 1364 1363 1362 1361 1360 1359 1359 1359 1359 1358 1358 1358 1358 1358 1357 1357 1357 1356 1355 1353 1353 1352 1349 1347 1345 1343 1341 1339 1338 1337 1336 1334 1333 1333 1333 1333 1333 1333 1333 1333 1334 1335 1336 1336 1337 1338 1339 1340 1342 1343 1344 1345 1346 1346 1347 1347 1348 1348 1348 1348 1347 1347 1347 1347 1346 1345 1345 1345 1344 1344 1343 1343 1342 1341 1340 1339 1338 1337 1335 1333 1332 1331 1330 1329 1327 1326 1326 1325 1324 1324 1323 1323 1322 1322 1322 1322 1322 1322 1322 1323 1324 1324 1325 1327 1328 1330 1332 1333 1333 1334 1334 1335 1335 1335 1335 1335 1335 1335 1335 1334 1334 1334 1334 1334 1334 1334 1333 1332 1331 1331 1329 1328 1326 1324 1320 1317 1316 1314 1312 1311 1309 1309 1309 1309 1309 1309 1310 1310 1311 1311 1312 1312 1313 1314 1315 1315 1316 1316 1317 1318 1320 1322 1324 1325 1326 1327 1327 1328 1329 1329 1329 1329 1329 1329 1329 1329 1329 1329 1328 1328 1327 1327 1326 1326 1325 1324 1323 1321 1320 1317 1316 1314 1311 1307 1303 1301 1299 1297 1296 1296 1295 1294 1294 1293 1293 1292 1292 1292 1292 1293 1294 1295 1296 1296 1297 1299 1300 1305 1309 1312 1315 1317 1319 1320 1320 1321 1322 1322 1322 1322 1322 1321 1321 1321 1321 1321 1321 1321 1320 1320 1320 1319 1319 1317 1316 1315 1312 1309 1307 1301 1294 1291 1290 1287 1285 1282 1279 1276 1276 1276 1277 1278 1279 1279 1279 1279 1280 1280 1281 1281 1282 1282 1282 1284 1287 1293 1298 1304 1307 1309 1312 1313 1314 1315 1315 1316 1316 1316 1316 1316 1316 1316 1315 1315 1315 1315 1315 1315 1315 1315 1315 1315 1315 1315 1315 1315 1315 1315 1315 1315 1315 1315 1315 1314 1314 1313 1313 1312 1312 1312 1311 1311 1311 1310 1310 1310 1309 1309 1308 1308 1308 1318 1338 1375 1425 1437 1444 1444 1444 1441 1441 1439 1438 1435 1435 1432 1429 1423 1420 1417 1414 1410 1403 1395 1388 1382 1374 1371 1361 1353 1349 1344 1344 1343 1342 1342 1341 1341 1341 1341 1336 1336 1333 1324 1283
1841 1856 1867 1881 1895 1909 1920 1925 1928 1932 1937 1948 1959 1974 1997 2015 2034 2049 2055 2062 2076 2091 2112 2118 2133 2153 2171 2187 2199 2211 2217 2227 2242 2257 2260 2266 2270 2274 2282 2286 2294 2300 2305 2308 2314 2322 2331 2338 2343 2348 2357 2365 2373 2377 2382 2385 2392 2400 2405 2411 2418 2425 2430 2436 2442 2446 2453 2460 2468 2477 2488 2498 2507 2512 2518 2525 2531 2535 2540 2546 2551 2554 2555 2558 2560 2565 2571 2577 2584 2591 2598 2602 2607 2614 2619 2623 2625 2629 2634 2638 2639 2642 2644 2649 2655 2658 2659 2660 2663 2666 2668 2668 2669 2670 2670 2673 2674 2677 2677 2679 2680 2684 2686 2686 2686 2686 2686 2685 2684 2683 2680 2679 2672 2665 2657 2624 2527 0 0 0 0 0 0 0 0 0 0 2702 3140 3395 3497 3528 3535 3539 3543 3547 3559 3561 3562 3562 3561 3561 3560 3559 3559 3559 3562 3563 3566 3566 3569 3572 3575 3580 3581 3583 3585 3587 3591 3595 3596 3596 3596 3596 3598 3598 3598 3597 3596 3596 3595 3594 3592 3589 3587 3587 3586 3586 3586 3584 3581 3579 3579 3579 3578 3578 3575 3569 3562 3554 3550 3548 3545 3545 3543 3541 3535 3528 3519 3508 3496 3482 3471 3468 3466 3466 3454 3436 3421 3409 3396 3384 3357 3315 3256 3174 3052 2885 2711 0 0 0 0 0 1515 1496 1461 1417 1390 1373 1367 1365 1364 1364 1363 1361 1360 1360 1359 1359 1358 1358 1358 1358 1358 1358 1357 1357 1357 1356 1355 1354 1353 1352 1351 1349 1348 1345 1343 1341 1340 1338 1337 1336 1334 1333 1333 1333 1333 1333 1333 1333 1333 1334 1335 1336 1337 1337 1338 1339 1340 1341 1343 1344 1345 1346 1346 1347 1347 1347 1347 1347 1347 1347 1347 1347 1346 1346 1345 1345 1344 1344 1344 1343 1343 1342 1341 1340 1339 1337 1336 1335 1333 1331 1331 1330 1328 1327 1326 1326 1325 1324 1324 1323 1323 1322 1322 1322 1322 1322 1322 1322 1322 1324 1324 1325 1327 1328 1330 1332 1333 1333 1334 1334 1335 1335 1335 1335 1335 1335 1335 1335 1334 1334 1334 1334 1334 1333 1333 1332 1332 1331 1330 1329 1328 1326 1324 1321 1317 1316 1314 1312 1311 1310 1309 1309 1309 1309 1309 1310 1310 1311 1311 1312 1312 1313 1314 1315 1315 1316 1317 1318 1318 1320 1322 1324 1325 1326 1327 1327 1328 1328 1329 1329 1329 1329 1329 1329 1328 1328 1328 1328 1328 1327 1326 1325 1325 1324 1324 1323 1321 1320 1317 1315 1314 1311 1307 1303 1301 1299 1297 1296 1296 1295 1294 1294 1293 1293 1292 1292 1292 1292 1292 1293 1294 1294 1296 1297 1297 1300 1305 1309 1312 1315 1317 1319 1320 1320 1321 1321 1322 1322 1321 1321 1321 1321 1321 1321 1321 1321 1320 1320 1320 1320 1319 1319 1317 1316 1315 1312 1309 1307 1301 1294 1292 1290 1287 1285 1282 1279 1276 1276 1276 1278 1279 1279 1279 1279 1280 1280 1281 1282 1282 1283 1284 1284 1285 1289 1293 1298 1304 1307 1309 1311 1313 1314 1315 1315 1315 1315 1315 1315 1315 1315 1315 1315 1315 1315 1315 1315 1315 1315 1315 1315 1315 1315 1314 1314 1314 1314 1314 1314 1314 1314 1314 1314 1314 1314 1313 1313 1312 1312 1312 1311 1311 1310 1310 1310 1310 1309 1309 1308 1308 1308 1316 1336 1374 1410 1436 1444 1444 1444 1441 1441 1439 1438 1434 1433 1430 1427 1421 1420 1415 1411 1405 1398 1392 1386 1381 1374 1371 1361 1353 1349 1344 1343 1343 1341 1340 1340 1340 1340 1340 1335 1333 1333 1322 1281
1840 1856 1866 1875 1886 1902 1909 1913 1920 1924 1932 1940 1952 1968 1990 2014 2033 2045 2055 2062 2071 2087 2104 2111 2129 2148 2166 2180 2193 2203 2210 2217 2235 2249 2252 2257 2258 2266 2274 2278 2288 2296 2302 2305 2311 2320 2330 2338 2345 2353 2360 2370 2377 2381 2384 2386 2392 2399 2407 2412 2418 2425 2430 2434 2437 2442 2448 2456 2463 2473 2484 2494 2504 2511 2517 2523 2528 2533 2538 2543 2547 2548 2549 2553 2556 2559 2566 2572 2580 2587 2592 2597 2602 2608 2614 2619 2622 2625 2630 2634 2637 2639 2641 2645 2652 2656 2658 2660 2661 2664 2666 2666 2666 2666 2666 2669 2672 2674 2674 2676 2677 2680 2682 2683 2683 2683 2683 2683 2683 2680 2679 2675 2667 2661 2649 2623 2509 0 0 0 0 0 0 0 0 0 0 2747 3154 3397 3495 3511 3521 3525 3535 3545 3559 3563 3563 3563 3563 3561 3560 3560 3560 3560 3562 3563 3566 3566 3569 3572 3575 3579 3581 3581 3584 3587 3591 3595 3596 3596 3596 3596 3596 3596 3596 3596 3596 3596 3595 3592 3591 3589 3586 3586 3586 3585 3585 3583 3580 3578 3577 3574 3570 3569 3567 3562 3555 3551 3548 3546 3545 3545 3544 3541 3536 3528 3519 3508 3496 3482 3471 3465 3452 3452 3447 3432 3420 3408 3393 3370 3332 3271 3194 3077 2892 2653 0 0 0 0 0 1508 1489 1472 1451 1412 1386 1373 1367 1365 1364 1363 1363 1361 1360 1359 1359 1359 1358 1358 1358 1358 1358 1357 1357 1357 1356 1355 1355 1354 1353 1352 1351 1349 1347 1345 1343 1341 1340 1338 1337 1336 1335 1334 1333 1333 1333 1333 1333 1333 1333 1334 1335 1336 1337 1338 1338 1339 1340 1341 1343 1343 1345 1345 1346 1346 1347 1347 1347 1347 1347 1347 1347 1346 1346 1345 1345 1344 1344 1344 1343 1343 1342 1342 1340 1340 1339 1337 1336 1335 1333 1331 1330 1329 1328 1327 1326 1325 1325 1324 1324 1323 1322 1322 1322 1321 1321 1321 1321 1322 1322 1323 1324 1326 1327 1328 1330 1331 1333 1333 1334 1334 1334 1335 1335 1335 1335 1335 1335 1334 1334 1334 1334 1334 1333 1333 1333 1332 1332 1330 1330 1329 1328 1326 1324 1321 1318 1316 1315 1312 1311 1311 1310 1310 1310 1310 1310 1310 1311 1311 1311 1311 1312 1313 1314 1315 1315 1316 1317 1318 1318 1320 1322 1324 1324 1326 1326 1327 1327 1327 1328 1328 1328 1328 1328 1328 1328 1328 1328 1328 1327 1326 1326 1325 1325 1324 1323 1323 1321 1319 1317 1315 1314 1310 1307 1303 1301 1299 1298 1297 1296 1295 1295 1293 1293 1293 1292 1291 1291 1291 1292 1292 1293 1294 1296 1296 1297 1300 1306 1309 1312 1315 1317 1319 1320 1320 1321 1321 1321 1321 1321 1321 1321 1321 1321 1321 1321 1320 1320 1320 1320 1319 1318 1318 1317 1316 1314 1311 1309 1306 1303 1296 1294 1292 1287 1285 1282 1279 1276 1276 1276 1279 1279 1279 1279 1279 1280 1280 1281 1282 1283 1285 1285 1285 1286 1289 1293 1298 1304 1307 1309 1311 1313 1314 1314 1315 1315 1315 1315 1315 1315 1315 1315 1315 1314 1314 1314 1314 1314 1314 1314 1314 1314 1314 1314 1314 1314 1314 1314 1314 1314 1314 1314 1314 1313 1313 1313 1312 1312 1312 1312 1311 1311 1310 1310 1310 1310 1309 1309 1309 1309 1311 1315 1332 1366 1405 1435 1444 1444 1444 1441 1440 1437 1437 1433 1429 1426 1423 1419 1416 1411 1407 1401 1395 1389 1385 1381 1374 1371 1361 1353 1348 1343 1339 1334 1334 1334 1337 1337 1337 1336 1333 1331 1329 1319 1280
1840 1850 1855 1868 1882 1895 1901 1905 1913 1919 1926 1936 1946 1962 1986 2014 2029 2043 2053 2062 2071 2086 2101 2111 2124 2144 2160 2173 2184 2194 2204 2213 2225 2237 2246 2252 2256 2264 2272 2277 2284 2291 2298 2302 2310 2319 2330 2337 2345 2355 2363 2370 2377 2381 2384 2386 2392 2399 2407 2412 2418 2425 2430 2433 2437 2441 2448 2453 2461 2470 2480 2492 2501 2511 2515 2519 2524 2529 2534 2540 2543 2544 2546 2550 2553 2558 2563 2569 2575 2581 2587 2591 2596 2601 2608 2614 2618 2623 2628 2633 2637 2639 2640 2643 2646 2651 2655 2657 2659 2661 2663 2663 2663 2663 2663 2666 2669 2670 2670 2672 2673 2675 2677 2680 2681 2681 2681 2681 2680 2679 2676 2671 2660 2647 2637 2606 0 0 0 0 0 0 0 0 0 0 0 2802 3207 3414 3484 3493 3504 3509 3527 3545 3560 3564 3564 3564 3563 3561 3560 3560 3560 3560 3562 3563 3566 3566 3569 3572 3575 3578 3580 3581 3584 3587 3590 3592 3594 3594 3594 3594 3594 3594 3594 3594 3594 3594 3594 3592 3589 3587 3584 3583 3583 3583 3582 3581 3578 3575 3572 3568 3565 3565 3563 3559 3554 3551 3547 3545 3545 3544 3544 3541 3538 3528 3519 3508 3496 3482 3471 3465 3452 3443 3435 3423 3409 3397 3377 3340 3288 3217 3113 2902 2661 0 0 0 0 0 1508 1486 1468 1449 1440 1409 1385 1373 1367 1365 1364 1363 1363 1361 1360 1359 1359 1359 1358 1358 1358 1358 1357 1357 1357 1357 1356 1355 1354 1354 1353 1352 1351 1349 1347 1345 1343 1341 1340 1340 1338 1337 1336 1335 1335 1334 1334 1334 1334 1334 1334 1334 1335 1337 1338 1338 1338 1339 1340 1341 1343 1343 1344 1345 1346 1346 1346 1346 1346 1346 1346 1346 1346 1345 1345 1344 1344 1344 1344 1343 1343 1342 1342 1341 1340 1340 1338 1337 1336 1334 1332 1331 1330 1329 1328 1327 1326 1325 1324 1324 1324 1323 1322 1322 1322 1321 1321 1321 1321 1322 1322 1324 1324 1326 1327 1328 1330 1331 1333 1333 1334 1334 1334 1334 1334 1334 1334 1334 1334 1334 1334 1334 1334 1334 1333 1333 1332 1332 1331 1330 1330 1329 1328 1326 1324 1321 1318 1316 1315 1313 1313 1312 1312 1312 1311 1311 1311 1310 1310 1310 1310 1311 1312 1312 1313 1315 1315 1316 1317 1318 1318 1320 1322 1323 1324 1325 1325 1326 1327 1327 1327 1327 1327 1327 1327 1327 1327 1327 1327 1327 1326 1326 1325 1325 1324 1324 1323 1323 1321 1319 1317 1315 1314 1311 1307 1304 1301 1300 1298 1297 1296 1295 1295 1294 1293 1293 1292 1291 1291 1291 1292 1292 1293 1294 1296 1296 1297 1300 1306 1310 1312 1315 1317 1318 1319 1320 1320 1321 1321 1321 1321 1321 1321 1321 1321 1321 1320 1320 1320 1320 1319 1319 1318 1317 1317 1315 1313 1310 1308 1306 1303 1298 1297 1293 1287 1285 1282 1280 1276 1276 1276 1279 1279 1279 1279 1279 1280 1280 1281 1282 1283 1285 1286 1286 1286 1290 1293 1298 1303 1306 1307 1310 1313 1314 1314 1315 1315 1315 1315 1315 1314 1314 1314 1314 1314 1314 1314 1314 1314 1314 1314 1314 1313 1313 1313 1313 1313 1313 1313 1313 1313 1314 1314 1314 1313 1313 1312 1312 1311 1311 1311 1311 1311 1310 1310 1310 1309 1309 1309 1311 1311 1311 1315 1324 1349 1394 1422 1422 1431 1434 1433 1433 1433 1428 1423 1419 1419 1417 1412 1405 1405 1399 1395 1390 1385 1384 1377 1369 1367 1364 1354 1348 1343 1332 1328 1328 1328 1333 1334 1334 1334 1331 1331 1329 1322 1280
1838 1840 1854 1868 1881 1889 1897 1903 1910 1914 1923 1932 1941 1959 1979 2004 2026 2043 2052 2060 2071 2081 2097 2109 2118 2139 2152 2164 2173 2186 2198 2208 2218 2228 2234 2240 2249 2261 2271 2276 2280 2287 2293 2298 2306 2315 2324 2334 2345 2355 2363 2370 2377 2381 2384 2386 2392 2399 2407 2412 2418 2425 2429 2433 2437 2441 2448 2453 2461 2469 2479 2489 2499 2506 2513 2516 2521 2525 2532 2537 2538 2541 2545 2548 2551 2557 2562 2569 2575 2580 2583 2588 2592 2596 2602 2610 2615 2620 2625 2631 2636 2637 2637 2638 2640 2646 2651 2654 2656 2657 2660 2660 2660 2660 2661 2663 2665 2665 2666 2666 2670 2671 2674 2677 2678 2679 2679 2679 2679 2679 2676 2670 2660 2647 2637 2601 0 0 0 0 0 0 0 0 0 0 0 2860 3250 3419 3484 3493 3504 3509 3527 3545 3560 3564 3564 3564 3563 3561 3561 3561 3561 3561 3563 3565 3567 3568 3570 3572 3575 3578 3580 3581 3584 3587 3590 3592 3592 3593 3593 3593 3592 3592 3592 3592 3592 3592 3592 3590 3588 3585 3582 3580 3580 3580 3579 3578 3576 3572 3567 3565 3561 3561 3561 3558 3554 3550 3547 3544 3544 3544 3544 3541 3538 3528 3520 3511 3502 3487 3475 3465 3451 3436 3422 3403 3391 3372 3338 3288 3226 3131 2908 2703 0 0 0 0 0 1506 1488 1465 1447 1434 1426 1406 1384 1372 1366 1364 1363 1362 1362 1360 1360 1359 1359 1359 1358 1358 1358 1358 1357 1357 1357 1356 1356 1355 1354 1354 1352 1352 1350 1348 1347 1345 1343 1342 1341 1340 1340 1339 1337 1336 1336 1336 1335 1335 1335 1335 1335 1335 1335 1337 1338 1338 1338 1339 1340 1341 1343 1343 1344 1344 1345 1345 1346 1346 1346 1346 1346 1346 1345 1344 1344 1344 1344 1344 1343 1343 1342 1341 1341 1341 1340 1340 1338 1337 1335 1334 1332 1330 1329 1329 1328 1327 1325 1325 1325 1323 1323 1322 1322 1322 1322 1321 1321 1321 1321 1322 1323 1323 1325 1326 1327 1328 1330 1331 1332 1333 1333 1334 1334 1334 1334 1334 1334 1334 1334 1334 1333 1333 1333 1333 1333 1333 1332 1332 1331 1330 1329 1329 1327 1326 1324 1322 1319 1317 1316 1314 1313 1313 1312 1312 1312 1311 1311 1311 1311 1311 1311 1311 1312 1312 1313 1315 1315 1316 1317 1318 1318 1320 1321 1323 1323 1324 1325 1326 1327 1327 1327 1327 1327 1327 1327 1327 1327 1326 1326 1326 1326 1326 1325 1324 1324 1324 1323 1322 1320 1319 1317 1316 1314 1311 1307 1304 1301 1300 1298 1297 1296 1296 1295 1294 1294 1293 1292 1292 1292 1292 1292 1292 1293 1296 1296 1297 1297 1301 1306 1310 1312 1315 1317 1319 1319 1320 1320 1320 1321 1321 1321 1321 1320 1320 1320 1320 1320 1319 1319 1319 1319 1318 1318 1317 1316 1315 1313 1310 1308 1307 1303 1301 1297 1293 1288 1285 1284 1283 1280 1278 1278 1278 1279 1279 1279 1280 1280 1280 1281 1282 1283 1285 1286 1286 1289 1291 1295 1299 1303 1306 1307 1310 1310 1313 1314 1314 1314 1314 1314 1314 1314 1314 1314 1314 1314 1314 1313 1313 1313 1313 1313 1313 1312 1312 1312 1312 1312 1313 1313 1312 1312 1312 1312 1312 1312 1312 1312 1312 1311 1311 1311 1311 1311 1310 1310 1310 1309 1309 1309 1311 1311 1311 1315 1323 1342 1384 1412 1413 1415 1416 1416 1416 1415 1413 1408 1404 1399 1397 1397 1391 1384 1383 1382 1382 1380 1379 1376 1368 1367 1364 1354 1348 1339 1328 1326 1326 1326 1330 1331 1331 1331 1331 1331 1329 1323 1281
1838 1840 1852 1867 1880 1888 1894 1900 1910 1914 1923 1931 1941 1952 1969 1986 2009 2034 2052 2060 2069 2081 2094 2106 2118 2132 2144 2150 2160 2175 2189 2203 2211 2221 2227 2235 2246 2261 2271 2275 2277 2282 2288 2297 2303 2311 2319 2332 2343 2355 2363 2369 2375 2381 2383 2386 2390 2397 2406 2410 2418 2421 2427 2433 2437 2441 2448 2453 2461 2469 2479 2487 2497 2506 2513 2516 2519 2524 2529 2532 2535 2537 2542 2547 2551 2556 2562 2569 2575 2580 2582 2585 2589 2594 2600 2607 2611 2616 2621 2627 2631 2635 2635 2635 2637 2641 2647 2651 2654 2656 2657 2659 2659 2660 2660 2661 2661 2662 2662 2662 2664 2666 2671 2673 2675 2677 2678 2678 2678 2678 2675 2668 2660 2647 2637 2601 0 0 0 0 0 0 0 0 0 0 0 2915 3258 3422 3484 3493 3504 3509 3527 3546 3560 3561 3562 3562 3561 3561 3561 3561 3561 3561 3563 3566 3567 3568 3570 3572 3575 3578 3580 3581 3584 3587 3590 3592 3592 3592 3592 3592 3592 3592 3592 3592 3592 3592 3592 3589 3587 3584 3582 3579 3577 3576 3575 3574 3573 3570 3565 3562 3559 3559 3559 3558 3554 3550 3546 3544 3544 3544 3544 3540 3538 3528 3520 3511 3502 3487 3475 3465 3449 3430 3408 3388 3361 3320 3268 3210 3127 2969 2535 0 0 0 0 0 1497 1485 1469 1452 1440 1433 1422 1404 1384 1372 1366 1363 1361 1361 1361 1360 1360 1359 1359 1359 1358 1358 1358 1358 1357 1357 1357 1356 1356 1355 1354 1353 1352 1352 1350 1348 1347 1345 1344 1342 1341 1341 1340 1340 1338 1338 1337 1337 1336 1336 1336 1336 1336 1336 1337 1337 1338 1339 1339 1339 1340 1341 1343 1343 1343 1343 1344 1345 1345 1345 1345 1345 1344 1344 1343 1343 1343 1343 1342 1342 1342 1342 1341 1341 1340 1340 1339 1339 1338 1337 1335 1334 1332 1330 1329 1329 1328 1327 1325 1325 1325 1323 1323 1322 1322 1322 1322 1321 1321 1321 1322 1322 1323 1323 1325 1326 1327 1328 1330 1330 1332 1332 1332 1333 1333 1333 1333 1333 1333 1333 1333 1333 1333 1333 1333 1333 1332 1332 1332 1331 1331 1330 1329 1328 1327 1326 1323 1321 1320 1318 1316 1315 1314 1314 1313 1312 1312 1312 1311 1311 1311 1311 1311 1311 1312 1312 1313 1315 1315 1316 1317 1318 1318 1320 1321 1322 1323 1324 1324 1325 1326 1326 1326 1326 1326 1326 1326 1326 1325 1325 1325 1325 1325 1325 1325 1324 1324 1322 1322 1321 1320 1319 1317 1316 1314 1311 1307 1304 1302 1300 1298 1298 1297 1296 1296 1295 1294 1294 1293 1293 1293 1293 1293 1294 1295 1296 1297 1298 1298 1301 1306 1310 1312 1315 1317 1318 1319 1319 1319 1320 1320 1320 1320 1320 1320 1320 1320 1320 1319 1319 1319 1319 1318 1318 1317 1317 1316 1315 1313 1310 1308 1306 1303 1301 1297 1293 1289 1288 1287 1284 1282 1279 1279 1279 1279 1280 1280 1280 1280 1281 1281 1283 1283 1285 1286 1286 1289 1291 1296 1299 1303 1306 1307 1310 1310 1312 1314 1314 1314 1314 1314 1313 1313 1313 1313 1313 1313 1313 1312 1312 1312 1312 1312 1311 1311 1311 1311 1311 1311 1311 1311 1311 1311 1311 1312 1312 1312 1312 1311 1311 1311 1311 1311 1311 1311 1310 1310 1309 1309 1309 1310 1311 1311 1311 1316 1323 1340 1377 1387 1404 1404 1404 1404 1404 1403 1402 1402 1397 1390 1385 1383 1379 1374 1372 1370 1368 1368 1366 1366 1366 1364 1361 1354 1344 1333 1327 1325 1323 1323 1323 1325 1326 1329 1331 1331 1331 1323 1293
1837 1839 1852 1864 1874 1882 1890 1898 1908 1914 1923 1931 1941 1952 1962 1973 1990 2017 2044 2057 2064 2076 2093 2106 2115 2126 2131 2138 2145 2162 2179 2191 2201 2210 2221 2232 2242 2252 2266 2270 2275 2280 2288 2295 2300 2307 2317 2329 2341 2350 2357 2364 2370 2378 2382 2385 2389 2396 2403 2407 2414 2419 2426 2433 2440 2447 2452 2459 2462 2469 2479 2487 2497 2505 2511 2515 2519 2522 2525 2528 2532 2535 2539 2542 2547 2552 2560 2570 2576 2580 2582 2584 2589 2594 2600 2604 2607 2610 2617 2621 2626 2631 2632 2633 2634 2638 2643 2649 2652 2655 2657 2658 2658 2658 2658 2658 2658 2658 2658 2659 2661 2664 2666 2671 2674 2675 2676 2677 2677 2677 2673 2668 2660 2655 2639 2601 0 0 0 0 0 0 0 0 0 0 0 2937 3287 3436 3484 3496 3520 3532 3540 3548 3556 3560 3560 3561 3561 3561 3561 3561 3561 3562 3564 3566 3567 3568 3570 3572 3575 3578 3581 3583 3586 3588 3591 3592 3592 3592 3592 3592 3592 3592 3591 3591 3591 3589 3589 3588 3585 3584 3581 3578 3574 3572 3571 3570 3570 3568 3565 3562 3559 3558 3557 3557 3554 3550 3546 3544 3544 3544 3544 3539 3533 3527 3520 3511 3502 3487 3475 3465 3449 3426 3400 3368 3319 3250 3187 3096 2811 2564 0 0 0 0 0 0 1482 1469 1455 1444 1434 1429 1417 1400 1384 1372 1365 1362 1361 1361 1360 1360 1359 1358 1358 1358 1358 1358 1358 1357 1357 1357 1357 1356 1355 1355 1354 1353 1352 1352 1350 1348 1347 1345 1344 1343 1342 1342 1342 1340 1339 1338 1338 1337 1337 1337 1336 1336 1336 1337 1337 1339 1339 1339 1339 1339 1340 1340 1343 1343 1343 1343 1343 1343 1343 1343 1343 1343 1343 1343 1342 1342 1342 1342 1342 1341 1341 1341 1341 1340 1340 1338 1338 1338 1337 1336 1335 1333 1331 1330 1329 1329 1328 1327 1326 1325 1325 1323 1323 1322 1322 1322 1322 1322 1322 1322 1322 1322 1323 1324 1325 1326 1327 1328 1328 1330 1331 1332 1332 1332 1333 1333 1333 1333 1333 1333 1333 1333 1332 1332 1332 1332 1332 1331 1331 1330 1330 1329 1328 1327 1327 1325 1323 1321 1320 1318 1317 1315 1315 1314 1313 1313 1312 1312 1312 1311 1311 1311 1311 1311 1312 1312 1313 1315 1316 1316 1317 1318 1318 1320 1321 1322 1323 1323 1324 1324 1325 1325 1325 1325 1325 1325 1325 1324 1325 1325 1324 1324 1324 1324 1324 1324 1323 1322 1321 1320 1320 1318 1317 1316 1314 1311 1307 1304 1302 1301 1299 1298 1297 1297 1296 1296 1295 1295 1295 1294 1294 1294 1295 1295 1296 1296 1297 1298 1299 1302 1306 1309 1312 1315 1317 1318 1318 1318 1318 1319 1320 1320 1320 1319 1319 1319 1319 1319 1319 1319 1319 1318 1318 1317 1317 1317 1316 1314 1312 1310 1308 1306 1303 1301 1297 1293 1291 1291 1288 1286 1282 1279 1279 1279 1279 1280 1281 1281 1282 1282 1283 1284 1284 1284 1284 1286 1289 1291 1296 1301 1305 1306 1307 1309 1310 1311 1312 1312 1312 1312 1312 1312 1312 1312 1312 1312 1312 1312 1311 1311 1311 1311 1311 1311 1311 1310 1310 1310 1310 1310 1311 1311 1311 1311 1311 1311 1311 1311 1311 1311 1311 1311 1311 1310 1310 1309 1309 1309 1309 1309 1309 1311 1311 1311 1316 1321 1331 1369 1384 1389 1390 1390 1392 1392 1392 1392 1392 1389 1383 1377 1373 1368 1365 1359 1357 1357 1356 1355 1351 1351 1347 1346 1343 1337 1332 1324 1323 1322 1322 1318 1318 1318 1326 1329 1329 1326 1323 1293
1835 1838 1845 1853 1862 1872 1884 1898 1907 1917 1921 1931 1942 1952 1961 1970 1986 2002 2025 2043 2059 2074 2089 2106 2111 2119 2126 2129 2138 2153 2171 2183 2191 2201 2212 2221 2232 2243 2253 2261 2267 2276 2288 2292 2297 2304 2315 2325 2335 2344 2350 2356 2363 2373 2378 2384 2388 2394 2400 2407 2412 2417 2425 2433 2440 2447 2452 2459 2464 2470 2477 2487 2497 2505 2511 2515 2519 2520 2522 2525 2528 2534 2538 2541 2547 2552 2560 2570 2576 2580 2582 2584 2589 2594 2599 2603 2606 2608 2611 2616 2621 2627 2629 2631 2632 2634 2638 2645 2649 2653 2655 2657 2657 2657 2657 2658 2657 2657 2658 2658 2659 2663 2666 2669 2671 2673 2674 2676 2676 2676 2672 2669 2665 2655 2639 2601 0 0 0 0 0 0 0 0 0 0 0 2939 3293 3450 3497 3519 3532 3540 3544 3548 3552 3556 3559 3559 3560 3560 3561 3562 3562 3563 3564 3566 3567 3569 3570 3572 3575 3578 3581 3584 3586 3588 3591 3592 3592 3592 3592 3592 3592 3592 3592 3592 3591 3589 3589 3587 3584 3583 3580 3577 3574 3571 3570 3570 3569 3568 3565 3562 3559 3558 3557 3555 3553 3549 3546 3546 3545 3544 3544 3538 3531 3525 3517 3508 3497 3480 3470 3462 3443 3420 3391 3336 3276 3179 3084 2921 0 0 0 0 0 0 1508 1480 1466 1458 1445 1434 1427 1420 1412 1399 1378 1367 1365 1362 1361 1361 1360 1359 1358 1358 1358 1358 1358 1358 1357 1357 1357 1357 1357 1356 1355 1354 1354 1353 1352 1352 1350 1348 1347 1346 1345 1344 1342 1342 1342 1341 1339 1339 1338 1338 1338 1337 1337 1337 1337 1338 1339 1339 1339 1340 1340 1339 1340 1340 1341 1342 1342 1342 1342 1342 1342 1342 1342 1342 1341 1341 1341 1341 1341 1341 1340 1340 1340 1340 1340 1339 1338 1338 1337 1337 1336 1335 1334 1333 1331 1330 1329 1329 1328 1327 1326 1326 1325 1323 1323 1323 1322 1322 1322 1322 1322 1322 1322 1323 1323 1324 1325 1326 1327 1327 1328 1329 1330 1330 1331 1331 1331 1332 1332 1332 1332 1332 1332 1332 1332 1332 1332 1331 1331 1331 1331 1330 1329 1329 1328 1326 1326 1324 1323 1321 1320 1319 1317 1316 1315 1314 1314 1313 1312 1312 1312 1312 1311 1311 1311 1311 1312 1313 1313 1315 1316 1316 1317 1318 1318 1319 1321 1322 1322 1322 1323 1323 1323 1323 1323 1323 1323 1323 1323 1323 1323 1323 1323 1323 1323 1323 1323 1323 1322 1321 1319 1319 1319 1318 1317 1316 1314 1311 1308 1306 1303 1301 1300 1298 1298 1297 1297 1297 1296 1296 1295 1295 1295 1295 1296 1296 1296 1296 1297 1298 1300 1302 1306 1308 1312 1314 1316 1317 1317 1318 1318 1318 1318 1318 1318 1318 1318 1318 1318 1318 1317 1317 1317 1317 1317 1316 1316 1316 1315 1314 1312 1310 1307 1305 1303 1299 1297 1293 1291 1291 1288 1286 1282 1279 1278 1278 1278 1280 1281 1283 1284 1284 1284 1284 1284 1284 1284 1286 1289 1289 1296 1301 1305 1306 1307 1308 1309 1310 1311 1311 1311 1311 1311 1311 1311 1311 1312 1311 1311 1311 1310 1310 1310 1310 1310 1309 1309 1309 1309 1309 1310 1310 1310 1310 1310 1310 1311 1311 1311 1311 1311 1310 1310 1310 1310 1309 1309 1309 1309 1309 1309 1309 1309 1310 1310 1310 1316 1316 1330 1365 1381 1381 1381 1378 1376 1376 1376 1378 1378 1378 1376 1370 1366 1360 1355 1348 1348 1348 1347 1347 1344 1340 1339 1335 1334 1334 1328 1322 1322 1321 1319 1317 1317 1317 1326 1328 1328 1326 1323 1293
1828 1834 1837 1847 1860 1872 1884 1896 1907 1917 1921 1931 1946 1954 1960 1970 1986 2002 2025 2043 2059 2074 2088 2101 2106 2114 2118 2125 2138 2152 2166 2176 2182 2193 2206 2218 2232 2243 2251 2257 2266 2275 2285 2289 2294 2301 2311 2322 2331 2338 2344 2349 2355 2364 2374 2381 2386 2392 2400 2407 2412 2417 2425 2433 2440 2447 2452 2459 2464 2470 2477 2485 2491 2499 2508 2514 2516 2518 2519 2522 2527 2532 2537 2541 2547 2552 2560 2570 2576 2580 2582 2584 2590 2595 2599 2602 2605 2606 2608 2613 2619 2625 2629 2631 2631 2631 2634 2640 2645 2648 2650 2652 2654 2654 2655 2656 2657 2657 2657 2657 2657 2662 2664 2666 2667 2669 2672 2673 2673 2673 2672 2668 2666 2655 2639 2601 0 0 0 0 0 0 0 0 0 0 0 2947 3294 3454 3504 3522 3536 3540 3545 3546 3551 3553 3557 3559 3559 3560 3561 3563 3564 3564 3564 3566 3568 3569 3570 3572 3575 3577 3581 3584 3586 3588 3591 3592 3592 3592 3592 3592 3594 3594 3594 3593 3591 3589 3589 3587 3584 3582 3579 3577 3573 3570 3569 3569 3569 3568 3565 3562 3560 3558 3557 3554 3550 3546 3546 3546 3545 3545 3545 3538 3531 3525 3515 3505 3483 3470 3460 3450 3430 3395 3348 3282 3205 3072 2876 0 0 0 0 0 0 1506 1472 1460 1454 1443 1428 1421 1416 1408 1398 1389 1374 1367 1364 1362 1361 1361 1360 1358 1358 1358 1358 1358 1357 1357 1357 1357 1356 1356 1356 1356 1355 1354 1354 1353 1352 1351 1350 1349 1347 1347 1345 1345 1343 1342 1342 1341 1340 1339 1339 1339 1339 1338 1339 1339 1339 1340 1340 1341 1341 1341 1340 1339 1339 1339 1340 1341 1341 1341 1341 1341 1341 1341 1341 1341 1340 1340 1340 1339 1339 1339 1339 1339 1339 1339 1339 1338 1338 1336 1336 1335 1335 1334 1334 1331 1331 1330 1330 1329 1329 1327 1326 1326 1325 1325 1324 1324 1323 1323 1323 1323 1323 1323 1323 1323 1324 1324 1325 1326 1326 1327 1327 1328 1329 1330 1330 1330 1331 1331 1331 1331 1331 1331 1331 1331 1331 1331 1331 1331 1331 1330 1330 1328 1328 1327 1327 1326 1324 1324 1322 1321 1319 1319 1318 1317 1316 1315 1315 1314 1313 1313 1312 1312 1312 1312 1312 1312 1313 1313 1314 1315 1316 1316 1317 1318 1318 1319 1320 1321 1321 1321 1322 1322 1322 1322 1322 1322 1322 1322 1322 1322 1322 1322 1322 1322 1322 1322 1322 1322 1321 1320 1318 1318 1317 1317 1317 1315 1312 1311 1309 1306 1303 1301 1300 1299 1299 1298 1298 1298 1298 1298 1297 1296 1296 1296 1296 1296 1297 1297 1298 1299 1301 1303 1306 1308 1311 1313 1315 1316 1316 1316 1317 1317 1317 1317 1317 1317 1317 1317 1317 1316 1316 1316 1316 1316 1316 1316 1315 1315 1315 1314 1311 1309 1306 1305 1302 1299 1295 1293 1292 1291 1288 1286 1282 1279 1278 1278 1278 1280 1281 1284 1285 1285 1285 1285 1285 1285 1285 1286 1289 1289 1294 1301 1305 1306 1306 1307 1309 1310 1310 1310 1310 1309 1309 1309 1310 1310 1310 1310 1310 1310 1310 1310 1309 1309 1309 1307 1307 1307 1308 1308 1309 1309 1309 1309 1310 1310 1310 1310 1310 1310 1310 1310 1309 1309 1309 1309 1309 1309 1308 1308 1308 1309 1309 1310 1310 1310 1312 1316 1322 1346 1373 1373 1373 1371 1367 1366 1366 1366 1367 1367 1367 1364 1358 1352 1349 1341 1341 1341 1340 1340 1340 1338 1331 1331 1327 1327 1326 1318 1316 1316 1315 1314 1315 1314 1314 1317 1317 1317 0 0
1827 1834 1837 1847 1860 1872 1884 1893 1903 1917 1921 1931 1946 1954 1960 1970 1986 2002 2025 2043 2059 2074 2088 2100 2104 2111 2115 2125 2137 2152 2164 2169 2177 2187 2204 2218 2232 2243 2251 2257 2262 2270 2278 2285 2291 2300 2310 2319 2328 2334 2339 2344 2350 2360 2370 2378 2386 2391 2400 2407 2412 2417 2425 2432 2439 2445 2451 2458 2464 2470 2477 2480 2486 2494 2501 2509 2512 2515 2516 2521 2526 2532 2536 2541 2546 2552 2559 2569 2576 2580 2584 2588 2592 2595 2599 2600 2602 2604 2607 2612 2617 2622 2627 2628 2630 2630 2632 2635 2639 2643 2646 2648 2650 2651 2653 2655 2656 2656 2656 2656 2656 2657 2659 2660 2664 2667 2671 2672 2672 2672 2671 2668 2666 2655 2636 2585 0 0 0 0 0 0 0 0 0 0 0 2968 3294 3457 3505 3522 3536 3540 3545 3546 3547 3550 3552 3555 3558 3560 3561 3563 3564 3565 3566 3567 3569 3571 3571 3573 3575 3577 3581 3584 3586 3588 3590 3591 3591 3591 3592 3592 3594 3594 3594 3594 3592 3589 3588 3586 3584 3580 3577 3576 3573 3570 3569 3569 3568 3567 3565 3563 3563 3558 3557 3553 3547 3545 3545 3545 3545 3545 3545 3538 3531 3525 3515 3500 3475 3458 3446 3437 3402 3355 3287 3161 3000 2824 0 0 0 0 0 1538 1510 1476 1451 1446 1435 1421 1416 1414 1409 1403 1391 1382 1373 1367 1364 1362 1361 1360 1359 1358 1357 1357 1357 1357 1357 1357 1357 1356 1356 1356 1356 1356 1355 1354 1353 1353 1352 1351 1350 1349 1348 1347 1346 1345 1344 1343 1342 1342 1341 1340 1340 1340 1340 1340 1341 1341 1341 1341 1341 1341 1341 1341 1340 1339 1339 1339 1340 1340 1340 1340 1340 1340 1340 1339 1339 1339 1339 1339 1338 1338 1338 1338 1337 1337 1337 1337 1337 1337 1336 1336 1335 1334 1334 1334 1333 1331 1330 1330 1330 1329 1329 1328 1327 1326 1326 1326 1326 1325 1325 1325 1324 1324 1324 1324 1324 1324 1325 1325 1325 1326 1326 1327 1327 1328 1329 1329 1329 1329 1329 1329 1329 1330 1330 1330 1330 1330 1330 1330 1330 1330 1330 1329 1328 1327 1327 1326 1325 1325 1324 1322 1322 1321 1319 1319 1318 1318 1317 1317 1316 1315 1314 1314 1313 1312 1312 1313 1313 1313 1313 1313 1314 1315 1316 1317 1317 1318 1318 1319 1320 1320 1320 1320 1320 1321 1320 1320 1320 1320 1320 1320 1320 1320 1321 1321 1321 1321 1321 1321 1321 1320 1319 1319 1318 1317 1316 1316 1315 1313 1311 1311 1310 1306 1303 1302 1300 1300 1300 1299 1299 1299 1299 1298 1298 1298 1298 1298 1298 1297 1297 1297 1298 1299 1302 1305 1306 1309 1311 1312 1313 1315 1315 1316 1316 1316 1316 1316 1316 1316 1315 1315 1314 1314 1314 1314 1314 1314 1314 1314 1314 1314 1314 1312 1310 1307 1306 1305 1302 1299 1295 1293 1292 1291 1288 1284 1282 1279 1278 1278 1278 1280 1283 1284 1285 1285 1286 1286 1286 1287 1288 1289 1289 1289 1293 1301 1305 1305 1306 1306 1307 1308 1308 1308 1308 1308 1308 1308 1308 1309 1309 1309 1308 1308 1308 1307 1307 1307 1306 1306 1307 1307 1307 1307 1308 1308 1308 1308 1308 1309 1309 1309 1310 1310 1310 1309 1309 1309 1309 1309 1309 1308 1308 1308 1308 1308 1309 1309 1309 1310 1312 1314 1322 1337 1358 1366 1366 1366 1362 1361 1357 1356 1356 1356 1356 1356 1351 1346 1344 1339 1338 1338 1336 1335 1333 1330 1324 1324 1321 1320 1319 1313 1313 1313 1313 1313 1311 1311 1311 1313 1310 0 0 0
1825 1834 1837 1847 1860 1875 1885 1892 1898 1909 1914 1931 1946 1955 1962 1970 1994 2014 2028 2044 2061 2075 2088 2100 2104 2108 2112 2122 2135 2149 2159 2167 2175 2187 2204 2218 2230 2244 2251 2257 2262 2266 2275 2283 2289 2298 2308 2318 2324 2329 2332 2338 2347 2358 2367 2376 2383 2391 2399 2410 2416 2420 2425 2432 2437 2443 2448 2454 2460 2467 2473 2477 2484 2490 2497 2504 2509 2511 2515 2518 2525 2530 2536 2541 2546 2552 2558 2567 2575 2580 2584 2588 2592 2595 2597 2599 2599 2601 2605 2610 2616 2619 2622 2627 2629 2629 2630 2632 2636 2638 2642 2645 2646 2649 2650 2652 2652 2652 2652 2651 2651 2651 2653 2654 2659 2664 2669 2669 2669 2668 2668 2668 2666 2649 2617 2559 0 0 0 0 0 0 0 0 0 0 2508 2993 3300 3457 3505 3522 3536 3539 3544 3545 3545 3547 3549 3553 3555 3558 3560 3563 3564 3565 3567 3568 3570 3572 3574 3574 3576 3577 3581 3582 3584 3586 3587 3590 3590 3590 3590 3591 3594 3595 3595 3595 3592 3589 3588 3586 3582 3580 3577 3576 3573 3570 3568 3568 3567 3565 3565 3564 3563 3562 3557 3551 3545 3543 3543 3543 3545 3545 3545 3538 3531 3525 3513 3493 3470 3447 3432 3414 3363 3291 3162 2961 2741 0 0 0 0 0 1536 1513 1485 1458 1446 1430 1413 1405 1405 1403 1403 1400 1391 1380 1371 1367 1364 1362 1361 1359 1358 1357 1357 1356 1356 1356 1356 1356 1356 1356 1356 1356 1355 1355 1355 1354 1353 1353 1352 1351 1350 1349 1348 1348 1347 1346 1344 1343 1342 1342 1342 1342 1342 1342 1342 1342 1342 1342 1341 1341 1341 1341 1341 1341 1341 1340 1340 1340 1339 1339 1339 1338 1338 1338 1338 1337 1337 1337 1337 1337 1337 1337 1336 1336 1336 1336 1336 1336 1336 1335 1335 1334 1334 1334 1333 1333 1333 1331 1330 1330 1330 1329 1329 1328 1327 1327 1327 1327 1327 1326 1326 1325 1325 1325 1325 1325 1325 1325 1325 1325 1326 1326 1326 1326 1327 1327 1327 1327 1327 1327 1327 1328 1328 1328 1328 1328 1328 1328 1328 1328 1329 1328 1328 1328 1327 1326 1325 1325 1323 1323 1323 1322 1321 1321 1319 1319 1318 1318 1318 1318 1317 1316 1316 1315 1315 1314 1314 1314 1315 1315 1315 1315 1315 1315 1317 1317 1317 1318 1318 1319 1320 1320 1320 1320 1320 1320 1319 1319 1319 1319 1319 1319 1319 1319 1319 1319 1319 1319 1319 1319 1319 1318 1317 1317 1317 1316 1315 1314 1314 1313 1311 1311 1310 1307 1303 1302 1301 1301 1301 1300 1300 1300 1300 1300 1300 1300 1300 1300 1300 1300 1300 1300 1301 1301 1303 1305 1307 1308 1311 1312 1312 1313 1314 1314 1314 1315 1315 1314 1314 1313 1313 1313 1312 1312 1312 1312 1312 1312 1312 1312 1312 1312 1311 1309 1308 1307 1305 1304 1302 1299 1295 1293 1292 1291 1288 1284 1282 1279 1279 1279 1280 1281 1284 1284 1285 1286 1287 1287 1288 1291 1291 1291 1292 1292 1293 1301 1304 1305 1305 1305 1305 1305 1305 1306 1306 1306 1306 1306 1307 1307 1307 1307 1307 1305 1305 1305 1305 1305 1305 1305 1305 1306 1306 1306 1306 1306 1306 1306 1307 1307 1308 1309 1309 1309 1309 1309 1309 1309 1309 1308 1308 1308 1308 1308 1308 1308 1308 1308 1309 1309 1311 1314 1320 1333 1352 1361 1361 1361 1359 1356 1351 1348 1348 1347 1347 1346 1344 1343 1342 1338 1336 1335 1334 1333 1332 1324 1318 1318 1315 1315 1315 1312 1309 1309 1309 1311 1311 1311 1307 1301 0 0 0 0
1825 1828 1843 1856 1869 1875 1885 1889 1894 1904 1914 1925 1941 1955 1963 1978 1999 2014 2028 2045 2064 2077 2089 2100 2104 2108 2111 2116 2129 2143 2153 2163 2175 2187 2202 2218 2230 2244 2251 2256 2261 2266 2270 2280 2288 2295 2306 2315 2323 2327 2331 2336 2342 2353 2364 2371 2378 2390 2399 2410 2416 2420 2425 2431 2435 2443 2448 2453 2458 2465 2470 2477 2484 2490 2495 2500 2504 2508 2511 2515 2523 2529 2535 2539 2545 2550 2555 2564 2573 2580 2584 2588 2592 2594 2594 2595 2596 2597 2600 2605 2611 2617 2620 2624 2627 2627 2628 2630 2632 2636 2638 2642 2644 2646 2647 2647 2647 2646 2644 2644 2644 2646 2651 2653 2657 2661 2665 2665 2665 2661 2660 2659 2657 2648 2615 2551 0 0 0 0 0 0 0 0 0 0 2541 3030 3312 3454 3505 3522 3534 3538 3543 3543 3544 3544 3547 3552 3553 3556 3558 3562 3564 3565 3567 3568 3571 3573 3575 3577 3578 3578 3581 3582 3582 3584 3585 3585 3585 3585 3587 3588 3590 3594 3594 3594 3592 3589 3586 3583 3581 3580 3577 3576 3573 3571 3568 3566 3565 3564 3564 3564 3563 3563 3558 3551 3545 3545 3545 3545 3545 3545 3545 3538 3531 3525 3512 3487 3463 3437 3411 3370 3286 3194 2935 0 0 0 0 0 1532 1528 1516 1489 1464 1444 1431 1420 1412 1403 1402 1401 1399 1398 1386 1376 1370 1365 1364 1362 1360 1359 1358 1357 1356 1356 1356 1356 1356 1355 1355 1355 1355 1355 1355 1355 1354 1354 1353 1352 1352 1351 1350 1349 1348 1348 1348 1347 1347 1345 1345 1345 1345 1344 1344 1344 1344 1343 1343 1342 1342 1342 1342 1342 1342 1342 1342 1340 1340 1340 1339 1339 1339 1338 1337 1337 1334 1334 1334 1334 1334 1334 1334 1334 1334 1334 1334 1334 1334 1334 1334 1334 1334 1334 1333 1333 1333 1333 1332 1332 1331 1331 1331 1331 1331 1330 1329 1328 1328 1328 1327 1327 1327 1327 1327 1326 1326 1326 1326 1326 1326 1326 1326 1326 1326 1326 1326 1326 1326 1326 1326 1326 1326 1326 1326 1326 1326 1327 1327 1327 1327 1327 1327 1327 1326 1325 1325 1324 1324 1324 1323 1323 1323 1322 1321 1321 1319 1319 1319 1320 1320 1320 1318 1317 1317 1316 1316 1316 1316 1317 1317 1317 1317 1317 1317 1317 1317 1318 1318 1319 1319 1319 1319 1319 1319 1319 1319 1319 1319 1319 1319 1319 1318 1317 1317 1317 1317 1317 1317 1317 1317 1317 1316 1316 1315 1315 1315 1314 1314 1314 1313 1312 1311 1311 1310 1307 1304 1302 1302 1302 1302 1302 1301 1300 1300 1300 1301 1302 1303 1303 1303 1303 1303 1303 1303 1303 1304 1306 1308 1308 1309 1311 1312 1313 1313 1313 1313 1313 1312 1312 1312 1311 1311 1310 1310 1310 1310 1309 1310 1310 1310 1310 1310 1309 1309 1309 1308 1306 1305 1304 1302 1301 1296 1293 1292 1291 1288 1284 1282 1281 1281 1281 1283 1285 1286 1286 1286 1287 1288 1291 1293 1295 1295 1295 1293 1293 1293 1301 1304 1304 1304 1304 1303 1303 1303 1303 1304 1304 1304 1305 1306 1306 1306 1305 1304 1304 1303 1303 1303 1302 1302 1302 1303 1304 1304 1304 1304 1304 1304 1304 1306 1306 1306 1307 1308 1308 1309 1309 1308 1308 1308 1308 1308 1308 1307 1307 1307 1307 1307 1307 1307 1308 1309 1311 1318 1330 1347 1353 1353 1353 1352 1351 1346 1344 1342 1341 1340 1339 1338 1338 1336 1334 1332 1330 1329 1329 1326 1319 1309 1309 1308 1306 1306 1305 1303 1299 1296 1285 1279 1273 1260 0 0 0 0 0
1820 1828 1843 1856 1869 1875 1885 1887 1892 1904 1914 1923 1941 1955 1968 1984 2000 2014 2028 2045 2065 2078 2089 2100 2104 2108 2110 2115 2126 2135 2147 2161 2173 2187 2202 2218 2230 2244 2251 2255 2258 2263 2268 2276 2284 2293 2304 2314 2320 2327 2331 2335 2337 2344 2356 2365 2376 2387 2399 2410 2416 2420 2424 2430 2435 2443 2448 2453 2458 2462 2469 2476 2483 2489 2493 2497 2501 2504 2509 2512 2520 2527 2532 2536 2542 2549 2553 2562 2572 2579 2582 2586 2591 2593 2593 2594 2595 2596 2597 2602 2608 2613 2618 2623 2624 2626 2626 2628 2629 2631 2634 2638 2641 2642 2642 2642 2640 2640 2639 2639 2639 2644 2651 2652 2657 2659 2659 2659 2659 2654 2652 2651 2647 2637 2614 2543 0 0 0 0 0 0 0 0 0 0 2578 3041 3328 3459 3501 3513 3524 3533 3541 3542 3542 3544 3545 3549 3552 3554 3556 3558 3562 3564 3567 3568 3571 3573 3576 3578 3579 3580 3581 3582 3582 3584 3584 3584 3584 3584 3587 3587 3590 3594 3594 3594 3593 3589 3586 3583 3581 3580 3579 3579 3577 3574 3569 3566 3565 3564 3564 3564 3564 3564 3558 3551 3545 3545 3545 3545 3545 3545 3544 3538 3530 3522 3503 3482 3453 3418 3370 3282 3143 2944 2571 0 0 0 0 1516 1509 1509 1486 1461 1442 1428 1422 1413 1405 1402 1401 1399 1398 1395 1385 1376 1369 1365 1363 1362 1360 1359 1357 1356 1356 1356 1355 1355 1355 1355 1355 1355 1355 1355 1354 1354 1354 1354 1353 1352 1352 1351 1350 1350 1349 1349 1348 1348 1347 1346 1346 1346 1345 1345 1344 1344 1344 1344 1343 1343 1343 1343 1343 1343 1343 1343 1342 1341 1340 1339 1339 1338 1337 1335 1334 1334 1333 1333 1333 1333 1333 1333 1331 1331 1330 1330 1330 1330 1330 1331 1331 1331 1332 1332 1332 1332 1332 1332 1332 1332 1331 1331 1331 1331 1331 1331 1331 1330 1330 1329 1329 1328 1328 1328 1328 1328 1328 1328 1327 1327 1327 1327 1327 1327 1327 1326 1325 1325 1325 1325 1325 1325 1325 1324 1324 1324 1325 1325 1325 1325 1325 1325 1325 1325 1324 1323 1323 1323 1322 1322 1322 1321 1321 1321 1321 1321 1320 1320 1320 1320 1320 1320 1320 1320 1320 1318 1317 1317 1317 1318 1319 1319 1319 1319 1319 1319 1320 1320 1320 1319 1319 1319 1319 1319 1319 1319 1319 1318 1318 1317 1317 1317 1317 1316 1316 1316 1316 1316 1316 1316 1315 1314 1314 1314 1313 1313 1313 1313 1313 1312 1311 1311 1311 1310 1310 1308 1307 1305 1305 1305 1305 1305 1305 1305 1305 1305 1305 1305 1305 1305 1305 1305 1305 1306 1306 1306 1307 1307 1308 1309 1310 1310 1310 1311 1311 1311 1310 1310 1310 1310 1310 1309 1307 1307 1307 1308 1309 1309 1309 1309 1309 1308 1307 1307 1307 1307 1307 1305 1303 1301 1301 1300 1298 1297 1295 1293 1291 1291 1288 1288 1288 1289 1292 1292 1292 1292 1292 1292 1294 1295 1295 1296 1296 1296 1296 1296 1299 1301 1301 1302 1301 1301 1300 1300 1300 1300 1300 1299 1299 1299 1301 1301 1301 1301 1301 1301 1301 1300 1300 1299 1299 1299 1299 1299 1300 1301 1302 1303 1304 1304 1305 1306 1306 1307 1307 1308 1308 1308 1308 1308 1308 1308 1307 1306 1306 1306 1306 1306 1306 1306 1306 1307 1309 1311 1318 1327 1342 1346 1346 1346 1346 1344 1342 1339 1338 1336 1335 1334 1332 1332 1331 1328 1325 1325 1324 1324 1321 1314 1308 1305 1303 1303 1302 1301 1300 1297 1285 1279 1272 1255 1250 0 0 0 0 1090
1812 1828 1843 1856 1869 1875 1881 1884 1892 1904 1916 1923 1941 1958 1979 1989 2001 2013 2027 2048 2065 2078 2089 2100 2104 2108 2110 2115 2124 2134 2143 2156 2171 2187 2202 2214 2227 2239 2247 2254 2257 2261 2262 2269 2280 2291 2302 2312 2319 2326 2331 2334 2336 2341 2352 2362 2370 2384 2397 2408 2415 2420 2424 2429 2435 2441 2448 2453 2456 2460 2468 2476 2483 2486 2489 2492 2496 2501 2504 2507 2512 2520 2527 2533 2542 2547 2552 2562 2572 2578 2581 2584 2588 2590 2593 2594 2594 2596 2597 2599 2605 2612 2616 2619 2621 2622 2623 2625 2625 2626 2629 2634 2637 2637 2637 2636 2635 2635 2635 2635 2637 2643 2650 2652 2654 2654 2654 2653 2652 2651 2649 2648 2646 2636 2613 2532 0 0 0 0 0 0 0 0 0 0 2619 3065 3334 3462 3501 3513 3518 3527 3537 3539 3540 3541 3543 3546 3549 3551 3554 3556 3560 3564 3567 3569 3571 3573 3576 3578 3579 3581 3581 3582 3582 3584 3584 3584 3584 3584 3586 3587 3590 3594 3594 3594 3593 3589 3586 3583 3583 3582 3581 3580 3579 3577 3574 3570 3566 3564 3564 3564 3563 3563 3558 3551 3545 3545 3545 3544 3543 3543 3535 3527 3523 3511 3483 3461 3425 3370 3279 3118 2856 2614 0 0 0 0 1505 1504 1500 1484 1460 1439 1424 1415 1411 1406 1402 1399 1399 1398 1395 1390 1383 1374 1369 1365 1363 1362 1359 1358 1357 1356 1355 1355 1355 1355 1354 1354 1354 1354 1354 1354 1354 1354 1353 1353 1352 1352 1352 1351 1350 1350 1350 1349 1348 1348 1348 1347 1347 1346 1346 1345 1345 1345 1344 1344 1344 1344 1344 1344 1344 1344 1343 1343 1342 1341 1340 1339 1339 1337 1335 1333 1332 1332 1332 1332 1332 1331 1331 1330 1328 1328 1328 1327 1327 1327 1327 1327 1327 1327 1329 1330 1330 1331 1331 1332 1332 1332 1332 1332 1332 1332 1332 1332 1332 1331 1331 1331 1330 1330 1330 1329 1329 1329 1329 1329 1328 1328 1328 1327 1327 1327 1327 1326 1324 1323 1323 1323 1323 1322 1322 1322 1322 1322 1322 1323 1323 1323 1323 1323 1323 1323 1322 1322 1321 1321 1320 1320 1320 1320 1320 1321 1321 1321 1321 1321 1321 1321 1321 1321 1321 1321 1321 1320 1320 1320 1321 1322 1322 1322 1321 1321 1321 1321 1321 1321 1320 1320 1320 1319 1319 1318 1318 1318 1316 1315 1314 1313 1313 1313 1313 1313 1313 1313 1313 1313 1313 1312 1312 1312 1312 1311 1311 1311 1310 1310 1310 1310 1310 1310 1311 1311 1311 1310 1309 1308 1307 1307 1307 1307 1308 1308 1308 1308 1307 1307 1307 1308 1308 1308 1307 1307 1307 1308 1309 1309 1309 1309 1309 1309 1309 1307 1307 1307 1306 1305 1305 1304 1304 1304 1304 1303 1304 1304 1304 1306 1306 1306 1304 1303 1303 1303 1303 1304 1304 1304 1301 1301 1301 1301 1301 1301 1299 1299 1299 1299 1298 1298 1298 1298 1298 1298 1298 1298 1298 1298 1298 1298 1298 1298 1298 1299 1300 1302 1302 1302 1301 1299 1299 1298 1298 1298 1298 1298 1297 1297 1297 1297 1297 1297 1297 1294 1293 1293 1293 1293 1293 1293 1293 1293 1293 1294 1295 1295 1296 1297 1302 1303 1304 1305 1305 1306 1307 1307 1307 1307 1307 1307 1307 1307 1306 1306 1306 1306 1305 1305 1305 1305 1306 1307 1309 1311 1317 1327 1337 1341 1341 1341 1341 1337 1334 1334 1334 1333 1332 1329 1328 1325 1325 1323 1321 1320 1320 1320 1317 1314 1307 1301 1300 1300 1300 1300 1300 1293 1285 1278 1264 1240 1235 0 0 1104 1100 1085
1809 1824 1838 1853 1866 1871 1878 1884 1892 1905 1919 1923 1940 1958 1979 1991 2002 2013 2027 2047 2065 2077 2088 2096 2100 2104 2109 2115 2124 2134 2142 2152 2166 2184 2197 2210 2219 2230 2240 2246 2249 2254 2258 2264 2274 2287 2299 2309 2319 2324 2331 2334 2336 2341 2352 2361 2369 2379 2393 2404 2412 2416 2423 2428 2434 2440 2448 2453 2455 2459 2466 2475 2482 2482 2482 2484 2489 2495 2499 2501 2505 2513 2520 2529 2538 2546 2552 2562 2571 2575 2577 2579 2582 2585 2589 2593 2594 2594 2597 2599 2603 2608 2613 2616 2618 2620 2620 2621 2621 2622 2626 2629 2631 2631 2631 2631 2630 2630 2630 2630 2633 2639 2645 2649 2649 2649 2648 2648 2648 2648 2647 2647 2645 2633 2611 2523 0 0 0 0 0 0 0 0 0 0 2638 3100 3370 3471 3501 3513 3518 3525 3530 3534 3538 3541 3543 3546 3549 3551 3553 3556 3558 3564 3567 3569 3571 3573 3576 3578 3579 3581 3582 3582 3584 3584 3584 3584 3584 3584 3586 3587 3590 3594 3594 3594 3592 3591 3590 3588 3585 3585 3583 3580 3579 3577 3574 3570 3567 3563 3563 3563 3563 3562 3558 3551 3545 3545 3544 3543 3541 3531 3524 3517 3507 3492 3462 3421 3373 3282 3200 2903 2577 0 0 0 0 1499 1496 1493 1478 1459 1438 1421 1409 1404 1402 1400 1398 1394 1393 1391 1390 1387 1383 1374 1369 1365 1363 1361 1359 1357 1356 1355 1354 1354 1354 1354 1354 1354 1354 1354 1354 1353 1353 1353 1353 1353 1352 1352 1352 1351 1350 1350 1350 1349 1348 1348 1348 1348 1347 1347 1347 1346 1346 1345 1345 1345 1344 1344 1344 1344 1344 1344 1343 1343 1342 1341 1340 1339 1338 1336 1334 1332 1331 1330 1330 1329 1328 1327 1327 1327 1326 1326 1326 1326 1325 1325 1325 1325 1326 1326 1327 1327 1327 1330 1331 1331 1333 1333 1333 1333 1333 1333 1333 1333 1333 1332 1332 1331 1331 1330 1330 1330 1330 1330 1330 1330 1329 1329 1329 1328 1328 1328 1327 1326 1324 1323 1322 1321 1320 1320 1320 1320 1320 1320 1320 1320 1321 1321 1321 1321 1319 1319 1319 1319 1319 1319 1319 1318 1317 1317 1317 1319 1321 1321 1321 1321 1322 1322 1323 1323 1323 1322 1322 1322 1322 1322 1322 1322 1322 1322 1321 1321 1321 1321 1322 1322 1322 1321 1320 1320 1319 1318 1318 1316 1314 1313 1311 1310 1310 1310 1310 1310 1310 1309 1308 1308 1307 1305 1305 1305 1305 1305 1305 1304 1304 1304 1304 1306 1308 1310 1310 1311 1311 1311 1311 1310 1310 1309 1309 1310 1310 1310 1310 1310 1310 1311 1311 1311 1311 1310 1310 1310 1310 1310 1310 1310 1310 1309 1309 1308 1308 1307 1306 1304 1300 1297 1295 1295 1295 1294 1293 1293 1293 1294 1294 1295 1295 1295 1294 1294 1294 1294 1296 1298 1298 1299 1299 1300 1301 1301 1302 1302 1302 1303 1303 1303 1302 1301 1301 1301 1301 1302 1302 1302 1303 1303 1303 1303 1303 1301 1301 1301 1301 1303 1303 1303 1301 1299 1297 1295 1290 1290 1288 1285 1285 1285 1288 1288 1288 1283 1278 1278 1278 1279 1279 1279 1279 1279 1279 1280 1281 1281 1282 1283 1285 1297 1301 1302 1304 1305 1305 1305 1305 1306 1306 1306 1307 1307 1307 1307 1306 1306 1305 1305 1305 1305 1305 1305 1307 1307 1309 1311 1316 1324 1331 1335 1335 1335 1335 1332 1330 1330 1330 1330 1328 1326 1323 1322 1320 1320 1319 1317 1315 1314 1312 1311 1305 1300 1297 1297 1297 1296 1296 1292 1285 1278 1261 1231 1224 0 1133 1104 1100 1085
1808 1822 1836 1849 1861 1871 1878 1884 1895 1908 1920 1925 1940 1958 1979 1991 2001 2013 2027 2047 2064 2076 2085 2093 2096 2102 2107 2115 2123 2133 2138 2149 2164 2177 2188 2199 2210 2222 2232 2239 2244 2248 2252 2259 2270 2282 2293 2304 2314 2324 2331 2333 2336 2341 2352 2359 2368 2377 2388 2399 2408 2412 2418 2425 2432 2440 2446 2450 2454 2459 2465 2473 2476 2477 2478 2479 2483 2489 2496 2500 2505 2513 2520 2525 2532 2541 2545 2556 2564 2570 2571 2573 2576 2580 2585 2591 2594 2594 2597 2599 2601 2605 2607 2611 2613 2616 2617 2618 2618 2618 2620 2621 2624 2625 2625 2625 2625 2624 2624 2624 2626 2632 2638 2641 2642 2643 2643 2643 2643 2644 2644 2644 2643 2633 2607 2521 0 0 0 0 0 0 0 0 0 0 2691 3167 3414 3495 3508 3514 3518 3525 3530 3532 3537 3540 3543 3545 3549 3551 3553 3555 3558 3563 3566 3569 3571 3573 3575 3577 3579 3581 3582 3582 3584 3584 3584 3584 3584 3584 3585 3587 3590 3594 3594 3594 3592 3591 3590 3588 3585 3585 3583 3581 3579 3577 3574 3570 3567 3563 3563 3563 3563 3562 3558 3551 3545 3544 3543 3539 3532 3524 3519 3510 3495 3469 3434 3385 3321 3239 3106 2719 0 0 0 0 1493 1493 1486 1471 1449 1430 1416 1407 1399 1399 1398 1398 1395 1392 1388 1387 1385 1383 1379 1374 1370 1365 1362 1361 1359 1357 1356 1355 1354 1354 1354 1354 1354 1354 1354 1353 1353 1353 1353 1353 1353 1352 1352 1352 1351 1351 1350 1350 1350 1349 1349 1348 1348 1348 1347 1347 1347 1346 1346 1346 1345 1345 1345 1345 1345 1344 1344 1344 1343 1343 1342 1341 1339 1339 1337 1336 1333 1331 1329 1329 1327 1327 1327 1326 1326 1326 1325 1325 1325 1325 1324 1324 1324 1325 1325 1325 1326 1327 1327 1329 1330 1331 1333 1333 1333 1333 1333 1333 1333 1333 1333 1332 1332 1332 1331 1331 1331 1331 1331 1331 1331 1330 1330 1330 1329 1329 1328 1328 1327 1326 1324 1323 1322 1321 1320 1319 1318 1318 1318 1319 1319 1319 1319 1319 1319 1319 1318 1317 1317 1317 1317 1317 1317 1317 1317 1317 1317 1319 1320 1321 1321 1322 1322 1323 1323 1323 1323 1323 1323 1322 1322 1322 1322 1323 1323 1323 1323 1323 1323 1323 1323 1323 1322 1322 1321 1320 1319 1318 1316 1315 1314 1312 1311 1310 1309 1309 1309 1309 1309 1308 1308 1306 1306 1304 1303 1303 1302 1302 1301 1301 1301 1302 1304 1306 1307 1309 1310 1311 1311 1311 1311 1312 1312 1312 1312 1312 1312 1312 1312 1312 1312 1312 1312 1312 1312 1312 1312 1312 1312 1311 1311 1310 1310 1310 1308 1308 1308 1307 1303 1299 1295 1292 1289 1289 1289 1290 1291 1291 1291 1291 1293 1293 1293 1293 1293 1289 1288 1288 1288 1289 1289 1294 1298 1301 1302 1303 1303 1303 1304 1305 1305 1306 1306 1306 1306 1306 1305 1305 1305 1305 1305 1305 1305 1305 1305 1304 1304 1303 1303 1303 1303 1303 1301 1298 1291 1283 1279 1278 1274 1268 1263 1262 1262 1262 1262 1260 1258 1258 1258 1259 1263 1263 1263 1263 1266 1266 1266 1268 1268 1269 1282 1297 1300 1301 1303 1304 1304 1305 1305 1305 1306 1306 1306 1306 1306 1306 1305 1305 1305 1305 1305 1305 1305 1305 1307 1307 1309 1311 1316 1320 1325 1330 1330 1330 1330 1328 1327 1327 1326 1326 1326 1323 1321 1318 1317 1317 1317 1314 1311 1309 1307 1306 1304 1299 1293 1293 1293 1292 1292 1292 1285 1278 1261 1231 1224 0 1133 1104 1100 1085
1808 1821 1833 1845 1860 1871 1878 1888 1900 1911 1920 1925 1940 1958 1977 1991 2001 2014 2031 2047 2059 2073 2082 2089 2094 2101 2106 2115 2121 2127 2135 2144 2159 2170 2181 2192 2205 2216 2226 2234 2239 2244 2248 2254 2266 2278 2287 2296 2308 2319 2326 2331 2336 2342 2352 2359 2367 2373 2383 2394 2403 2409 2414 2420 2425 2431 2438 2446 2453 2459 2465 2472 2473 2474 2474 2475 2480 2487 2493 2500 2505 2513 2520 2525 2526 2534 2538 2546 2556 2559 2564 2567 2571 2576 2580 2587 2592 2594 2597 2599 2601 2602 2604 2606 2610 2612 2614 2614 2614 2614 2614 2615 2616 2618 2620 2620 2620 2620 2620 2620 2620 2626 2631 2633 2634 2636 2639 2639 2639 2639 2638 2636 2634 2619 2599 2515 0 0 0 0 0 0 0 0 0 0 2741 3190 3424 3499 3511 3517 3521 3525 3530 3532 3534 3538 3543 3545 3549 3551 3553 3555 3558 3563 3566 3568 3571 3572 3572 3575 3578 3580 3582 3582 3585 3585 3585 3584 3583 3583 3583 3586 3590 3594 3594 3594 3592 3591 3590 3588 3585 3585 3583 3581 3577 3572 3570 3569 3567 3560 3558 3554 3550 3544 3537 3533 3532 3532 3531 3527 3522 3514 3511 3498 3477 3451 3410 3355 3271 3132 2743 0 0 0 0 1492 1492 1487 1476 1446 1427 1413 1403 1399 1398 1397 1397 1396 1393 1389 1387 1385 1382 1381 1376 1372 1369 1365 1362 1361 1359 1357 1355 1354 1354 1353 1353 1353 1353 1353 1353 1353 1353 1353 1352 1352 1352 1352 1352 1351 1351 1351 1350 1350 1350 1349 1349 1349 1348 1348 1348 1347 1347 1347 1346 1346 1346 1346 1346 1346 1345 1345 1344 1344 1343 1343 1341 1341 1339 1339 1337 1335 1332 1330 1328 1327 1327 1325 1325 1325 1325 1324 1324 1324 1324 1324 1323 1323 1324 1324 1325 1325 1326 1326 1327 1328 1330 1331 1331 1333 1333 1333 1333 1333 1333 1333 1333 1333 1332 1332 1332 1332 1332 1332 1331 1331 1331 1331 1330 1330 1329 1329 1329 1328 1327 1326 1324 1323 1321 1320 1319 1319 1318 1317 1317 1317 1317 1317 1317 1317 1317 1317 1317 1316 1316 1316 1316 1316 1316 1316 1316 1316 1316 1319 1320 1321 1321 1322 1322 1323 1323 1324 1324 1324 1323 1323 1323 1323 1323 1324 1324 1324 1324 1324 1324 1324 1324 1323 1323 1322 1322 1321 1320 1318 1316 1315 1314 1312 1311 1310 1309 1309 1308 1307 1306 1305 1305 1305 1304 1303 1302 1301 1301 1300 1300 1300 1300 1301 1303 1304 1306 1309 1310 1311 1311 1311 1312 1312 1312 1313 1313 1313 1313 1313 1313 1314 1314 1313 1313 1313 1313 1313 1313 1313 1313 1313 1312 1311 1311 1310 1308 1305 1305 1302 1299 1296 1292 1290 1287 1287 1287 1287 1289 1289 1289 1289 1289 1289 1289 1289 1289 1288 1285 1285 1285 1286 1286 1292 1298 1301 1302 1303 1303 1303 1304 1306 1306 1307 1307 1307 1307 1307 1307 1307 1307 1307 1307 1306 1306 1306 1306 1306 1306 1306 1305 1305 1303 1303 1301 1296 1290 1281 1277 1273 1269 1265 1263 1260 1259 1259 1258 1258 1257 1257 1256 1256 1256 1256 1256 1257 1258 1258 1259 1262 1262 1263 1270 1287 1294 1296 1301 1302 1303 1304 1304 1305 1305 1305 1305 1305 1305 1305 1305 1305 1305 1305 1305 1305 1305 1305 1306 1306 1308 1310 1314 1317 1322 1325 1325 1325 1325 1325 1323 1322 1322 1320 1320 1320 1315 1315 1315 1314 1311 1308 1306 1305 1303 1302 1300 1296 1292 1288 1287 1286 1286 1285 1282 1278 1261 1231 1224 0 1133 1124 1106 1091
1803 1810 1825 1840 1859 1871 1885 1898 1905 1911 1920 1925 1935 1949 1965 1984 1999 2014 2031 2047 2058 2069 2077 2085 2093 2100 2105 2113 2117 2122 2127 2139 2152 2165 2176 2188 2199 2209 2220 2230 2236 2241 2245 2251 2262 2270 2281 2291 2300 2312 2319 2327 2336 2342 2350 2358 2365 2371 2379 2391 2400 2404 2408 2414 2418 2424 2431 2441 2449 2457 2463 2469 2472 2472 2472 2474 2479 2486 2493 2500 2509 2517 2523 2525 2525 2529 2535 2539 2543 2549 2554 2560 2566 2570 2575 2581 2584 2589 2594 2598 2601 2601 2602 2605 2606 2607 2609 2611 2611 2611 2610 2610 2610 2610 2615 2619 2619 2619 2617 2617 2617 2623 2624 2626 2626 2629 2636 2636 2636 2631 2630 2626 2620 2604 2580 0 0 0 0 0 0 0 0 0 0 0 2771 3224 3430 3500 3512 3517 3523 3526 3531 3532 3534 3538 3541 3545 3549 3551 3553 3555 3557 3560 3564 3566 3570 3571 3572 3575 3577 3580 3580 3582 3585 3585 3585 3584 3583 3583 3583 3585 3590 3590 3590 3590 3585 3581 3581 3581 3581 3581 3581 3580 3577 3568 3562 3560 3554 3542 3542 3537 3532 3518 3506 3506 3503 3503 3502 3501 3499 3498 3498 3490 3470 3438 3382 3313 3170 2804 0 0 0 0 1496 1488 1484 1476 1447 1421 1410 1402 1398 1397 1396 1396 1395 1392 1389 1387 1385 1383 1382 1379 1375 1371 1369 1365 1362 1361 1358 1356 1355 1354 1354 1353 1353 1353 1352 1352 1352 1352 1352 1352 1352 1352 1352 1351 1351 1351 1351 1350 1350 1350 1350 1349 1349 1349 1348 1348 1348 1348 1347 1347 1347 1346 1346 1346 1346 1346 1345 1345 1345 1344 1343 1342 1341 1340 1339 1339 1337 1334 1331 1329 1328 1327 1325 1324 1323 1323 1323 1323 1323 1322 1322 1322 1322 1322 1323 1323 1324 1325 1326 1326 1326 1327 1329 1330 1331 1332 1333 1334 1334 1334 1334 1333 1333 1333 1332 1332 1332 1332 1332 1332 1332 1332 1331 1331 1331 1330 1330 1329 1329 1328 1327 1326 1324 1323 1321 1320 1319 1318 1317 1316 1316 1316 1316 1316 1316 1315 1315 1315 1314 1314 1314 1314 1314 1314 1315 1315 1315 1315 1316 1317 1319 1320 1321 1322 1323 1323 1324 1324 1324 1324 1324 1324 1324 1324 1324 1325 1325 1325 1325 1325 1325 1325 1325 1324 1324 1323 1322 1321 1320 1318 1316 1315 1314 1311 1309 1309 1307 1307 1306 1305 1304 1303 1303 1303 1302 1301 1300 1300 1300 1299 1299 1299 1299 1300 1301 1304 1304 1307 1309 1310 1310 1311 1312 1313 1313 1313 1314 1314 1314 1314 1315 1315 1315 1315 1314 1314 1314 1314 1314 1313 1313 1313 1313 1312 1311 1310 1308 1305 1303 1299 1296 1292 1290 1288 1285 1285 1285 1285 1286 1286 1286 1286 1286 1286 1286 1285 1285 1284 1283 1283 1283 1283 1286 1291 1297 1301 1302 1303 1304 1304 1305 1307 1307 1308 1308 1308 1308 1309 1309 1309 1308 1308 1308 1307 1307 1307 1307 1307 1307 1307 1306 1305 1305 1303 1299 1296 1290 1279 1276 1273 1268 1265 1263 1260 1258 1257 1257 1256 1255 1255 1255 1254 1252 1252 1252 1252 1254 1254 1256 1259 1260 1262 1268 1284 1292 1294 1299 1301 1302 1303 1303 1304 1305 1305 1305 1305 1305 1305 1305 1304 1304 1304 1304 1304 1305 1305 1305 1306 1307 1309 1312 1316 1318 1321 1322 1322 1322 1322 1320 1319 1317 1317 1317 1316 1312 1311 1311 1311 1308 1305 1303 1301 1300 1298 1296 1294 1291 1286 1282 1281 1281 1279 1278 1277 1261 1257 1237 0 0 1152 1127 1096
1796 1802 1809 1828 1852 1871 1885 1898 1905 1911 1918 1922 1927 1937 1954 1974 1996 2014 2031 2044 2054 2063 2073 2083 2092 2100 2104 2112 2116 2121 2126 2135 2146 2159 2172 2182 2193 2203 2213 2226 2235 2239 2243 2247 2255 2263 2272 2283 2293 2304 2314 2323 2333 2342 2350 2353 2359 2367 2378 2389 2398 2401 2405 2410 2417 2421 2428 2434 2443 2452 2461 2467 2471 2472 2472 2473 2478 2485 2493 2501 2511 2517 2523 2523 2525 2526 2530 2533 2537 2543 2549 2555 2561 2564 2568 2572 2578 2583 2588 2592 2596 2598 2601 2602 2603 2604 2605 2606 2607 2607 2607 2605 2605 2605 2607 2614 2614 2615 2615 2615 2615 2617 2617 2618 2620 2622 2631 2631 2631 2627 2622 2617 2611 2591 2559 0 0 0 0 0 0 0 0 0 0 0 2810 3231 3433 3501 3512 3519 3525 3531 3532 3533 3534 3538 3541 3545 3549 3551 3553 3555 3557 3559 3561 3565 3568 3570 3572 3575 3577 3579 3580 3581 3584 3584 3584 3583 3583 3583 3583 3585 3588 3588 3588 3585 3581 3580 3577 3576 3576 3576 3576 3576 3574 3559 3544 3536 3514 3509 3509 3506 3490 3477 3469 3462 3447 3436 3420 3420 3420 3432 3465 3465 3465 3420 3350 3181 2950 0 0 0 0 1503 1489 1480 1474 1447 1417 1407 1402 1398 1396 1396 1394 1393 1389 1387 1385 1383 1382 1380 1379 1377 1373 1371 1367 1365 1362 1360 1358 1356 1355 1354 1354 1353 1352 1352 1352 1352 1352 1352 1352 1352 1352 1351 1351 1351 1351 1351 1350 1350 1350 1350 1350 1349 1349 1349 1348 1348 1348 1348 1347 1347 1347 1347 1347 1346 1346 1346 1346 1345 1345 1344 1343 1342 1341 1340 1339 1338 1336 1333 1331 1328 1327 1326 1325 1324 1322 1322 1322 1321 1321 1321 1321 1321 1321 1321 1321 1321 1323 1324 1324 1325 1326 1327 1327 1329 1331 1332 1333 1334 1334 1334 1334 1334 1333 1333 1333 1333 1332 1332 1332 1332 1332 1332 1331 1331 1331 1330 1330 1329 1329 1328 1327 1325 1324 1323 1321 1320 1319 1317 1317 1315 1314 1314 1314 1314 1314 1313 1313 1313 1313 1312 1312 1312 1312 1313 1313 1314 1315 1315 1316 1316 1318 1320 1321 1322 1323 1324 1324 1324 1324 1324 1325 1325 1325 1325 1325 1325 1325 1325 1325 1325 1325 1325 1325 1325 1324 1323 1322 1321 1320 1318 1316 1315 1313 1310 1308 1307 1305 1303 1303 1302 1302 1302 1301 1301 1299 1298 1298 1297 1297 1297 1297 1297 1298 1298 1300 1302 1303 1307 1309 1309 1310 1311 1312 1313 1314 1314 1314 1315 1315 1315 1315 1315 1315 1315 1315 1315 1315 1315 1315 1314 1314 1314 1313 1313 1311 1310 1308 1305 1303 1297 1294 1291 1289 1286 1284 1282 1282 1282 1283 1283 1283 1283 1283 1282 1282 1282 1282 1281 1280 1280 1280 1283 1286 1291 1297 1301 1302 1303 1304 1305 1306 1307 1309 1309 1309 1309 1310 1310 1310 1310 1310 1309 1309 1308 1308 1308 1308 1308 1308 1308 1307 1305 1305 1302 1298 1295 1289 1276 1273 1272 1267 1265 1263 1260 1258 1255 1253 1253 1253 1252 1252 1252 1251 1250 1250 1250 1250 1252 1255 1257 1259 1261 1267 1283 1290 1293 1298 1301 1301 1303 1303 1304 1304 1305 1305 1305 1305 1305 1304 1304 1304 1304 1304 1304 1304 1304 1305 1306 1306 1307 1310 1314 1316 1318 1319 1319 1319 1318 1318 1315 1315 1315 1314 1314 1310 1309 1308 1308 1305 1302 1301 1299 1297 1296 1294 1294 1290 1286 1281 1278 1277 1277 1277 1269 1265 1261 1240 1220 1208 0 0 1096
1793 1800 1808 1822 1837 1867 1885 1898 1905 1910 1914 1916 1922 1929 1944 1966 1993 2009 2024 2035 2046 2057 2068 2078 2086 2097 2101 2110 2115 2120 2125 2133 2141 2154 2165 2176 2187 2199 2213 2222 2231 2237 2240 2245 2249 2257 2265 2273 2282 2293 2302 2313 2323 2333 2340 2346 2353 2362 2373 2388 2395 2398 2404 2409 2415 2420 2425 2432 2438 2446 2453 2462 2467 2471 2472 2473 2477 2484 2493 2501 2511 2517 2523 2523 2525 2526 2529 2533 2537 2541 2544 2549 2555 2559 2563 2565 2570 2576 2582 2586 2591 2595 2596 2599 2599 2600 2602 2602 2603 2603 2603 2601 2601 2601 2602 2607 2611 2611 2612 2613 2612 2611 2612 2611 2611 2612 2620 2620 2620 2614 2611 2610 2606 2591 2557 0 0 0 0 0 0 0 0 0 0 0 2854 3257 3445 3501 3516 3519 3525 3532 3534 3535 3537 3538 3541 3545 3549 3551 3553 3555 3557 3559 3561 3563 3566 3569 3571 3574 3577 3577 3579 3581 3583 3583 3583 3584 3583 3583 3584 3584 3586 3586 3586 3584 3581 3580 3577 3574 3574 3574 3574 3574 3559 3510 3444 3400 3377 3363 3353 3343 3328 3317 3300 3262 3236 3236 3236 3250 3340 3412 3443 3443 3443 3390 3308 3099 2548 0 0 0 0 1491 1478 1472 1451 1424 1407 1402 1397 1392 1389 1389 1389 1387 1384 1384 1383 1381 1380 1379 1377 1375 1372 1370 1366 1363 1361 1360 1358 1356 1354 1354 1353 1352 1352 1352 1352 1351 1352 1352 1352 1352 1352 1351 1351 1351 1351 1350 1350 1350 1350 1350 1349 1349 1349 1348 1348 1348 1348 1348 1347 1347 1347 1347 1347 1346 1346 1346 1346 1345 1345 1344 1343 1342 1341 1340 1338 1337 1335 1332 1330 1328 1326 1325 1324 1323 1322 1321 1320 1320 1320 1320 1320 1320 1320 1320 1320 1321 1322 1323 1324 1325 1326 1326 1327 1329 1331 1332 1333 1334 1334 1334 1334 1334 1333 1333 1333 1333 1332 1332 1332 1332 1332 1332 1331 1331 1331 1331 1330 1329 1329 1328 1327 1325 1324 1323 1321 1320 1319 1317 1316 1315 1314 1313 1313 1313 1313 1312 1312 1312 1311 1311 1311 1311 1311 1311 1312 1312 1314 1315 1316 1316 1318 1320 1321 1322 1323 1324 1324 1324 1325 1325 1325 1325 1325 1325 1326 1326 1326 1326 1326 1326 1326 1325 1325 1325 1324 1323 1322 1321 1320 1318 1316 1314 1311 1308 1307 1305 1303 1302 1301 1301 1300 1300 1300 1298 1297 1296 1295 1295 1295 1296 1296 1297 1297 1297 1298 1300 1302 1305 1308 1309 1310 1311 1313 1313 1314 1315 1315 1315 1316 1316 1316 1316 1316 1316 1316 1316 1315 1315 1315 1315 1314 1314 1313 1313 1311 1309 1308 1305 1300 1296 1293 1290 1287 1285 1283 1281 1281 1281 1281 1281 1281 1281 1281 1281 1281 1280 1280 1279 1279 1279 1280 1283 1286 1290 1294 1300 1301 1303 1305 1306 1308 1308 1309 1309 1309 1310 1310 1311 1311 1311 1311 1310 1310 1310 1310 1310 1310 1309 1308 1308 1307 1307 1304 1300 1298 1296 1289 1274 1268 1267 1265 1265 1263 1260 1257 1255 1253 1252 1252 1252 1252 1250 1249 1248 1248 1248 1249 1252 1254 1257 1259 1261 1267 1280 1287 1292 1296 1299 1300 1302 1302 1303 1304 1305 1305 1305 1304 1304 1304 1304 1303 1303 1303 1303 1303 1304 1304 1305 1305 1307 1310 1313 1313 1315 1316 1316 1316 1316 1315 1314 1313 1313 1312 1312 1310 1307 1306 1305 1302 1301 1299 1297 1296 1295 1293 1293 1289 1285 1280 1278 1277 1277 1276 1269 1268 1264 1244 1233 1219 1202 0 0
1793 1799 1807 1819 1834 1850 1873 1888 1894 1898 1906 1913 1917 1929 1940 1960 1980 1997 2009 2019 2034 2047 2061 2070 2078 2088 2092 2103 2114 2120 2124 2131 2140 2154 2165 2176 2184 2197 2208 2219 2227 2233 2238 2242 2246 2252 2256 2264 2274 2283 2293 2304 2316 2325 2332 2338 2347 2357 2370 2383 2393 2397 2398 2404 2411 2416 2420 2427 2434 2441 2449 2456 2462 2466 2468 2470 2475 2483 2492 2501 2511 2517 2519 2520 2522 2526 2528 2532 2536 2540 2542 2546 2552 2557 2562 2565 2570 2575 2579 2583 2585 2589 2591 2592 2594 2596 2598 2599 2599 2599 2599 2597 2596 2596 2596 2601 2605 2607 2609 2609 2609 2609 2608 2605 2605 2605 2607 2607 2607 2605 2605 2602 2602 2590 2554 0 0 0 0 0 0 0 0 0 0 0 2887 3259 3449 3508 3519 3524 3528 3534 3534 3535 3537 3540 3543 3546 3548 3551 3553 3555 3556 3559 3561 3563 3565 3567 3570 3572 3574 3576 3579 3581 3582 3583 3583 3584 3583 3583 3584 3584 3583 3583 3583 3582 3579 3578 3573 3572 3570 3568 3564 3527 3431 3317 3174 3128 3128 3128 3120 3129 3136 3129 3122 3122 3122 3122 3124 3226 3334 3395 3412 3412 3412 3348 3195 2762 0 0 0 0 1497 1483 1474 1453 1443 1419 1402 1393 1389 1389 1388 1386 1386 1384 1383 1382 1381 1379 1378 1376 1375 1373 1371 1367 1365 1363 1361 1359 1357 1356 1354 1353 1353 1352 1352 1352 1351 1351 1351 1351 1351 1351 1351 1351 1351 1350 1350 1350 1350 1350 1349 1349 1349 1348 1348 1348 1348 1348 1348 1348 1347 1347 1347 1347 1347 1346 1346 1346 1345 1345 1345 1344 1343 1342 1341 1340 1338 1336 1334 1332 1329 1327 1325 1324 1323 1322 1321 1321 1320 1320 1319 1319 1319 1319 1319 1319 1320 1320 1322 1323 1323 1324 1325 1326 1326 1329 1331 1332 1332 1333 1333 1334 1334 1333 1333 1333 1333 1333 1332 1332 1332 1332 1332 1332 1331 1331 1331 1330 1330 1329 1329 1328 1327 1325 1323 1322 1321 1320 1318 1317 1315 1315 1313 1312 1312 1312 1310 1310 1310 1310 1311 1311 1311 1311 1311 1311 1312 1312 1314 1315 1316 1316 1318 1319 1320 1322 1323 1324 1324 1324 1324 1325 1325 1325 1325 1325 1326 1326 1326 1326 1326 1326 1326 1325 1325 1325 1323 1323 1322 1320 1318 1317 1316 1314 1310 1308 1306 1304 1302 1300 1300 1300 1299 1298 1297 1297 1296 1295 1295 1294 1294 1294 1294 1295 1296 1296 1297 1298 1300 1304 1307 1308 1309 1311 1313 1314 1315 1315 1315 1315 1316 1316 1317 1317 1317 1317 1317 1316 1316 1316 1316 1315 1314 1314 1313 1313 1311 1309 1307 1305 1300 1295 1291 1288 1285 1283 1282 1281 1280 1279 1279 1279 1280 1281 1281 1281 1280 1280 1279 1279 1279 1279 1280 1283 1287 1290 1293 1297 1301 1303 1305 1307 1308 1309 1309 1310 1310 1311 1311 1311 1311 1311 1311 1311 1311 1310 1310 1310 1310 1309 1308 1308 1308 1307 1304 1300 1298 1296 1289 1274 1265 1264 1263 1263 1263 1260 1257 1255 1253 1252 1252 1252 1251 1249 1248 1246 1246 1246 1246 1248 1254 1257 1259 1262 1268 1279 1283 1289 1295 1298 1300 1301 1302 1302 1303 1304 1304 1304 1304 1304 1304 1304 1303 1303 1303 1303 1303 1303 1303 1304 1304 1306 1307 1309 1311 1312 1313 1314 1314 1314 1313 1313 1310 1310 1310 1309 1307 1305 1303 1302 1299 1297 1295 1295 1294 1293 1293 1292 1289 1285 1280 1279 1278 1277 1276 1269 1268 1265 1251 1237 1219 1202 0 0
1784 1793 1803 1814 1826 1840 1859 1874 1885 1891 1898 1909 1917 1928 1940 1951 1967 1981 1995 2008 2026 2041 2055 2065 2069 2079 2091 2097 2108 2118 2123 2128 2139 2153 2165 2176 2184 2192 2201 2209 2220 2227 2233 2237 2240 2245 2252 2258 2266 2274 2285 2299 2310 2319 2327 2336 2346 2356 2366 2377 2387 2393 2398 2402 2405 2408 2414 2421 2431 2438 2445 2453 2457 2461 2466 2470 2475 2482 2490 2498 2505 2511 2515 2515 2517 2521 2525 2531 2535 2537 2538 2542 2549 2555 2561 2564 2569 2573 2576 2579 2582 2583 2585 2587 2588 2591 2592 2594 2595 2595 2595 2592 2591 2591 2591 2594 2598 2601 2605 2607 2607 2607 2605 2600 2598 2597 2597 2597 2595 2595 2595 2595 2595 2590 2547 0 0 0 0 0 0 0 0 0 0 0 2894 3262 3452 3508 3519 3528 3533 3534 3535 3536 3537 3540 3544 3548 3549 3551 3553 3555 3556 3559 3561 3563 3565 3565 3567 3568 3572 3575 3578 3581 3582 3584 3584 3584 3584 3584 3583 3580 3580 3580 3580 3580 3578 3577 3572 3571 3570 3558 3536 3436 3308 3163 3107 3105 3105 3107 3107 3119 3119 3119 3118 3095 3095 3095 3121 3212 3315 3392 3392 3392 3369 3277 3026 0 0 0 0 1495 1483 1475 1450 1437 1422 1401 1393 1392 1389 1388 1386 1386 1385 1383 1383 1382 1380 1378 1376 1374 1373 1371 1368 1366 1364 1362 1361 1358 1356 1355 1354 1353 1352 1352 1351 1351 1351 1351 1351 1351 1351 1351 1351 1351 1350 1350 1350 1350 1349 1349 1349 1348 1348 1348 1348 1348 1348 1348 1348 1348 1347 1347 1347 1347 1346 1346 1346 1346 1345 1344 1344 1344 1343 1342 1341 1340 1338 1336 1334 1332 1329 1326 1324 1323 1323 1322 1321 1320 1319 1319 1319 1319 1319 1319 1319 1319 1319 1320 1321 1321 1323 1324 1325 1325 1326 1328 1330 1331 1332 1332 1333 1333 1333 1333 1333 1333 1333 1332 1332 1332 1332 1332 1332 1332 1331 1331 1331 1330 1330 1329 1329 1328 1327 1325 1323 1321 1321 1320 1318 1317 1315 1314 1313 1312 1311 1310 1310 1309 1309 1309 1310 1310 1310 1310 1311 1311 1311 1311 1312 1314 1316 1316 1318 1319 1321 1322 1323 1324 1324 1324 1324 1324 1325 1325 1325 1325 1326 1326 1326 1326 1326 1326 1326 1325 1325 1324 1323 1323 1321 1319 1318 1316 1315 1313 1309 1307 1306 1304 1301 1300 1299 1299 1298 1297 1296 1296 1295 1294 1294 1294 1293 1293 1293 1295 1296 1296 1296 1297 1299 1303 1307 1308 1309 1312 1313 1314 1315 1315 1316 1316 1316 1317 1317 1317 1317 1317 1317 1317 1317 1317 1316 1316 1315 1314 1314 1313 1311 1309 1307 1303 1300 1294 1290 1287 1285 1283 1282 1281 1280 1279 1278 1278 1278 1279 1279 1279 1279 1279 1279 1278 1278 1278 1280 1283 1287 1288 1292 1296 1301 1303 1305 1307 1308 1309 1310 1310 1310 1311 1311 1311 1311 1312 1312 1312 1311 1311 1311 1311 1310 1309 1309 1308 1308 1307 1305 1300 1298 1296 1289 1274 1265 1263 1262 1261 1261 1260 1257 1255 1253 1253 1252 1252 1251 1249 1248 1245 1244 1244 1244 1245 1250 1255 1258 1261 1267 1278 1282 1289 1294 1298 1299 1300 1301 1302 1303 1303 1304 1304 1304 1304 1304 1304 1303 1302 1302 1302 1302 1303 1303 1303 1304 1306 1307 1309 1310 1311 1311 1311 1311 1311 1311 1311 1309 1307 1306 1305 1304 1302 1300 1300 1297 1294 1293 1292 1292 1290 1290 1289 1286 1283 1280 1279 1277 1276 1276 1269 1269 1268 1268 1245 1219 1202 0 0
1776 1787 1797 1805 1818 1834 1851 1864 1876 1884 1892 1905 1917 1925 1938 1949 1960 1970 1985 2005 2021 2040 2054 2064 2069 2077 2086 2091 2105 2115 2122 2126 2138 2151 2163 2174 2183 2188 2193 2201 2211 2220 2226 2230 2234 2239 2247 2256 2262 2269 2278 2291 2304 2312 2323 2335 2346 2356 2364 2373 2382 2390 2394 2399 2402 2403 2408 2414 2425 2435 2444 2452 2456 2461 2465 2470 2475 2480 2485 2490 2496 2501 2505 2509 2512 2517 2523 2528 2531 2533 2534 2537 2545 2553 2558 2560 2565 2568 2573 2576 2579 2579 2581 2582 2585 2586 2587 2590 2591 2591 2591 2587 2587 2585 2585 2587 2588 2593 2599 2599 2599 2598 2595 2591 2586 2586 2586 2586 2587 2587 2587 2587 2586 2583 2541 0 0 0 0 0 0 0 0 0 0 0 2910 3263 3452 3508 3519 3528 3533 3534 3535 3535 3536 3540 3544 3548 3549 3551 3553 3555 3556 3559 3561 3563 3564 3565 3566 3567 3571 3574 3578 3580 3582 3582 3583 3585 3585 3585 3583 3579 3573 3572 3572 3572 3572 3572 3568 3565 3548 3516 3423 3331 3194 3126 3066 3066 3066 3071 3098 3102 3102 3102 3081 3064 3064 3064 3079 3151 3260 3308 3308 3308 3179 3025 2647 0 0 0 1489 1475 1469 1450 1434 1412 1393 1392 1390 1389 1388 1387 1386 1384 1382 1382 1382 1381 1379 1377 1375 1373 1372 1370 1368 1365 1364 1362 1360 1358 1356 1355 1354 1353 1352 1351 1351 1351 1351 1351 1351 1351 1351 1351 1351 1351 1350 1350 1350 1350 1349 1349 1349 1348 1348 1348 1348 1348 1348 1347 1347 1347 1347 1347 1347 1347 1346 1346 1346 1345 1345 1344 1344 1344 1343 1342 1341 1339 1338 1336 1334 1331 1329 1326 1324 1323 1322 1322 1321 1319 1319 1318 1318 1318 1318 1318 1318 1318 1318 1319 1320 1321 1322 1323 1324 1325 1325 1328 1330 1331 1331 1332 1333 1333 1333 1333 1333 1333 1333 1332 1332 1332 1332 1332 1332 1332 1331 1331 1331 1330 1330 1329 1328 1327 1326 1325 1323 1321 1321 1320 1318 1317 1315 1314 1313 1312 1311 1310 1309 1309 1309 1309 1309 1309 1310 1310 1310 1310 1310 1311 1312 1314 1314 1316 1317 1319 1321 1322 1323 1323 1324 1324 1324 1324 1325 1325 1325 1325 1326 1326 1326 1326 1326 1326 1326 1325 1324 1324 1323 1321 1320 1318 1317 1316 1314 1312 1309 1307 1305 1303 1301 1300 1299 1298 1297 1296 1295 1295 1294 1294 1293 1293 1293 1293 1293 1293 1294 1295 1295 1297 1299 1303 1307 1308 1309 1312 1313 1314 1315 1315 1316 1316 1317 1317 1317 1317 1317 1317 1317 1317 1317 1317 1316 1316 1315 1314 1314 1312 1311 1309 1307 1303 1300 1292 1290 1286 1285 1283 1281 1281 1279 1279 1278 1277 1277 1277 1278 1278 1278 1278 1277 1277 1277 1277 1279 1283 1287 1288 1292 1296 1300 1303 1305 1307 1308 1309 1310 1310 1310 1311 1311 1312 1312 1312 1312 1312 1312 1312 1311 1311 1310 1310 1309 1308 1308 1307 1305 1300 1298 1295 1289 1275 1265 1263 1261 1261 1261 1260 1258 1256 1254 1253 1252 1251 1251 1249 1247 1245 1244 1244 1244 1244 1247 1253 1258 1261 1266 1276 1281 1288 1294 1297 1297 1300 1301 1302 1303 1303 1304 1304 1304 1304 1303 1303 1303 1302 1302 1302 1302 1302 1302 1302 1303 1304 1305 1308 1308 1309 1309 1309 1309 1309 1308 1308 1305 1303 1301 1300 1300 1298 1298 1297 1294 1291 1289 1289 1288 1288 1287 1285 1283 1282 1279 1278 1277 1276 1274 1269 1269 1268 1268 1250 1219 1195 1194 1160
1776 1787 1797 1804 1818 1834 1850 1859 1869 1879 1892 1905 1914 1925 1935 1945 1951 1961 1980 1997 2016 2035 2053 2063 2069 2076 2086 2091 2102 2114 2119 2124 2136 2151 2163 2174 2182 2183 2187 2195 2206 2213 2219 2225 2229 2237 2247 2256 2262 2267 2274 2283 2295 2305 2315 2330 2346 2355 2364 2372 2381 2390 2394 2397 2399 2400 2403 2408 2419 2430 2441 2451 2456 2460 2462 2467 2474 2480 2482 2486 2490 2495 2500 2507 2512 2517 2522 2527 2529 2531 2532 2536 2543 2551 2554 2556 2560 2565 2570 2572 2574 2575 2577 2579 2581 2581 2581 2582 2588 2588 2588 2583 2582 2580 2579 2579 2580 2581 2584 2585 2585 2585 2582 2578 2570 2570 2570 2575 2575 2575 2574 2574 2569 2563 2527 0 0 0 0 0 0 0 0 0 0 0 2962 3294 3449 3499 3519 3528 3533 3533 3533 3534 3534 3538 3544 3548 3548 3551 3552 3553 3555 3558 3561 3563 3564 3565 3566 3567 3570 3574 3578 3579 3580 3580 3582 3585 3586 3586 3586 3579 3573 3564 3557 3554 3521 3437 3380 3345 3336 3287 3198 3076 2979 2975 2975 2975 2980 2980 2980 2963 2859 2825 2812 2800 2785 2772 2772 2772 2888 2935 2935 2935 2761 2545 0 0 0 0 1463 1454 1448 1432 1420 1403 1392 1390 1390 1388 1388 1387 1386 1384 1381 1381 1379 1379 1378 1376 1374 1372 1371 1369 1367 1365 1363 1360 1359 1358 1355 1354 1353 1353 1352 1351 1351 1350 1350 1350 1350 1350 1350 1350 1350 1350 1350 1350 1350 1349 1349 1349 1349 1348 1348 1348 1348 1348 1347 1347 1347 1347 1347 1347 1346 1346 1346 1346 1346 1345 1344 1344 1344 1343 1342 1342 1340 1339 1337 1336 1334 1331 1328 1326 1324 1323 1322 1321 1320 1319 1319 1318 1318 1318 1318 1318 1318 1318 1318 1319 1319 1320 1321 1322 1323 1325 1325 1328 1329 1330 1331 1332 1332 1332 1333 1333 1333 1332 1332 1332 1332 1332 1332 1332 1332 1331 1331 1331 1331 1330 1330 1329 1328 1327 1326 1325 1323 1321 1321 1319 1318 1316 1315 1314 1313 1312 1311 1310 1309 1309 1309 1308 1308 1309 1309 1309 1309 1309 1309 1310 1312 1313 1313 1316 1317 1319 1320 1322 1322 1323 1324 1324 1324 1324 1325 1325 1325 1325 1325 1326 1326 1325 1326 1325 1325 1325 1324 1323 1323 1321 1320 1318 1317 1316 1314 1311 1309 1306 1304 1302 1300 1299 1299 1297 1297 1295 1294 1293 1293 1293 1293 1292 1292 1292 1292 1293 1293 1293 1295 1296 1299 1303 1306 1308 1309 1312 1313 1314 1315 1315 1316 1316 1317 1317 1317 1317 1317 1317 1317 1317 1317 1317 1316 1316 1315 1314 1313 1312 1311 1309 1306 1303 1300 1292 1287 1286 1285 1283 1281 1280 1279 1278 1277 1277 1277 1277 1276 1276 1276 1276 1276 1276 1276 1277 1279 1283 1286 1288 1292 1296 1301 1304 1305 1306 1308 1309 1310 1310 1311 1311 1311 1311 1312 1312 1312 1312 1312 1312 1311 1311 1311 1310 1309 1309 1308 1307 1305 1301 1298 1295 1289 1277 1266 1263 1261 1261 1261 1260 1258 1256 1254 1253 1253 1251 1251 1249 1247 1245 1244 1244 1244 1244 1246 1249 1254 1260 1266 1273 1281 1287 1293 1297 1297 1299 1300 1302 1303 1303 1303 1303 1303 1303 1303 1303 1303 1302 1302 1302 1302 1301 1302 1302 1302 1303 1304 1306 1307 1307 1307 1307 1307 1306 1306 1305 1302 1300 1297 1296 1296 1296 1294 1294 1292 1290 1288 1286 1285 1285 1283 1282 1280 1280 1278 1278 1276 1275 1274 1270 1270 1268 1268 1250 1218 1195 1194 1191
1774 1786 1797 1804 1818 1834 1850 1859 1865 1874 1884 1902 1913 1924 1933 1937 1946 1960 1979 1997 2015 2034 2045 2059 2068 2075 2086 2091 2102 2110 2115 2121 2131 2146 2161 2174 2178 2179 2183 2189 2198 2207 2215 2223 2227 2236 2246 2256 2261 2265 2271 2279 2290 2300 2313 2325 2342 2355 2363 2372 2381 2389 2393 2397 2398 2398 2400 2407 2414 2426 2437 2446 2453 2459 2462 2467 2473 2477 2477 2482 2488 2494 2500 2506 2512 2516 2521 2524 2526 2529 2531 2536 2543 2548 2552 2554 2558 2563 2568 2569 2570 2571 2574 2575 2575 2576 2577 2577 2581 2583 2583 2583 2581 2577 2573 2568 2568 2568 2568 2568 2568 2568 2566 2563 2556 2556 2556 2557 2560 2560 2560 2560 2552 2534 0 0 0 0 0 0 0 0 0 0 0 0 2990 3294 3445 3495 3514 3527 3531 3532 3532 3534 3534 3534 3538 3544 3548 3550 3552 3553 3553 3556 3560 3562 3564 3565 3566 3567 3569 3573 3576 3577 3578 3579 3582 3587 3594 3594 3594 3582 3573 3560 3551 3500 3362 3126 2876 2795 2760 2715 2658 2529 0 0 0 0 0 0 0 0 0 0 0 0 0 0 0 0 0 0 0 0 0 0 0 0 0 1460 1451 1446 1433 1419 1405 1397 1390 1390 1390 1388 1388 1386 1384 1383 1381 1379 1378 1378 1377 1376 1373 1372 1370 1369 1367 1364 1362 1360 1358 1357 1355 1354 1353 1353 1351 1351 1351 1350 1350 1350 1350 1350 1350 1350 1350 1350 1350 1350 1349 1349 1349 1349 1348 1348 1348 1348 1347 1347 1347 1347 1347 1347 1346 1346 1346 1346 1346 1345 1345 1345 1344 1344 1344 1343 1342 1342 1340 1339 1337 1336 1333 1331 1328 1326 1324 1322 1322 1321 1320 1319 1319 1318 1318 1318 1318 1318 1318 1318 1318 1319 1319 1320 1321 1322 1323 1324 1325 1328 1329 1329 1331 1332 1332 1332 1332 1332 1332 1332 1332 1332 1332 1332 1332 1332 1331 1331 1331 1331 1331 1330 1329 1329 1328 1327 1326 1325 1323 1321 1321 1319 1318 1316 1315 1314 1313 1311 1310 1310 1308 1308 1308 1308 1308 1308 1308 1308 1308 1309 1309 1310 1310 1312 1313 1314 1317 1319 1320 1321 1322 1322 1323 1324 1324 1324 1325 1325 1325 1325 1325 1325 1325 1325 1325 1325 1325 1324 1324 1323 1322 1321 1320 1318 1316 1315 1313 1310 1309 1306 1304 1302 1300 1299 1298 1297 1296 1294 1294 1293 1292 1292 1292 1292 1291 1291 1291 1292 1293 1293 1295 1296 1298 1302 1306 1308 1309 1312 1313 1314 1315 1315 1316 1316 1317 1317 1317 1317 1317 1317 1317 1317 1317 1317 1317 1316 1315 1314 1313 1312 1311 1309 1306 1303 1300 1292 1287 1286 1285 1283 1281 1280 1279 1278 1277 1277 1276 1276 1276 1276 1275 1275 1275 1275 1275 1277 1279 1281 1286 1288 1292 1296 1301 1304 1305 1306 1307 1309 1310 1310 1311 1311 1311 1311 1312 1312 1312 1312 1312 1312 1311 1311 1311 1310 1310 1309 1308 1307 1305 1302 1298 1295 1289 1279 1270 1267 1265 1263 1261 1260 1259 1257 1255 1254 1253 1252 1250 1249 1247 1245 1245 1245 1245 1245 1246 1248 1252 1257 1262 1272 1281 1286 1293 1297 1297 1299 1300 1302 1302 1303 1303 1303 1303 1303 1303 1303 1302 1302 1301 1301 1301 1301 1301 1301 1301 1301 1303 1305 1305 1305 1304 1303 1303 1303 1302 1301 1299 1296 1295 1293 1293 1292 1292 1291 1290 1288 1286 1284 1283 1283 1283 1281 1279 1279 1276 1276 1274 1274 1274 1271 1270 1268 1264 1250 1218 1195 1194 1191
1774 1785 1795 1804 1821 1837 1850 1859 1865 1874 1884 1899 1913 1918 1927 1932 1944 1959 1979 1997 2015 2033 2044 2058 2067 2075 2085 2091 2102 2108 2111 2117 2127 2139 2155 2168 2174 2178 2180 2188 2198 2207 2215 2222 2227 2235 2244 2251 2256 2263 2268 2278 2289 2300 2310 2325 2342 2355 2363 2372 2381 2388 2391 2392 2395 2396 2397 2404 2412 2424 2432 2440 2446 2452 2459 2466 2470 2471 2472 2476 2485 2493 2500 2506 2512 2516 2521 2523 2524 2527 2529 2535 2542 2547 2551 2553 2556 2561 2564 2565 2567 2569 2571 2571 2571 2571 2571 2571 2575 2580 2580 2580 2580 2571 2562 2557 2552 2552 2550 2550 2543 2543 2541 2540 2533 2533 2533 2533 2536 2538 2538 2538 2524 0 0 0 0 0 0 0 0 0 0 0 0 2529 3003 3298 3440 3493 3512 3524 3528 3528 3528 3528 3528 3533 3538 3543 3547 3550 3552 3553 3553 3556 3560 3562 3564 3565 3567 3567 3568 3572 3574 3577 3578 3579 3584 3594 3599 3599 3599 3587 3574 3560 3530 3423 3147 2637 0 0 0 0 0 0 0 0 0 0 0 0 0 0 0 0 0 0 0 0 0 0 0 0 0 0 0 0 0 0 1462 1450 1439 1431 1422 1411 1397 1395 1390 1388 1388 1386 1385 1384 1382 1381 1379 1378 1377 1377 1376 1375 1373 1372 1370 1369 1367 1363 1361 1359 1357 1356 1354 1353 1352 1352 1351 1351 1350 1350 1350 1350 1350 1350 1350 1350 1350 1349 1349 1349 1349 1349 1349 1349 1348 1348 1348 1347 1347 1347 1347 1347 1346 1346 1346 1346 1346 1346 1345 1345 1345 1344 1344 1344 1343 1343 1342 1341 1340 1339 1337 1336 1333 1331 1328 1326 1324 1322 1322 1320 1319 1319 1318 1318 1318 1318 1318 1318 1318 1318 1318 1319 1319 1319 1321 1322 1323 1323 1325 1327 1328 1329 1330 1331 1332 1332 1332 1332 1332 1332 1332 1332 1331 1331 1331 1331 1331 1331 1331 1331 1331 1330 1329 1328 1328 1327 1326 1324 1323 1321 1321 1319 1317 1316 1314 1313 1312 1311 1310 1310 1308 1308 1308 1308 1308 1307 1307 1307 1307 1308 1308 1310 1310 1312 1313 1314 1317 1318 1319 1321 1321 1322 1323 1323 1324 1324 1325 1325 1325 1325 1325 1325 1325 1325 1325 1324 1324 1323 1323 1322 1322 1321 1320 1318 1316 1315 1312 1310 1308 1306 1303 1302 1300 1299 1297 1296 1295 1294 1293 1293 1292 1292 1292 1291 1291 1291 1291 1292 1293 1293 1295 1296 1298 1302 1306 1308 1309 1311 1312 1314 1315 1315 1316 1316 1317 1317 1317 1317 1317 1317 1317 1317 1317 1317 1317 1316 1316 1314 1314 1313 1311 1309 1306 1303 1300 1293 1287 1286 1285 1283 1281 1280 1279 1278 1277 1277 1277 1276 1276 1276 1275 1274 1274 1274 1275 1276 1278 1280 1286 1289 1292 1296 1301 1304 1305 1306 1307 1308 1310 1310 1311 1311 1311 1311 1311 1312 1312 1312 1312 1312 1312 1311 1311 1310 1310 1309 1308 1307 1305 1303 1298 1294 1289 1281 1272 1270 1270 1267 1264 1260 1259 1257 1255 1254 1254 1252 1250 1249 1247 1246 1246 1246 1246 1246 1246 1248 1252 1256 1262 1272 1280 1286 1293 1297 1297 1299 1300 1302 1302 1303 1303 1303 1303 1303 1303 1302 1302 1302 1301 1301 1301 1300 1300 1299 1299 1300 1301 1301 1301 1301 1300 1300 1300 1299 1298 1298 1296 1294 1293 1291 1291 1289 1289 1289 1289 1287 1286 1283 1282 1282 1281 1281 1279 1277 1275 1275 1275 1274 1274 1272 1270 1264 1260 1248 1218 1202 1195 1191
1774 1785 1795 1807 1825 1840 1854 1860 1865 1874 1884 1899 1908 1914 1922 1929 1944 1959 1978 1996 2010 2026 2044 2055 2063 2074 2085 2091 2100 2106 2110 2116 2124 2136 2149 2160 2168 2174 2180 2188 2198 2207 2214 2222 2227 2233 2237 2241 2246 2254 2265 2278 2287 2298 2309 2324 2341 2352 2363 2369 2377 2385 2388 2388 2391 2393 2396 2402 2411 2420 2429 2434 2440 2443 2450 2459 2466 2468 2468 2472 2480 2490 2499 2504 2512 2516 2518 2520 2520 2522 2524 2530 2538 2545 2548 2550 2552 2554 2556 2558 2561 2565 2567 2569 2569 2569 2569 2569 2570 2573 2576 2576 2576 2562 2550 2539 2534 2531 2530 2522 2515 2507 2504 0 0 0 0 0 0 0 0 0 0 0 0 0 0 0 0 0 0 0 0 0 0 2538 3003 3294 3436 3493 3509 3516 3516 3516 3516 3516 3527 3533 3538 3541 3547 3550 3552 3553 3553 3556 3560 3562 3564 3565 3567 3567 3568 3571 3574 3577 3578 3583 3592 3594 3600 3600 3600 3595 3582 3558 3450 3314 2862 0 0 0 0 0 0 0 0 0 0 0 0 0 0 0 0 0 0 0 1788 1788 1767 1766 1748 0 0 0 0 0 0 0 1456 1447 1435 1427 1416 1405 1395 1394 1392 1388 1387 1384 1382 1381 1381 1380 1378 1377 1375 1375 1375 1373 1372 1372 1370 1369 1366 1363 1361 1359 1357 1355 1354 1353 1352 1352 1351 1351 1350 1350 1350 1350 1350 1350 1350 1350 1349 1349 1349 1349 1349 1349 1349 1348 1348 1348 1348 1347 1347 1347 1347 1346 1346 1346 1346 1346 1346 1345 1345 1345 1345 1344 1344 1344 1343 1342 1342 1341 1340 1339 1337 1335 1333 1331 1328 1325 1324 1323 1321 1320 1319 1319 1318 1318 1318 1318 1318 1318 1318 1318 1318 1319 1319 1319 1321 1321 1322 1323 1325 1326 1327 1329 1330 1331 1331 1331 1331 1331 1332 1332 1331 1331 1331 1331 1331 1331 1331 1331 1330 1330 1330 1330 1329 1328 1328 1327 1326 1324 1323 1321 1321 1319 1317 1316 1314 1313 1311 1311 1310 1310 1308 1308 1308 1308 1307 1307 1307 1307 1307 1308 1308 1310 1310 1311 1312 1314 1316 1318 1319 1320 1321 1322 1323 1323 1324 1324 1324 1325 1325 1325 1325 1325 1325 1325 1324 1324 1324 1323 1322 1321 1321 1320 1320 1318 1316 1314 1312 1310 1308 1306 1303 1302 1300 1299 1297 1296 1295 1294 1292 1292 1292 1292 1291 1291 1291 1291 1291 1292 1293 1294 1295 1297 1298 1302 1306 1308 1310 1311 1312 1313 1315 1315 1316 1316 1316 1317 1317 1317 1317 1317 1317 1317 1317 1317 1317 1317 1316 1315 1314 1313 1311 1309 1306 1304 1300 1294 1289 1286 1285 1283 1281 1281 1280 1279 1278 1277 1277 1277 1276 1276 1275 1274 1274 1274 1275 1276 1277 1280 1285 1289 1291 1296 1301 1304 1305 1305 1306 1308 1309 1310 1311 1311 1311 1311 1311 1312 1312 1312 1312 1312 1312 1311 1311 1310 1310 1309 1308 1306 1305 1303 1298 1292 1290 1282 1274 1270 1270 1267 1264 1262 1260 1258 1257 1255 1254 1252 1250 1249 1247 1246 1246 1246 1246 1246 1247 1248 1252 1256 1262 1272 1279 1286 1293 1297 1298 1299 1300 1301 1302 1302 1303 1303 1303 1303 1303 1302 1302 1301 1301 1301 1300 1299 1299 1299 1299 1299 1299 1299 1298 1298 1298 1297 1297 1297 1296 1294 1293 1293 1292 1290 1289 1288 1287 1287 1286 1285 1283 1282 1281 1280 1279 1279 1277 1276 1275 1275 1275 1277 1277 1277 1277 1264 1260 1234 1218 1202 1195 1181
