2200 2218 2231 2245 2267 2281 2288 2296 2307 2320 2356 2389 2398 2404 2418 2440 2457 2482 2502 2525 2549 2563 2563 2565 2568 2569 2594 2614 2623 2635 2652 2664 2667 2671 2684 2700 2709 2721 2728 2745 2761 2775 2776 2787 2802 2816 2828 2832 2849 2868 2874 2875 2884 2895 2903 2917 2928 2935 2935 2935 2932 2932 2932 2934 2939 2945 2969 2983 2987 2992 3001 3007 3013 3020 3026 3026 3029 3029 3030 3051 3078 3103 3117 3122 3125 3126 3136 3143 3155 3165 3170 3178 3185 3193 3201 3209 3209 3209 3209 3209 3211 3215 3227 3243 3243 3245 3249 3255 3261 3263 3264 3268 3271 3277 3282 3288 3295 3307 3315 3323 3326 3332 3340 3347 3350 3359 3368 3376 3382 3386 3386 3390 3396 3401 3409 3413 3414 3415 3416 3417 3418 3420 3428 3433 3440 3443 3445 3451 3453 3454 3455 3455 3455 3456 3459 3462 3467 3468 3469 3470 3474 3475 3476 3476 3478 3481 3483 3487 3488 3490 3491 3491 3492 3492 3492 3493 3494 3497 3498 3498 3499 3499 3500 3500 3500 3498 3498 3497 3497 3497 3497 3497 3497 3497 3499 3502 3505 3505 3505 3504 3504 3504 3504 3505 3507 3508 3508 3508 3508 3508 3513 3518 3522 3522 3522 3523 3523 3523 3525 3527 3533 3537 3537 3538 3538 3538 3542 3544 3544 3544 3534 3528 3528 3528 3533 3543 3544 3544 3544 3544 3544 3544 3546 3551 3554 3554 3554 3551 3543 3538 3537 3532 3519 3498 3477 3451 3433 3416 3401 3382 3375 3375 3366 3364 3319 3270 3251 3066 2641 0 0 2146 2128 2122 2109 2104 2097 2090 2082 2079 2076 2070 2060 2051 2046 2042 2041 2040 2038 2037 2037 2037 2037 2038 2038 2038 2038 2038 2037 2036 2035 2033 2031 2031 2029 2016 2010 2002 1994 1986 1981 1976 1969 1961 1954 1947 1940 1925 1911 1902 1891 1874 1860 1851 1845 1841 1839 1839 1839 1839 1839 1839 1842 1845 1851 1851 1854 1855 1858 1859 1859 1859 1861 1861 1861 1861 1859 1857 1853 1848 1843 1839 1837 1832 1826 1821 1818 1810 1810 1804 1800 1800 1800 1800 1806 1811 1813 1813 1813 1815 1816 1817 1817 1818 1819 1820 1820 1820 1820 1820 1821 1821 1822 1822 1822 1822 1822 1822 1822 1823 1823 1824 1824 1824 1824 1824 1824 1824 1824 1823 1823 1822 1822 1821 1821 1821 1821 1820 1820 1820 1820 1820 1820 1820 1820 1820 1819 1818 1817 1817 1817 1816 1815 1814 1813 1812 1810 1809 1807 1805 1803 1801 1799 1797 1794 1791 1788 1785 1782 1780 1777 1774 1772 1769 1767 1766 1764 1763 1761 1760 1760 1760 1760 1763 1764 1764 1765 1766 1771 1775 1781 1785 1789 1791 1793 1797 1803 1807 1807 1808 1810 1812 1813 1814 1814 1814 1814 1814 1814 1814 1814 1814 1814 1814 1813 1813 1812 1812 1811 1811 1810 1809 1807 1806 1805 1804 1804 1804 1802 1802 1802 1801 1800 1799 1799 1799 1798 1797 1796 1796 1796 1797 1797 1797 1796 1796 1796 1794 1793 1792 1791 1791 1791 1789 1788 1786 1785 1785 1784 1782 1782 1780 1780 1779 1778 1777 1777 1777 1776 1776 1774 1773 1773 1773 1772 1771 1771 1770 1770 1770 1769 1769 1769 1769 1768 1768 1768 1768 1768 1769 1770 1771 1772 1775 1779 1783 1784 1784 1787 1808 1826 1838 1853 1870 1879 1884 1885 1885 1885 1884 1879 1871 1869 1869 1868 1866 1862 1857 1854 1854 1853 1852 1849 1846 1845 1845 1845 1845 1841 1835 1829 1822 1816 1812 1802 1795 1783 1768 1745 1718 0 0 0 0 0 0 0 0 0 0 0 0 0 0 0 0
2200 2218 2245 2274 2284 2298 2298 2302 2316 2327 2360 2393 2422 2423 2426 2440 2455 2471 2486 2520 2544 2558 2558 2563 2564 2564 2584 2614 2620 2632 2650 2664 2666 2669 2684 2701 2709 2719 2728 2744 2761 2775 2784 2790 2813 2839 2851 2860 2876 2878 2882 2883 2890 2895 2904 2917 2930 2938 2938 2938 2933 2933 2933 2940 2941 2954 2976 2983 2989 2992 3002 3007 3014 3022 3028 3030 3032 3034 3040 3051 3077 3101 3117 3123 3128 3130 3136 3143 3155 3165 3175 3179 3186 3193 3203 3209 3210 3212 3212 3213 3219 3224 3235 3246 3247 3253 3258 3262 3268 3272 3276 3277 3279 3284 3290 3294 3304 3310 3316 3323 3327 3336 3346 3351 3355 3360 3372 3382 3388 3389 3394 3397 3404 3409 3413 3414 3415 3417 3418 3424 3427 3429 3436 3442 3448 3451 3451 3452 3455 3459 3460 3460 3462 3463 3465 3470 3472 3473 3473 3474 3477 3478 3480 3480 3483 3486 3490 3491 3492 3493 3494 3494 3495 3496 3496 3496 3496 3498 3500 3501 3502 3502 3502 3502 3502 3503 3503 3503 3502 3503 3502 3503 3503 3503 3504 3505 3507 3508 3508 3508 3508 3508 3508 3510 3512 3514 3514 3514 3514 3515 3515 3518 3522 3526 3526 3527 3530 3531 3532 3535 3539 3539 3539 3541 3541 3541 3544 3547 3547 3547 3538 3530 3530 3530 3533 3547 3550 3550 3550 3547 3547 3547 3550 3551 3556 3556 3556 3551 3543 3538 3537 3532 3520 3503 3479 3451 3433 3415 3401 3382 3366 3366 3362 3362 3319 3270 3251 3037 2567 0 2161 2143 2128 2122 2109 2104 2095 2089 2082 2079 2076 2070 2061 2051 2045 2041 2040 2040 2038 2037 2037 2037 2037 2037 2038 2038 2038 2038 2037 2036 2035 2033 2031 2031 2027 2017 2010 2004 1995 1988 1984 1979 1971 1963 1957 1954 1950 1935 1916 1904 1894 1882 1865 1854 1845 1841 1838 1837 1837 1837 1837 1837 1839 1844 1847 1848 1850 1851 1854 1856 1857 1858 1860 1860 1860 1860 1859 1856 1853 1846 1842 1837 1835 1831 1826 1819 1813 1809 1809 1804 1800 1799 1799 1799 1806 1811 1813 1813 1815 1815 1815 1816 1817 1818 1819 1819 1819 1819 1820 1820 1820 1820 1820 1821 1821 1821 1821 1821 1822 1822 1822 1822 1822 1822 1823 1823 1823 1822 1822 1821 1821 1821 1820 1820 1820 1820 1819 1819 1819 1819 1818 1818 1818 1818 1818 1818 1818 1817 1817 1817 1816 1815 1814 1813 1812 1811 1810 1808 1806 1805 1802 1801 1798 1796 1794 1791 1788 1785 1782 1780 1778 1774 1772 1769 1767 1766 1764 1762 1761 1760 1760 1760 1760 1760 1762 1762 1762 1763 1766 1771 1777 1780 1784 1789 1792 1795 1801 1804 1805 1806 1809 1811 1813 1813 1813 1813 1813 1813 1813 1814 1813 1813 1813 1813 1813 1813 1812 1811 1811 1810 1809 1808 1807 1806 1805 1804 1803 1803 1801 1800 1800 1800 1800 1799 1799 1798 1797 1796 1796 1795 1795 1795 1795 1795 1794 1794 1794 1793 1792 1791 1790 1789 1789 1787 1786 1785 1784 1783 1782 1781 1780 1779 1779 1778 1778 1777 1776 1776 1775 1774 1774 1773 1773 1772 1772 1771 1771 1770 1769 1769 1769 1769 1769 1769 1768 1768 1768 1768 1768 1769 1771 1772 1773 1776 1780 1786 1787 1789 1795 1811 1829 1839 1860 1876 1884 1885 1885 1885 1885 1884 1880 1873 1871 1870 1870 1866 1862 1857 1857 1855 1854 1854 1853 1850 1848 1848 1848 1848 1843 1839 1831 1827 1820 1817 1809 1797 1784 1769 1749 1723 1683 1636 0 0 0 0 0 0 0 0 0 0 0 0 0 0
2200 2218 2270 2292 2302 2312 2315 2316 2321 2329 2371 2405 2425 2434 2435 2440 2448 2456 2475 2504 2531 2543 2549 2554 2558 2564 2584 2612 2614 2630 2645 2660 2666 2669 2684 2701 2714 2721 2728 2742 2760 2775 2786 2802 2832 2852 2869 2879 2882 2886 2889 2892 2896 2901 2907 2917 2931 2941 2941 2941 2938 2938 2938 2946 2947 2956 2976 2987 2990 2994 3002 3007 3014 3022 3030 3038 3038 3041 3043 3051 3075 3100 3117 3123 3128 3130 3138 3143 3155 3166 3175 3181 3188 3195 3203 3209 3211 3214 3218 3222 3228 3232 3238 3246 3251 3254 3261 3268 3273 3279 3281 3283 3283 3288 3293 3300 3308 3315 3322 3328 3332 3342 3353 3358 3362 3368 3376 3388 3396 3402 3403 3405 3408 3412 3414 3415 3416 3418 3422 3429 3435 3436 3440 3445 3449 3451 3452 3453 3455 3460 3462 3467 3470 3472 3474 3475 3477 3477 3478 3479 3482 3484 3485 3486 3488 3492 3493 3494 3494 3496 3497 3497 3498 3498 3498 3498 3499 3500 3502 3504 3504 3504 3504 3504 3504 3504 3505 3505 3505 3505 3506 3506 3508 3508 3509 3509 3509 3509 3509 3510 3511 3512 3512 3513 3516 3517 3517 3517 3517 3517 3517 3519 3523 3527 3530 3533 3538 3539 3542 3544 3544 3544 3543 3543 3543 3543 3548 3551 3551 3551 3547 3533 3533 3533 3536 3547 3552 3553 3553 3554 3554 3554 3556 3556 3558 3558 3558 3551 3543 3538 3537 3532 3520 3503 3479 3462 3433 3415 3401 3382 3382 3382 3362 3362 3320 3267 3251 2906 0 0 2155 2139 2128 2122 2109 2099 2092 2089 2082 2080 2076 2070 2062 2052 2045 2041 2040 2039 2038 2037 2037 2037 2037 2037 2038 2038 2038 2038 2037 2036 2035 2033 2031 2031 2027 2017 2012 2005 1997 1991 1985 1981 1974 1967 1963 1958 1957 1943 1928 1914 1902 1887 1874 1858 1846 1841 1838 1835 1835 1835 1835 1835 1836 1839 1841 1843 1846 1848 1850 1853 1855 1855 1857 1858 1858 1858 1858 1856 1852 1846 1841 1837 1835 1830 1825 1816 1808 1808 1806 1803 1797 1793 1793 1793 1805 1810 1810 1813 1815 1815 1815 1815 1816 1818 1818 1819 1819 1819 1819 1820 1820 1820 1820 1820 1820 1820 1820 1820 1820 1820 1820 1821 1821 1821 1821 1821 1821 1821 1821 1821 1820 1820 1820 1819 1819 1818 1818 1818 1818 1818 1818 1817 1817 1817 1817 1817 1816 1816 1816 1815 1814 1814 1813 1813 1811 1811 1810 1808 1806 1804 1802 1800 1798 1796 1793 1791 1788 1785 1783 1781 1778 1775 1772 1769 1767 1766 1764 1762 1761 1760 1759 1758 1758 1758 1759 1759 1760 1761 1762 1767 1772 1776 1781 1787 1790 1794 1798 1801 1802 1804 1808 1810 1811 1812 1812 1812 1812 1813 1813 1813 1813 1813 1813 1812 1812 1811 1811 1810 1810 1809 1808 1807 1806 1805 1804 1803 1802 1801 1801 1800 1800 1800 1799 1799 1799 1798 1797 1796 1795 1794 1794 1794 1793 1792 1792 1792 1792 1792 1790 1790 1789 1788 1787 1787 1786 1785 1784 1782 1781 1779 1779 1779 1778 1778 1777 1776 1775 1775 1774 1773 1773 1773 1772 1772 1771 1771 1770 1770 1769 1768 1768 1768 1768 1768 1768 1768 1768 1768 1769 1770 1771 1773 1774 1777 1781 1788 1793 1795 1803 1819 1830 1850 1869 1880 1884 1884 1885 1885 1884 1884 1880 1874 1871 1870 1870 1867 1862 1858 1857 1856 1856 1856 1854 1852 1851 1850 1850 1850 1847 1843 1835 1832 1825 1819 1812 1801 1790 1773 1749 1723 1684 1636 1606 0 0 0 0 0 0 0 0 0 0 0 0 0
2200 2218 2283 2306 2319 2320 2325 2325 2330 2341 2375 2406 2425 2435 2440 2440 2446 2455 2470 2494 2520 2528 2549 2554 2558 2564 2596 2612 2613 2623 2640 2657 2666 2669 2684 2700 2714 2721 2728 2739 2746 2765 2787 2811 2841 2862 2878 2884 2888 2893 2895 2898 2902 2907 2910 2919 2933 2947 2950 2950 2950 2950 2950 2956 2957 2965 2978 2993 2997 3003 3007 3011 3016 3026 3039 3045 3046 3047 3049 3056 3077 3096 3107 3123 3128 3133 3138 3148 3159 3167 3175 3181 3188 3196 3203 3209 3212 3216 3222 3227 3230 3235 3241 3249 3253 3257 3264 3270 3277 3280 3284 3285 3290 3295 3301 3307 3315 3321 3328 3332 3340 3348 3360 3364 3366 3371 3377 3389 3396 3403 3408 3408 3409 3412 3416 3416 3417 3420 3425 3433 3440 3442 3445 3447 3450 3452 3452 3454 3456 3460 3467 3472 3472 3476 3479 3480 3482 3484 3484 3486 3487 3488 3489 3491 3493 3496 3496 3496 3497 3499 3499 3499 3499 3499 3500 3503 3503 3505 3505 3505 3505 3506 3506 3506 3506 3505 3505 3505 3505 3506 3508 3509 3510 3510 3510 3511 3511 3511 3511 3512 3513 3515 3515 3517 3519 3519 3519 3520 3520 3520 3520 3521 3523 3528 3532 3536 3541 3544 3546 3550 3550 3550 3548 3548 3548 3551 3554 3554 3554 3553 3551 3546 3537 3537 3537 3547 3552 3558 3560 3560 3561 3562 3562 3563 3563 3563 3559 3549 3537 3531 3530 3526 3520 3503 3479 3462 3438 3415 3406 3386 3386 3382 3364 3364 3323 3270 3163 2709 0 0 2144 2134 2123 2114 2101 2092 2090 2089 2084 2079 2074 2072 2062 2054 2045 2041 2039 2038 2038 2037 2037 2037 2037 2037 2037 2038 2038 2038 2037 2037 2035 2033 2031 2031 2027 2020 2014 2006 1999 1993 1987 1983 1978 1971 1967 1961 1957 1952 1938 1928 1913 1896 1881 1862 1848 1842 1838 1835 1833 1833 1833 1834 1835 1836 1837 1837 1840 1845 1848 1851 1852 1852 1854 1855 1856 1856 1856 1855 1851 1846 1837 1834 1831 1830 1822 1816 1807 1807 1804 1803 1796 1790 1790 1790 1801 1811 1813 1814 1814 1815 1815 1815 1816 1817 1818 1818 1818 1819 1819 1819 1819 1820 1820 1820 1820 1820 1820 1819 1820 1820 1819 1820 1820 1820 1820 1821 1821 1820 1820 1820 1819 1819 1819 1818 1818 1817 1817 1817 1817 1817 1816 1816 1816 1816 1816 1815 1815 1815 1814 1813 1813 1813 1812 1812 1811 1809 1808 1807 1805 1804 1802 1800 1798 1796 1793 1791 1788 1786 1784 1781 1778 1775 1772 1769 1767 1766 1764 1761 1760 1759 1759 1757 1757 1757 1757 1757 1757 1757 1757 1763 1768 1773 1778 1783 1786 1790 1795 1799 1801 1802 1806 1808 1809 1810 1811 1812 1812 1812 1812 1812 1812 1812 1812 1812 1812 1811 1811 1810 1809 1808 1807 1806 1805 1804 1804 1802 1802 1801 1800 1799 1799 1799 1799 1799 1798 1797 1796 1795 1794 1793 1792 1791 1791 1789 1789 1789 1789 1789 1789 1789 1787 1787 1786 1786 1784 1783 1782 1781 1780 1779 1777 1777 1777 1776 1776 1775 1774 1773 1773 1772 1772 1772 1772 1771 1771 1770 1770 1769 1769 1768 1768 1768 1768 1768 1768 1769 1769 1769 1769 1771 1773 1775 1775 1778 1782 1789 1798 1809 1812 1826 1841 1862 1874 1881 1884 1884 1884 1884 1883 1881 1881 1875 1871 1870 1870 1868 1863 1860 1858 1858 1857 1857 1856 1854 1852 1852 1851 1850 1849 1848 1842 1833 1826 1822 1819 1811 1795 1774 1749 1723 1690 1649 1606 1596 0 0 0 0 0 0 0 0 0 0 0 0
2200 2221 2286 2308 2322 2330 2330 2334 2340 2358 2389 2412 2427 2437 2440 2442 2444 2450 2468 2494 2519 2528 2548 2558 2564 2577 2597 2606 2612 2614 2632 2657 2666 2675 2690 2700 2714 2725 2728 2739 2746 2759 2789 2817 2844 2866 2881 2889 2892 2893 2895 2899 2905 2910 2915 2922 2934 2950 2961 2961 2963 2963 2963 2974 2975 2980 2993 3002 3011 3014 3019 3020 3021 3029 3043 3049 3049 3051 3053 3057 3077 3094 3105 3120 3127 3135 3144 3155 3165 3176 3178 3182 3190 3196 3203 3209 3212 3218 3223 3227 3231 3236 3244 3249 3253 3258 3268 3276 3281 3282 3285 3291 3298 3304 3309 3314 3321 3327 3337 3341 3349 3356 3363 3367 3370 3373 3379 3389 3396 3403 3408 3410 3410 3415 3416 3418 3421 3425 3431 3436 3442 3447 3449 3450 3452 3452 3453 3454 3458 3460 3468 3473 3476 3479 3481 3483 3484 3486 3489 3490 3491 3494 3494 3496 3497 3499 3499 3499 3499 3500 3502 3502 3503 3503 3503 3505 3505 3506 3506 3506 3506 3506 3507 3507 3507 3507 3505 3505 3505 3508 3510 3511 3511 3513 3514 3514 3514 3513 3513 3513 3515 3520 3523 3525 3525 3525 3523 3523 3523 3523 3526 3528 3531 3532 3535 3540 3544 3545 3549 3552 3557 3557 3557 3557 3557 3557 3557 3557 3557 3556 3556 3546 3536 3536 3536 3547 3555 3560 3562 3562 3562 3562 3563 3565 3565 3565 3562 3549 3537 3531 3524 3515 3509 3496 3478 3462 3440 3425 3413 3400 3400 3394 3381 3365 3323 3279 3145 2657 0 0 2138 2125 2119 2113 2100 2092 2088 2087 2084 2079 2074 2071 2063 2055 2045 2041 2037 2037 2037 2037 2037 2037 2037 2037 2037 2037 2038 2038 2038 2037 2035 2033 2032 2031 2027 2021 2015 2007 2001 1996 1991 1986 1979 1974 1971 1963 1958 1957 1944 1934 1922 1904 1891 1870 1852 1843 1838 1835 1833 1833 1833 1833 1833 1834 1834 1834 1835 1841 1845 1848 1850 1851 1851 1852 1853 1853 1853 1853 1851 1845 1836 1831 1829 1827 1821 1816 1806 1805 1789 1779 1779 1779 1780 1786 1798 1810 1813 1814 1814 1815 1815 1815 1816 1817 1818 1818 1818 1819 1819 1819 1819 1819 1819 1819 1819 1819 1819 1819 1819 1819 1819 1819 1819 1819 1819 1819 1819 1819 1819 1819 1819 1819 1818 1817 1817 1817 1816 1815 1815 1815 1815 1815 1814 1814 1814 1814 1813 1813 1813 1812 1812 1812 1811 1810 1809 1808 1807 1806 1805 1803 1802 1800 1798 1796 1793 1791 1789 1787 1784 1782 1779 1776 1773 1769 1767 1765 1763 1761 1760 1759 1757 1756 1755 1755 1755 1754 1754 1754 1754 1759 1766 1771 1775 1780 1784 1788 1793 1798 1800 1802 1805 1806 1807 1808 1810 1811 1811 1811 1812 1812 1812 1812 1812 1812 1811 1811 1810 1810 1809 1808 1807 1806 1805 1804 1803 1802 1802 1800 1799 1799 1799 1798 1798 1797 1796 1796 1795 1794 1793 1792 1791 1790 1788 1788 1788 1788 1788 1788 1788 1788 1787 1786 1785 1785 1784 1782 1782 1780 1779 1778 1777 1776 1776 1775 1775 1774 1773 1773 1772 1772 1771 1771 1771 1771 1770 1770 1769 1769 1768 1768 1767 1767 1767 1768 1768 1769 1769 1769 1769 1771 1773 1775 1778 1780 1784 1790 1801 1817 1821 1834 1850 1863 1876 1881 1884 1884 1884 1884 1883 1881 1881 1876 1871 1871 1870 1868 1864 1861 1860 1859 1859 1859 1858 1856 1854 1852 1851 1850 1849 1848 1844 1834 1826 1822 1819 1811 1795 1774 1748 1723 1690 1649 1615 1612 0 0 0 0 0 0 0 0 0 0 0 0
2217 2252 2294 2314 2323 2331 2333 2335 2340 2358 2395 2415 2434 2443 2444 2445 2447 2447 2466 2494 2512 2528 2548 2560 2568 2577 2597 2606 2608 2612 2619 2643 2666 2680 2690 2700 2714 2730 2736 2739 2746 2759 2789 2818 2846 2869 2883 2889 2894 2894 2895 2899 2905 2912 2920 2927 2937 2953 2965 2970 2970 2970 2975 2989 2999 3004 3005 3014 3022 3028 3033 3035 3036 3037 3046 3051 3058 3059 3059 3068 3083 3091 3105 3120 3124 3133 3149 3162 3172 3178 3182 3187 3190 3196 3202 3207 3213 3218 3223 3228 3233 3240 3248 3254 3255 3261 3270 3280 3286 3286 3290 3295 3301 3308 3315 3321 3326 3333 3337 3346 3355 3360 3365 3367 3370 3374 3379 3389 3399 3403 3408 3410 3411 3415 3418 3421 3424 3428 3433 3436 3442 3449 3455 3456 3456 3457 3457 3457 3458 3464 3471 3477 3477 3481 3484 3486 3488 3490 3492 3494 3494 3496 3497 3497 3500 3502 3502 3502 3502 3502 3504 3505 3506 3507 3507 3507 3507 3506 3506 3506 3507 3508 3508 3509 3508 3508 3507 3507 3507 3510 3513 3514 3514 3516 3516 3516 3516 3516 3516 3518 3519 3521 3526 3526 3526 3526 3526 3526 3526 3528 3531 3535 3539 3539 3541 3543 3545 3546 3549 3553 3558 3560 3560 3560 3560 3560 3559 3559 3559 3557 3556 3546 3539 3539 3539 3547 3552 3560 3563 3563 3563 3564 3564 3567 3567 3567 3564 3549 3537 3531 3524 3515 3504 3487 3473 3455 3440 3425 3424 3406 3406 3405 3390 3341 3323 3267 3080 2602 0 0 2131 2120 2119 2112 2098 2092 2088 2087 2084 2078 2072 2070 2065 2055 2047 2041 2037 2036 2036 2036 2037 2037 2037 2037 2037 2037 2038 2038 2038 2037 2036 2034 2033 2031 2027 2021 2016 2008 2003 2000 1994 1988 1983 1978 1975 1969 1962 1962 1958 1942 1933 1916 1896 1877 1857 1845 1841 1836 1833 1833 1833 1833 1833 1833 1833 1833 1834 1836 1843 1845 1848 1848 1849 1849 1849 1849 1849 1848 1846 1843 1836 1829 1824 1822 1821 1809 1806 1782 1766 1751 1747 1747 1747 1757 1793 1806 1815 1815 1815 1815 1815 1815 1816 1817 1817 1817 1818 1818 1819 1819 1819 1819 1819 1819 1819 1818 1818 1818 1818 1818 1818 1818 1818 1818 1819 1819 1819 1819 1818 1818 1817 1817 1817 1817 1816 1815 1815 1815 1815 1814 1814 1813 1813 1813 1813 1813 1812 1812 1812 1811 1811 1811 1810 1809 1809 1808 1807 1806 1805 1803 1802 1800 1798 1796 1793 1791 1789 1787 1784 1782 1779 1776 1773 1770 1767 1765 1763 1761 1759 1758 1756 1754 1753 1753 1753 1752 1752 1752 1752 1756 1761 1768 1773 1778 1782 1787 1790 1795 1800 1801 1803 1804 1806 1807 1809 1810 1811 1811 1811 1811 1811 1812 1812 1812 1811 1811 1810 1810 1809 1808 1806 1806 1805 1803 1803 1802 1801 1800 1799 1799 1798 1798 1798 1796 1796 1795 1794 1793 1792 1791 1790 1789 1788 1787 1787 1787 1787 1787 1786 1786 1786 1785 1784 1784 1782 1782 1780 1779 1778 1776 1776 1775 1774 1774 1773 1773 1772 1771 1771 1771 1770 1770 1770 1770 1769 1769 1769 1768 1768 1767 1767 1767 1767 1768 1768 1769 1769 1769 1770 1771 1773 1775 1779 1781 1786 1792 1809 1821 1835 1839 1860 1871 1880 1883 1884 1884 1884 1884 1883 1881 1881 1877 1873 1871 1871 1869 1867 1865 1862 1862 1860 1860 1858 1856 1855 1852 1851 1851 1849 1848 1844 1835 1826 1822 1819 1811 1795 1774 1741 1720 1692 1652 1622 1614 0 0 0 0 0 0 0 0 0 0 0 0
2235 2280 2296 2318 2326 2333 2336 2339 2342 2364 2395 2415 2443 2448 2448 2450 2450 2450 2468 2494 2512 2528 2550 2563 2570 2578 2597 2598 2603 2608 2619 2643 2666 2680 2692 2700 2717 2732 2740 2746 2747 2759 2789 2821 2849 2877 2886 2894 2895 2896 2896 2900 2907 2917 2924 2931 2941 2956 2970 2972 2972 2974 2977 2989 2999 3004 3010 3020 3026 3037 3045 3045 3047 3048 3049 3056 3063 3072 3074 3079 3085 3091 3098 3111 3119 3135 3149 3162 3172 3178 3182 3187 3190 3196 3202 3207 3213 3218 3224 3234 3240 3246 3253 3254 3258 3265 3276 3286 3291 3294 3296 3300 3306 3311 3319 3326 3331 3336 3340 3346 3356 3364 3368 3371 3374 3379 3384 3389 3399 3403 3408 3410 3412 3415 3419 3422 3426 3431 3433 3436 3442 3449 3455 3457 3460 3460 3461 3462 3465 3465 3474 3479 3479 3484 3485 3489 3490 3492 3494 3496 3497 3500 3500 3502 3504 3504 3505 3505 3507 3507 3507 3507 3507 3507 3507 3507 3507 3507 3507 3507 3507 3509 3510 3511 3511 3511 3511 3511 3512 3512 3515 3517 3517 3518 3519 3519 3519 3519 3519 3519 3520 3523 3527 3527 3527 3527 3527 3527 3527 3532 3539 3546 3546 3546 3547 3547 3547 3547 3550 3554 3558 3561 3561 3562 3562 3562 3562 3562 3559 3557 3557 3545 3539 3539 3539 3545 3551 3560 3563 3563 3563 3565 3565 3571 3571 3571 3570 3554 3548 3538 3524 3515 3504 3487 3473 3455 3440 3425 3424 3413 3409 3405 3395 3323 3300 3256 2988 2569 0 0 2125 2119 2118 2112 2097 2091 2088 2084 2081 2075 2071 2070 2065 2055 2047 2041 2037 2036 2036 2036 2037 2037 2037 2037 2037 2038 2038 2038 2038 2037 2036 2035 2033 2032 2028 2021 2016 2008 2005 2003 1998 1991 1987 1983 1977 1973 1969 1965 1963 1951 1943 1926 1905 1881 1863 1849 1841 1837 1833 1833 1833 1832 1831 1830 1830 1830 1832 1833 1837 1841 1844 1845 1846 1846 1846 1846 1845 1845 1842 1839 1836 1829 1824 1821 1821 1809 1793 1770 1763 1744 1744 1744 1745 1746 1778 1808 1815 1815 1815 1815 1815 1815 1816 1816 1817 1817 1818 1818 1818 1818 1819 1819 1819 1819 1818 1818 1818 1818 1818 1817 1817 1817 1817 1817 1817 1818 1818 1818 1818 1817 1817 1817 1816 1815 1815 1815 1814 1814 1814 1813 1812 1812 1812 1812 1812 1812 1812 1812 1812 1811 1811 1810 1809 1809 1809 1807 1807 1806 1805 1803 1801 1800 1798 1796 1793 1792 1789 1787 1784 1782 1779 1776 1774 1770 1768 1766 1763 1761 1759 1757 1755 1753 1752 1751 1750 1749 1749 1749 1751 1755 1757 1761 1768 1773 1780 1784 1786 1791 1798 1800 1801 1802 1804 1806 1808 1809 1810 1810 1810 1811 1811 1811 1811 1811 1811 1810 1810 1809 1808 1808 1806 1805 1804 1803 1802 1801 1801 1800 1799 1798 1798 1798 1797 1796 1795 1794 1794 1792 1791 1790 1789 1789 1788 1787 1787 1787 1787 1786 1785 1785 1784 1784 1783 1782 1781 1779 1778 1777 1776 1776 1776 1774 1774 1773 1772 1771 1771 1771 1770 1770 1770 1769 1769 1769 1768 1768 1768 1768 1767 1767 1767 1767 1767 1768 1768 1769 1770 1770 1770 1771 1772 1775 1779 1782 1786 1794 1814 1828 1844 1848 1863 1879 1885 1885 1886 1886 1885 1885 1885 1883 1883 1879 1876 1873 1872 1872 1869 1866 1864 1863 1862 1861 1859 1857 1856 1855 1852 1851 1849 1848 1844 1836 1826 1821 1812 1808 1788 1770 1739 1720 1694 1668 1645 1620 1615 0 0 0 0 0 0 0 0 0 0 0
2246 2282 2311 2321 2328 2336 2338 2342 2347 2366 2395 2415 2443 2450 2450 2454 2456 2456 2468 2494 2512 2542 2558 2566 2570 2585 2594 2597 2598 2605 2619 2643 2666 2680 2693 2705 2721 2733 2742 2749 2753 2761 2789 2821 2850 2877 2886 2894 2896 2897 2901 2903 2911 2920 2930 2936 2947 2961 2973 2973 2974 2976 2978 2989 2999 3008 3012 3022 3030 3041 3049 3053 3053 3054 3058 3064 3069 3079 3086 3090 3091 3093 3094 3105 3119 3135 3149 3162 3172 3178 3182 3187 3189 3193 3201 3206 3213 3222 3231 3240 3249 3254 3258 3260 3264 3270 3279 3290 3297 3300 3305 3307 3309 3316 3322 3328 3334 3338 3343 3349 3356 3364 3372 3376 3380 3384 3390 3394 3399 3403 3408 3411 3414 3415 3420 3424 3428 3431 3433 3437 3442 3449 3455 3458 3461 3462 3463 3467 3467 3472 3479 3481 3484 3486 3487 3491 3492 3493 3495 3497 3500 3500 3501 3504 3506 3506 3508 3508 3508 3508 3508 3507 3507 3507 3507 3507 3507 3508 3509 3509 3509 3511 3512 3512 3512 3513 3513 3513 3514 3514 3516 3517 3519 3520 3520 3520 3520 3520 3520 3520 3521 3523 3527 3528 3528 3529 3529 3529 3531 3537 3545 3553 3554 3554 3554 3553 3552 3552 3553 3556 3561 3566 3567 3567 3567 3565 3565 3563 3560 3558 3557 3545 3539 3539 3539 3544 3551 3557 3562 3563 3565 3566 3569 3572 3572 3572 3570 3561 3553 3551 3543 3526 3504 3487 3473 3455 3438 3431 3426 3413 3410 3405 3371 3297 3273 3233 2863 0 0 2142 2122 2113 2113 2104 2097 2092 2088 2084 2079 2072 2069 2068 2065 2055 2047 2041 2037 2036 2036 2036 2036 2036 2037 2037 2037 2037 2038 2038 2038 2037 2036 2035 2033 2032 2028 2021 2016 2011 2007 2005 1999 1993 1991 1986 1980 1976 1973 1969 1963 1955 1947 1940 1922 1887 1871 1857 1846 1840 1834 1831 1829 1829 1828 1827 1827 1827 1829 1829 1831 1836 1838 1840 1842 1842 1842 1842 1842 1842 1839 1834 1831 1828 1824 1821 1820 1812 1789 1760 1751 1739 1739 1739 1745 1746 1778 1806 1815 1815 1815 1815 1815 1815 1815 1816 1817 1817 1817 1817 1818 1818 1818 1818 1818 1818 1818 1818 1817 1817 1817 1817 1817 1817 1817 1817 1817 1817 1817 1817 1817 1817 1817 1816 1815 1815 1814 1814 1813 1813 1813 1812 1812 1812 1812 1812 1812 1811 1811 1811 1811 1811 1811 1810 1809 1808 1808 1807 1806 1805 1804 1802 1801 1799 1798 1796 1793 1792 1789 1787 1784 1782 1779 1776 1774 1771 1768 1766 1763 1761 1758 1756 1754 1752 1751 1749 1748 1748 1748 1748 1750 1753 1755 1756 1760 1767 1773 1781 1784 1787 1793 1798 1800 1800 1802 1804 1806 1808 1809 1810 1810 1810 1811 1811 1811 1810 1810 1810 1810 1809 1808 1807 1806 1805 1804 1802 1801 1801 1801 1799 1799 1798 1797 1797 1796 1795 1794 1793 1792 1791 1790 1789 1789 1788 1787 1786 1786 1786 1786 1786 1785 1784 1784 1783 1782 1781 1779 1778 1777 1776 1775 1775 1774 1773 1773 1772 1771 1771 1771 1770 1769 1769 1769 1769 1769 1769 1768 1768 1768 1767 1767 1767 1766 1766 1766 1767 1768 1769 1770 1770 1770 1770 1772 1775 1779 1782 1789 1805 1822 1833 1852 1876 1879 1887 1887 1888 1888 1888 1888 1888 1887 1885 1883 1880 1876 1874 1873 1873 1870 1869 1866 1864 1863 1861 1860 1858 1856 1856 1854 1851 1849 1848 1844 1836 1826 1820 1810 1796 1780 1766 1738 1720 1697 1687 1665 1643 1632 0 0 0 0 0 0 0 0 0 0 0
2249 2291 2321 2325 2335 2343 2349 2352 2355 2366 2397 2421 2443 2457 2457 2457 2461 2463 2487 2500 2523 2556 2574 2585 2586 2589 2594 2597 2598 2608 2623 2642 2669 2680 2702 2726 2739 2750 2750 2759 2760 2766 2789 2821 2851 2877 2886 2894 2897 2902 2907 2907 2915 2924 2936 2936 2948 2962 2974 2974 2976 2978 2983 2996 3009 3011 3012 3023 3033 3045 3056 3062 3063 3065 3072 3080 3080 3084 3091 3091 3092 3093 3094 3103 3117 3133 3148 3160 3171 3175 3182 3183 3189 3193 3197 3205 3213 3222 3234 3245 3255 3257 3261 3264 3271 3279 3286 3293 3300 3305 3309 3310 3313 3321 3328 3334 3338 3342 3347 3349 3356 3365 3372 3376 3381 3389 3393 3397 3403 3406 3411 3412 3415 3417 3422 3427 3431 3432 3434 3437 3442 3449 3456 3460 3461 3462 3467 3469 3474 3476 3481 3485 3488 3488 3488 3493 3494 3495 3497 3499 3502 3503 3503 3506 3509 3510 3510 3510 3509 3508 3508 3508 3508 3507 3507 3507 3508 3510 3510 3511 3513 3514 3514 3515 3515 3515 3515 3515 3515 3515 3516 3517 3519 3520 3522 3523 3523 3523 3522 3522 3522 3526 3529 3533 3533 3535 3536 3538 3540 3544 3550 3556 3559 3559 3559 3559 3559 3559 3559 3562 3566 3569 3569 3569 3568 3566 3565 3563 3561 3558 3555 3545 3540 3540 3540 3542 3546 3550 3562 3572 3574 3574 3575 3575 3574 3572 3571 3564 3563 3562 3560 3543 3517 3496 3473 3455 3438 3437 3431 3420 3413 3407 3326 3284 3273 3115 2753 0 0 2141 2121 2112 2106 2101 2097 2092 2088 2084 2079 2072 2068 2066 2060 2053 2046 2041 2038 2037 2036 2036 2036 2036 2036 2036 2037 2037 2038 2038 2038 2038 2036 2035 2033 2032 2029 2023 2018 2013 2007 2006 2003 1997 1995 1991 1983 1980 1977 1973 1966 1956 1951 1948 1934 1903 1882 1866 1851 1842 1834 1831 1828 1826 1826 1826 1826 1826 1827 1827 1828 1831 1834 1837 1838 1838 1839 1839 1839 1838 1836 1833 1830 1827 1823 1821 1819 1812 1789 1760 1751 1739 1739 1739 1745 1746 1778 1806 1815 1815 1815 1815 1815 1815 1815 1816 1817 1817 1817 1817 1818 1818 1818 1818 1818 1818 1817 1817 1817 1817 1817 1817 1816 1816 1816 1816 1817 1817 1817 1817 1816 1816 1815 1815 1815 1814 1814 1814 1813 1813 1813 1812 1812 1812 1811 1811 1811 1811 1811 1811 1811 1811 1809 1809 1808 1807 1807 1807 1806 1805 1803 1802 1801 1799 1797 1795 1793 1792 1789 1787 1784 1781 1779 1776 1774 1771 1768 1766 1762 1760 1758 1755 1753 1752 1751 1748 1747 1746 1746 1746 1748 1749 1751 1753 1757 1764 1772 1777 1782 1785 1789 1794 1797 1800 1800 1803 1804 1807 1808 1808 1809 1809 1810 1810 1810 1810 1810 1809 1808 1808 1808 1806 1805 1804 1803 1802 1801 1801 1800 1799 1798 1797 1797 1796 1795 1795 1793 1791 1790 1790 1790 1789 1788 1788 1786 1786 1785 1785 1785 1784 1784 1783 1782 1781 1780 1779 1778 1777 1776 1775 1774 1774 1773 1772 1771 1771 1771 1771 1771 1770 1769 1768 1768 1768 1768 1767 1767 1767 1767 1767 1766 1766 1766 1766 1766 1766 1768 1768 1769 1769 1770 1770 1772 1775 1779 1784 1794 1809 1824 1837 1856 1879 1880 1889 1889 1889 1888 1888 1888 1888 1887 1885 1883 1880 1878 1875 1874 1873 1871 1869 1867 1865 1864 1862 1860 1859 1857 1857 1857 1854 1850 1848 1844 1836 1826 1814 1807 1793 1778 1766 1739 1723 1698 1691 1677 1660 1653 0 0 0 0 0 0 0 0 0 0 0
2259 2302 2329 2338 2348 2356 2362 2366 2372 2382 2406 2421 2443 2461 2463 2464 2465 2472 2496 2503 2525 2556 2586 2602 2602 2602 2602 2602 2606 2610 2624 2643 2669 2680 2713 2743 2759 2762 2762 2768 2768 2768 2790 2822 2851 2871 2882 2893 2902 2906 2909 2913 2920 2931 2940 2942 2952 2963 2976 2976 2977 2982 2983 2996 3009 3011 3019 3026 3040 3054 3063 3071 3075 3080 3089 3089 3091 3092 3092 3092 3093 3093 3093 3102 3115 3132 3148 3160 3171 3175 3180 3183 3189 3192 3197 3205 3213 3222 3234 3245 3255 3261 3267 3270 3277 3284 3292 3298 3304 3308 3310 3312 3317 3325 3332 3337 3341 3346 3349 3353 3358 3365 3372 3377 3382 3389 3396 3401 3405 3409 3413 3416 3420 3422 3427 3432 3434 3437 3437 3439 3444 3449 3456 3460 3462 3464 3467 3472 3475 3479 3482 3488 3489 3490 3491 3494 3496 3497 3499 3500 3503 3504 3505 3507 3509 3511 3511 3511 3511 3510 3510 3509 3509 3507 3507 3507 3510 3511 3512 3514 3515 3516 3516 3517 3516 3516 3516 3516 3516 3516 3516 3518 3519 3522 3525 3526 3526 3526 3525 3525 3525 3531 3536 3539 3540 3543 3546 3550 3550 3554 3556 3560 3564 3565 3565 3565 3565 3565 3565 3568 3571 3572 3572 3572 3570 3569 3567 3566 3562 3560 3554 3545 3540 3540 3540 3542 3546 3548 3558 3572 3576 3577 3577 3577 3577 3574 3571 3568 3567 3567 3562 3548 3531 3517 3494 3455 3443 3438 3437 3422 3409 3407 3324 3279 3273 2977 2661 0 0 2137 2122 2110 2104 2101 2095 2091 2088 2085 2079 2072 2068 2065 2060 2053 2046 2041 2038 2037 2036 2036 2036 2036 2036 2036 2037 2037 2037 2038 2038 2038 2037 2035 2033 2032 2030 2025 2018 2013 2009 2006 2004 2002 1999 1995 1988 1986 1984 1980 1969 1963 1957 1949 1935 1920 1892 1872 1854 1844 1835 1831 1828 1826 1826 1826 1825 1825 1825 1826 1827 1829 1831 1832 1835 1835 1836 1836 1836 1836 1836 1833 1829 1826 1823 1821 1819 1808 1789 1760 1751 1743 1743 1743 1767 1786 1801 1808 1815 1815 1815 1815 1815 1815 1815 1816 1817 1817 1817 1817 1817 1817 1817 1817 1817 1817 1817 1817 1817 1817 1817 1816 1816 1816 1816 1816 1816 1816 1816 1816 1816 1816 1815 1815 1815 1814 1814 1813 1813 1812 1812 1812 1812 1812 1811 1811 1811 1811 1811 1811 1810 1810 1809 1809 1808 1807 1806 1806 1805 1805 1803 1802 1800 1799 1797 1795 1793 1792 1789 1787 1784 1781 1779 1776 1774 1771 1768 1766 1762 1760 1758 1755 1753 1752 1750 1748 1747 1745 1745 1745 1745 1746 1747 1750 1754 1761 1769 1774 1778 1782 1786 1791 1795 1799 1799 1802 1804 1805 1806 1807 1808 1809 1809 1809 1809 1809 1809 1808 1808 1808 1807 1806 1805 1804 1802 1802 1801 1800 1800 1799 1798 1797 1796 1796 1794 1793 1792 1790 1790 1790 1789 1788 1788 1787 1786 1785 1785 1784 1784 1784 1783 1782 1781 1780 1779 1778 1777 1777 1775 1774 1773 1772 1771 1770 1770 1770 1769 1769 1769 1769 1768 1768 1767 1767 1767 1767 1766 1766 1766 1766 1766 1766 1765 1765 1766 1766 1767 1767 1769 1769 1770 1770 1772 1775 1781 1785 1798 1809 1828 1838 1858 1880 1885 1889 1889 1889 1889 1889 1889 1889 1887 1885 1882 1880 1878 1875 1874 1873 1872 1870 1868 1866 1865 1863 1861 1860 1859 1859 1857 1854 1850 1845 1837 1834 1827 1813 1806 1793 1778 1765 1739 1723 1702 1691 1683 1677 1672 1669 0 0 0 0 0 0 0 0 0 0
2276 2321 2336 2353 2360 2366 2377 2381 2393 2396 2406 2421 2443 2461 2471 2472 2474 2486 2498 2503 2526 2559 2591 2621 2624 2624 2624 2624 2624 2627 2632 2645 2669 2678 2715 2749 2771 2771 2771 2772 2772 2774 2790 2822 2851 2865 2878 2891 2902 2906 2910 2916 2924 2936 2946 2954 2965 2975 2987 2988 2988 2991 2991 2996 3011 3024 3037 3042 3053 3061 3068 3079 3086 3093 3096 3096 3096 3093 3093 3093 3094 3095 3096 3102 3111 3130 3148 3160 3171 3175 3180 3183 3189 3192 3197 3204 3213 3222 3234 3245 3255 3261 3269 3275 3282 3290 3299 3303 3308 3308 3311 3316 3322 3328 3335 3343 3347 3352 3355 3356 3359 3366 3372 3377 3382 3389 3396 3404 3408 3412 3414 3417 3423 3428 3431 3435 3444 3447 3448 3448 3449 3453 3458 3461 3463 3467 3469 3472 3478 3483 3486 3490 3491 3491 3492 3495 3497 3499 3501 3503 3504 3505 3507 3508 3510 3513 3513 3514 3514 3513 3513 3511 3510 3509 3509 3509 3512 3513 3514 3515 3517 3518 3518 3518 3518 3518 3518 3518 3518 3518 3518 3518 3521 3524 3527 3529 3529 3529 3531 3531 3531 3537 3541 3543 3545 3548 3552 3556 3558 3559 3560 3562 3566 3569 3571 3571 3571 3572 3572 3572 3574 3576 3577 3577 3577 3576 3571 3570 3567 3563 3555 3548 3543 3543 3542 3542 3544 3544 3557 3572 3576 3581 3581 3581 3577 3574 3572 3572 3571 3569 3565 3551 3535 3526 3504 3476 3467 3455 3437 3423 3418 3399 3318 3275 3258 2924 2546 0 0 2137 2125 2110 2103 2101 2095 2091 2088 2085 2079 2073 2068 2065 2060 2053 2046 2041 2038 2037 2036 2036 2036 2036 2036 2036 2037 2037 2037 2038 2038 2038 2037 2035 2033 2032 2030 2028 2021 2018 2012 2009 2007 2005 2003 2001 1995 1991 1987 1984 1980 1975 1967 1952 1943 1929 1895 1877 1862 1847 1839 1834 1828 1826 1825 1824 1822 1822 1822 1823 1823 1826 1828 1829 1830 1833 1833 1834 1834 1834 1834 1832 1828 1826 1823 1822 1819 1812 1789 1772 1767 1758 1758 1758 1775 1789 1802 1812 1815 1815 1815 1815 1815 1815 1815 1816 1816 1816 1817 1817 1817 1817 1817 1817 1817 1817 1817 1817 1817 1817 1816 1816 1816 1816 1816 1816 1816 1816 1816 1816 1816 1816 1815 1815 1814 1814 1813 1813 1812 1812 1812 1812 1811 1811 1811 1811 1810 1810 1810 1810 1810 1809 1808 1807 1807 1807 1806 1805 1805 1805 1803 1801 1800 1798 1797 1795 1793 1791 1789 1787 1784 1781 1779 1776 1774 1771 1768 1766 1762 1760 1758 1755 1753 1751 1749 1747 1746 1744 1744 1744 1744 1744 1745 1749 1752 1757 1764 1769 1774 1779 1784 1789 1793 1796 1798 1801 1803 1804 1805 1805 1807 1808 1808 1808 1808 1807 1807 1807 1807 1807 1806 1805 1804 1804 1802 1801 1800 1800 1799 1798 1797 1797 1796 1795 1794 1793 1792 1790 1789 1789 1788 1787 1787 1786 1785 1785 1784 1784 1783 1782 1782 1781 1780 1779 1778 1776 1776 1775 1774 1773 1771 1771 1770 1769 1769 1768 1768 1768 1768 1768 1768 1767 1767 1766 1766 1766 1766 1765 1765 1764 1764 1764 1764 1765 1765 1765 1766 1767 1769 1770 1771 1772 1772 1777 1784 1789 1801 1816 1828 1848 1867 1883 1891 1891 1891 1891 1890 1890 1889 1889 1887 1885 1882 1880 1878 1876 1874 1874 1873 1871 1869 1867 1865 1864 1862 1860 1859 1859 1857 1854 1850 1842 1837 1834 1827 1813 1806 1791 1774 1761 1736 1733 1718 1702 1702 1697 1694 1694 0 0 0 0 0 0 0 0 0 0
2297 2330 2352 2363 2372 2376 2386 2396 2416 2424 2424 2437 2448 2466 2485 2487 2489 2496 2499 2513 2532 2559 2601 2626 2645 2645 2647 2647 2647 2647 2648 2652 2660 2661 2715 2753 2773 2778 2778 2778 2778 2778 2793 2825 2851 2865 2874 2889 2902 2906 2911 2916 2926 2937 2950 2962 2973 2986 2995 2999 2999 2999 3003 3015 3027 3038 3045 3053 3063 3069 3080 3088 3094 3097 3097 3097 3096 3095 3095 3095 3095 3098 3098 3102 3110 3130 3145 3160 3170 3175 3179 3184 3189 3193 3197 3201 3208 3217 3232 3243 3251 3263 3271 3278 3285 3291 3302 3306 3308 3308 3313 3319 3325 3332 3343 3348 3353 3357 3360 3361 3364 3368 3372 3377 3382 3389 3397 3405 3412 3413 3415 3419 3425 3428 3432 3436 3444 3450 3452 3453 3453 3457 3459 3465 3466 3467 3469 3473 3479 3485 3489 3491 3493 3494 3494 3495 3497 3499 3501 3503 3505 3506 3507 3510 3512 3514 3514 3515 3515 3515 3514 3514 3511 3511 3511 3512 3513 3516 3517 3518 3519 3519 3520 3520 3520 3520 3520 3520 3520 3521 3521 3522 3524 3526 3530 3533 3533 3533 3533 3533 3535 3541 3544 3545 3547 3551 3556 3558 3561 3562 3564 3564 3569 3571 3572 3574 3576 3576 3576 3577 3577 3577 3577 3577 3577 3577 3577 3573 3570 3563 3557 3549 3545 3545 3544 3544 3544 3545 3554 3566 3576 3581 3582 3583 3583 3581 3580 3579 3578 3575 3565 3554 3538 3529 3504 3482 3476 3474 3438 3432 3423 3397 3318 3275 3243 2855 0 0 2148 2135 2127 2108 2101 2099 2094 2090 2087 2085 2079 2073 2068 2064 2060 2054 2046 2041 2038 2036 2036 2036 2036 2036 2036 2036 2037 2037 2037 2038 2038 2038 2037 2035 2034 2032 2030 2029 2024 2019 2015 2013 2011 2008 2006 2004 1999 1995 1988 1985 1983 1981 1974 1967 1947 1929 1900 1880 1866 1850 1842 1839 1833 1826 1825 1824 1820 1820 1820 1820 1821 1822 1824 1826 1826 1827 1830 1831 1832 1832 1832 1830 1827 1824 1823 1822 1819 1813 1793 1775 1772 1772 1772 1774 1787 1795 1806 1813 1815 1815 1815 1815 1815 1815 1816 1816 1817 1817 1817 1817 1817 1817 1817 1817 1817 1817 1817 1817 1817 1817 1816 1816 1816 1816 1816 1816 1816 1816 1816 1816 1816 1815 1815 1814 1814 1813 1813 1813 1812 1812 1811 1811 1811 1811 1810 1810 1809 1809 1809 1808 1808 1808 1807 1806 1806 1806 1806 1805 1804 1804 1803 1801 1800 1797 1797 1794 1793 1791 1789 1787 1784 1782 1779 1776 1774 1771 1768 1766 1762 1760 1757 1755 1753 1750 1748 1746 1745 1743 1743 1743 1743 1743 1744 1747 1752 1754 1760 1765 1771 1777 1783 1789 1793 1795 1796 1800 1801 1803 1803 1804 1806 1807 1807 1807 1807 1807 1807 1806 1806 1806 1805 1805 1804 1803 1801 1800 1800 1799 1798 1798 1797 1796 1796 1795 1794 1792 1792 1790 1789 1789 1788 1787 1786 1786 1785 1785 1784 1783 1782 1781 1780 1779 1778 1777 1776 1774 1774 1773 1773 1772 1771 1770 1769 1768 1768 1768 1767 1767 1767 1766 1766 1766 1766 1765 1765 1765 1765 1764 1764 1764 1764 1764 1764 1764 1764 1765 1766 1767 1768 1770 1772 1773 1775 1781 1787 1791 1802 1819 1832 1856 1876 1888 1891 1891 1891 1891 1891 1890 1890 1889 1888 1885 1882 1880 1878 1876 1876 1875 1874 1872 1870 1868 1866 1864 1862 1861 1859 1859 1857 1854 1848 1842 1837 1834 1828 1813 1796 1789 1771 1748 1736 1733 1720 1720 1720 1724 1724 1724 0 0 0 0 0 0 0 0 0 0
2316 2345 2361 2373 2383 2390 2400 2409 2425 2436 2439 2443 2455 2476 2493 2510 2512 2513 2516 2526 2543 2559 2606 2631 2654 2662 2665 2667 2667 2667 2665 2661 2661 2661 2715 2754 2773 2783 2783 2783 2785 2785 2800 2851 2855 2865 2874 2887 2896 2906 2911 2916 2926 2937 2950 2962 2973 2986 2995 3001 3004 3007 3011 3024 3039 3052 3055 3062 3069 3078 3086 3095 3099 3099 3103 3103 3103 3098 3098 3098 3099 3100 3102 3102 3110 3125 3145 3160 3168 3174 3179 3184 3191 3193 3197 3201 3205 3217 3229 3243 3251 3264 3271 3280 3288 3295 3303 3308 3309 3310 3313 3321 3328 3337 3344 3350 3357 3360 3362 3364 3367 3369 3373 3378 3382 3389 3397 3406 3412 3416 3416 3419 3425 3428 3432 3437 3444 3451 3455 3456 3459 3461 3466 3467 3468 3468 3470 3474 3479 3486 3491 3492 3494 3494 3494 3496 3498 3499 3502 3504 3505 3507 3508 3510 3513 3516 3516 3516 3516 3516 3515 3515 3513 3513 3513 3514 3518 3520 3523 3523 3523 3523 3523 3522 3522 3522 3523 3524 3525 3525 3526 3527 3527 3530 3532 3534 3536 3536 3536 3537 3539 3545 3547 3548 3550 3553 3556 3560 3563 3567 3567 3569 3572 3574 3574 3576 3576 3578 3580 3580 3580 3579 3579 3579 3579 3578 3578 3575 3571 3567 3558 3551 3551 3546 3546 3546 3546 3546 3550 3558 3571 3582 3586 3586 3585 3585 3587 3585 3584 3578 3565 3557 3543 3529 3504 3482 3476 3474 3438 3436 3423 3376 3326 3275 3243 2802 0 0 2147 2135 2127 2108 2098 2098 2094 2090 2087 2082 2079 2073 2068 2064 2060 2054 2046 2041 2038 2036 2036 2035 2035 2035 2035 2035 2036 2037 2037 2037 2037 2037 2037 2036 2034 2032 2031 2029 2026 2022 2018 2016 2014 2011 2009 2005 2004 1998 1993 1989 1986 1985 1981 1975 1956 1940 1920 1885 1873 1856 1847 1841 1833 1826 1825 1822 1819 1818 1818 1818 1818 1818 1819 1821 1822 1824 1827 1828 1830 1830 1830 1829 1827 1824 1822 1821 1819 1814 1805 1799 1795 1794 1793 1793 1793 1802 1810 1814 1815 1815 1815 1815 1816 1816 1817 1817 1817 1817 1817 1817 1817 1817 1817 1817 1817 1817 1817 1817 1816 1816 1816 1816 1816 1816 1815 1815 1815 1815 1815 1815 1815 1815 1815 1814 1814 1813 1813 1813 1812 1812 1811 1810 1810 1810 1810 1809 1809 1808 1808 1807 1807 1807 1806 1806 1805 1805 1805 1804 1804 1803 1802 1801 1799 1797 1796 1794 1793 1791 1789 1787 1784 1782 1779 1776 1774 1771 1768 1766 1763 1760 1757 1755 1753 1750 1747 1745 1743 1742 1742 1742 1743 1743 1743 1743 1749 1752 1756 1761 1767 1773 1782 1786 1791 1794 1795 1797 1800 1801 1802 1803 1805 1805 1805 1806 1806 1806 1806 1806 1805 1805 1804 1804 1803 1802 1801 1800 1799 1799 1798 1798 1796 1796 1795 1794 1793 1792 1791 1790 1789 1788 1788 1787 1786 1786 1785 1785 1784 1783 1782 1780 1779 1778 1778 1776 1775 1774 1773 1773 1772 1771 1770 1769 1768 1768 1768 1767 1767 1767 1767 1766 1766 1766 1765 1765 1765 1764 1764 1764 1763 1763 1763 1763 1763 1764 1764 1765 1766 1767 1768 1769 1772 1773 1778 1783 1790 1793 1802 1820 1836 1859 1877 1893 1894 1894 1894 1893 1892 1891 1891 1891 1889 1885 1882 1880 1879 1878 1877 1875 1875 1872 1870 1868 1866 1864 1863 1861 1859 1857 1855 1852 1848 1842 1837 1836 1828 1814 1790 1784 1762 1740 1737 1736 1727 1727 1727 1742 1742 1742 0 0 0 0 0 0 0 0 0 0
2316 2345 2370 2378 2385 2395 2406 2418 2433 2439 2442 2444 2456 2478 2498 2511 2521 2528 2533 2537 2544 2568 2606 2633 2656 2662 2667 2678 2680 2680 2680 2661 2661 2661 2715 2755 2773 2783 2783 2785 2787 2789 2818 2864 2869 2872 2874 2887 2896 2906 2911 2923 2927 2938 2950 2962 2973 2986 2995 3001 3007 3009 3019 3033 3049 3053 3062 3066 3070 3079 3090 3098 3102 3103 3108 3112 3112 3112 3113 3115 3120 3120 3120 3120 3120 3124 3145 3149 3168 3174 3179 3185 3193 3199 3200 3201 3205 3216 3229 3243 3251 3264 3273 3280 3289 3296 3303 3308 3309 3310 3315 3324 3331 3339 3345 3351 3358 3361 3364 3368 3372 3374 3375 3379 3382 3390 3398 3407 3413 3417 3420 3421 3425 3430 3433 3437 3444 3451 3459 3459 3461 3465 3472 3472 3472 3472 3472 3477 3483 3487 3492 3495 3495 3495 3495 3496 3497 3499 3502 3504 3505 3509 3509 3510 3514 3516 3516 3517 3517 3517 3517 3517 3516 3516 3516 3518 3523 3525 3526 3526 3526 3526 3525 3525 3525 3525 3527 3528 3529 3529 3530 3530 3531 3532 3533 3535 3537 3538 3539 3541 3545 3550 3552 3552 3553 3556 3558 3561 3566 3571 3574 3576 3576 3576 3576 3576 3576 3580 3583 3583 3583 3583 3583 3583 3583 3583 3579 3575 3571 3568 3563 3558 3557 3557 3553 3553 3551 3551 3551 3558 3571 3586 3588 3588 3588 3588 3588 3588 3588 3585 3575 3566 3555 3533 3497 3482 3475 3474 3436 3435 3423 3374 3318 3270 3213 2769 0 0 2146 2135 2127 2108 2098 2098 2094 2090 2087 2082 2079 2072 2067 2064 2060 2054 2046 2042 2038 2036 2035 2034 2034 2034 2034 2034 2035 2036 2036 2037 2037 2037 2037 2036 2035 2033 2031 2029 2027 2023 2021 2019 2015 2013 2010 2007 2007 2002 1998 1995 1993 1990 1986 1980 1968 1956 1937 1900 1881 1871 1852 1841 1833 1826 1823 1820 1818 1817 1815 1815 1815 1815 1816 1818 1819 1821 1823 1824 1827 1828 1828 1828 1827 1824 1822 1822 1819 1816 1812 1810 1808 1802 1802 1802 1806 1812 1812 1815 1815 1815 1816 1816 1816 1817 1817 1817 1817 1817 1817 1817 1817 1817 1817 1817 1817 1817 1817 1816 1816 1816 1816 1816 1815 1815 1815 1815 1815 1815 1815 1815 1815 1815 1814 1814 1813 1813 1813 1812 1812 1811 1811 1810 1810 1810 1809 1809 1808 1808 1807 1807 1807 1806 1806 1805 1805 1804 1804 1804 1803 1802 1800 1800 1798 1797 1795 1793 1792 1790 1788 1787 1784 1782 1779 1777 1773 1771 1768 1766 1763 1759 1757 1755 1752 1749 1747 1744 1742 1742 1742 1742 1742 1742 1743 1743 1746 1749 1752 1757 1765 1771 1780 1785 1789 1792 1794 1795 1797 1799 1800 1802 1803 1804 1804 1805 1805 1805 1805 1805 1805 1804 1803 1803 1802 1801 1800 1799 1798 1798 1798 1797 1796 1795 1794 1793 1793 1792 1791 1790 1789 1788 1788 1787 1786 1786 1785 1785 1784 1783 1782 1780 1779 1778 1777 1776 1775 1773 1773 1772 1771 1770 1769 1769 1768 1767 1767 1766 1766 1766 1766 1766 1765 1765 1764 1764 1764 1764 1764 1763 1763 1763 1763 1763 1763 1763 1764 1765 1766 1767 1768 1769 1772 1774 1779 1783 1790 1793 1803 1821 1843 1863 1886 1898 1899 1899 1899 1898 1894 1893 1892 1892 1890 1887 1884 1881 1879 1878 1877 1876 1875 1873 1870 1868 1866 1864 1863 1861 1859 1857 1853 1849 1847 1842 1841 1836 1829 1813 1787 1780 1755 1740 1737 1736 1734 1734 1734 1759 1759 1759 1714 0 0 0 0 0 0 0 0 0
2319 2350 2370 2378 2388 2400 2413 2424 2440 2441 2442 2445 2461 2492 2500 2518 2530 2534 2544 2546 2549 2581 2609 2641 2657 2665 2670 2682 2686 2686 2686 2667 2667 2667 2715 2756 2775 2781 2787 2789 2791 2801 2829 2875 2880 2882 2882 2887 2896 2906 2919 2930 2937 2940 2948 2960 2973 2986 2995 3002 3010 3014 3023 3037 3049 3057 3064 3068 3071 3080 3091 3100 3102 3105 3110 3115 3118 3119 3120 3125 3138 3138 3138 3124 3124 3124 3145 3149 3168 3174 3179 3189 3196 3201 3205 3205 3207 3216 3229 3245 3254 3266 3275 3281 3289 3296 3303 3308 3309 3310 3317 3327 3334 3340 3346 3352 3359 3362 3366 3371 3376 3378 3378 3381 3387 3393 3398 3407 3414 3419 3425 3427 3429 3430 3433 3437 3443 3451 3462 3467 3472 3476 3476 3476 3477 3477 3477 3481 3487 3490 3493 3495 3495 3495 3496 3496 3497 3499 3502 3506 3509 3512 3512 3512 3514 3518 3519 3520 3521 3521 3521 3521 3521 3521 3521 3524 3528 3528 3528 3528 3527 3526 3526 3526 3528 3528 3528 3530 3531 3531 3531 3531 3532 3534 3536 3536 3538 3540 3543 3546 3552 3556 3558 3559 3559 3560 3562 3566 3571 3574 3578 3580 3580 3580 3579 3579 3579 3584 3586 3586 3586 3586 3586 3585 3585 3584 3584 3579 3572 3569 3567 3559 3559 3559 3561 3561 3561 3559 3559 3559 3571 3589 3589 3590 3590 3590 3592 3592 3590 3587 3581 3576 3563 3534 3497 3474 3473 3452 3432 3427 3425 3364 3318 3231 3034 2648 0 0 2142 2127 2116 2107 2098 2097 2095 2090 2085 2082 2078 2072 2067 2063 2059 2054 2046 2042 2039 2036 2036 2034 2034 2034 2034 2034 2035 2036 2036 2037 2037 2037 2037 2036 2035 2034 2032 2029 2029 2026 2023 2021 2016 2014 2012 2010 2009 2008 2006 2003 2000 1999 1997 1991 1981 1966 1957 1922 1890 1879 1856 1842 1832 1826 1821 1819 1817 1815 1813 1813 1812 1812 1812 1815 1816 1818 1820 1821 1823 1826 1826 1826 1826 1824 1823 1822 1822 1816 1815 1812 1809 1809 1809 1813 1814 1814 1815 1815 1815 1816 1816 1816 1817 1818 1818 1818 1817 1817 1817 1817 1817 1817 1817 1817 1817 1817 1816 1816 1816 1816 1816 1816 1815 1815 1815 1815 1814 1814 1814 1814 1814 1813 1813 1813 1813 1813 1813 1812 1811 1811 1811 1810 1810 1809 1809 1808 1808 1807 1807 1807 1806 1806 1806 1805 1804 1804 1804 1803 1802 1801 1800 1799 1797 1796 1795 1793 1792 1790 1788 1786 1784 1782 1779 1777 1773 1771 1768 1766 1763 1760 1757 1755 1752 1749 1747 1744 1742 1741 1741 1741 1741 1742 1742 1742 1744 1747 1750 1755 1762 1768 1777 1781 1786 1789 1792 1795 1796 1797 1798 1799 1801 1802 1802 1803 1803 1803 1803 1804 1804 1803 1803 1802 1801 1801 1800 1799 1798 1797 1797 1796 1796 1795 1794 1793 1792 1791 1791 1790 1789 1788 1788 1787 1786 1786 1785 1785 1784 1783 1782 1780 1779 1778 1777 1776 1774 1773 1771 1771 1770 1769 1769 1768 1767 1767 1766 1766 1766 1766 1765 1765 1764 1764 1764 1764 1764 1763 1763 1762 1762 1762 1762 1762 1763 1763 1764 1765 1765 1767 1767 1769 1771 1774 1779 1783 1790 1794 1803 1821 1855 1875 1897 1901 1901 1901 1899 1898 1896 1895 1893 1892 1890 1888 1885 1883 1881 1880 1878 1876 1875 1873 1870 1868 1866 1864 1863 1861 1859 1855 1852 1849 1846 1842 1842 1836 1829 1813 1782 1761 1755 1740 1737 1736 1736 1736 1741 1768 1768 1768 1750 0 0 0 0 0 0 0 0 0
2319 2350 2370 2378 2389 2401 2417 2430 2442 2443 2444 2445 2463 2492 2507 2519 2537 2542 2548 2560 2564 2584 2624 2654 2666 2670 2671 2683 2690 2692 2692 2690 2690 2694 2733 2761 2776 2781 2787 2793 2794 2812 2850 2880 2885 2888 2894 2898 2902 2912 2923 2935 2941 2943 2948 2960 2973 2986 2995 3002 3010 3016 3025 3040 3049 3057 3064 3072 3080 3087 3093 3100 3103 3106 3112 3120 3123 3123 3133 3142 3149 3149 3149 3131 3131 3131 3145 3149 3168 3174 3183 3195 3204 3207 3209 3209 3211 3217 3233 3247 3259 3268 3275 3282 3290 3297 3304 3309 3310 3312 3320 3330 3337 3341 3345 3352 3360 3363 3367 3374 3380 3381 3385 3387 3395 3399 3405 3413 3420 3426 3431 3432 3433 3433 3436 3438 3443 3451 3462 3467 3472 3479 3480 3480 3481 3481 3482 3485 3488 3490 3493 3495 3495 3495 3496 3496 3498 3499 3503 3506 3510 3513 3513 3514 3514 3518 3522 3523 3524 3524 3524 3524 3524 3525 3526 3529 3531 3531 3531 3529 3528 3528 3528 3528 3530 3530 3531 3531 3531 3531 3531 3532 3533 3534 3537 3538 3540 3542 3545 3550 3556 3562 3564 3565 3566 3566 3566 3570 3574 3576 3580 3584 3584 3584 3585 3585 3585 3589 3590 3590 3590 3590 3589 3587 3585 3585 3584 3584 3577 3571 3567 3562 3562 3562 3562 3565 3565 3565 3565 3565 3573 3593 3596 3596 3596 3596 3596 3592 3590 3587 3582 3581 3572 3540 3497 3474 3463 3441 3427 3426 3425 3364 3276 3220 2902 2517 0 2161 2142 2126 2114 2106 2100 2097 2095 2090 2085 2080 2076 2072 2067 2063 2059 2054 2046 2043 2039 2036 2036 2034 2034 2034 2034 2034 2035 2036 2036 2037 2037 2037 2037 2036 2035 2034 2032 2030 2030 2028 2025 2022 2019 2017 2016 2015 2014 2014 2013 2008 2008 2008 2008 1998 1993 1985 1966 1947 1905 1888 1864 1842 1832 1825 1821 1818 1816 1815 1812 1812 1811 1811 1811 1811 1812 1814 1817 1819 1820 1822 1824 1825 1825 1825 1824 1822 1822 1818 1818 1816 1816 1816 1818 1818 1818 1816 1816 1816 1816 1817 1818 1818 1818 1818 1818 1818 1817 1817 1817 1817 1816 1816 1816 1816 1816 1816 1816 1816 1815 1815 1815 1815 1814 1814 1814 1814 1814 1814 1814 1813 1813 1813 1813 1813 1812 1812 1812 1811 1811 1811 1810 1810 1810 1809 1809 1808 1808 1807 1807 1806 1806 1806 1805 1805 1804 1804 1803 1803 1802 1800 1799 1798 1797 1795 1794 1792 1791 1789 1787 1785 1784 1781 1779 1777 1773 1771 1768 1765 1763 1760 1757 1755 1752 1749 1747 1744 1741 1740 1740 1740 1741 1741 1742 1742 1743 1746 1749 1755 1761 1766 1772 1780 1782 1786 1790 1793 1795 1795 1795 1798 1800 1801 1801 1802 1802 1802 1802 1802 1802 1802 1801 1801 1800 1799 1799 1798 1798 1797 1797 1796 1795 1795 1794 1793 1792 1791 1790 1790 1788 1788 1788 1787 1786 1786 1785 1785 1784 1783 1782 1780 1779 1778 1777 1776 1774 1773 1771 1770 1769 1769 1768 1767 1767 1766 1766 1765 1765 1765 1764 1764 1764 1764 1763 1763 1762 1762 1762 1762 1762 1762 1762 1762 1762 1762 1763 1764 1765 1767 1767 1768 1770 1774 1779 1784 1789 1794 1806 1823 1862 1879 1897 1901 1901 1901 1899 1898 1896 1895 1894 1893 1891 1889 1887 1885 1883 1881 1879 1877 1875 1874 1871 1868 1866 1864 1863 1860 1859 1855 1852 1848 1846 1842 1842 1836 1829 1808 1782 1761 1755 1752 1748 1746 1746 1746 1753 1770 1770 1770 1761 0 0 0 0 0 0 0 0 0
2316 2345 2367 2373 2389 2405 2432 2444 2451 2451 2452 2455 2465 2495 2510 2521 2539 2551 2562 2567 2590 2610 2642 2665 2680 2682 2683 2686 2692 2692 2694 2698 2700 2721 2753 2773 2776 2781 2787 2794 2804 2825 2855 2883 2894 2902 2904 2908 2909 2914 2924 2936 2941 2944 2948 2960 2978 2990 2998 3004 3012 3018 3025 3040 3045 3057 3071 3083 3091 3098 3102 3102 3104 3107 3115 3122 3128 3132 3137 3145 3152 3152 3152 3140 3140 3140 3149 3158 3170 3184 3193 3198 3204 3212 3215 3215 3218 3223 3238 3251 3265 3273 3277 3282 3291 3298 3304 3310 3313 3316 3325 3332 3337 3341 3346 3352 3360 3363 3368 3375 3380 3386 3390 3395 3400 3407 3414 3425 3432 3434 3435 3437 3441 3441 3443 3443 3444 3454 3462 3467 3472 3479 3484 3484 3484 3485 3485 3486 3488 3491 3494 3496 3496 3497 3497 3497 3498 3502 3504 3507 3511 3514 3514 3514 3514 3518 3523 3524 3525 3525 3526 3526 3527 3528 3531 3533 3534 3534 3534 3531 3530 3530 3530 3530 3531 3532 3532 3532 3533 3533 3533 3533 3536 3538 3539 3541 3544 3547 3548 3553 3559 3566 3570 3570 3571 3573 3573 3576 3580 3582 3586 3589 3589 3589 3589 3589 3589 3593 3594 3594 3594 3593 3590 3587 3585 3585 3584 3584 3579 3574 3567 3562 3562 3562 3562 3565 3566 3566 3567 3569 3575 3596 3598 3598 3598 3600 3598 3595 3595 3589 3583 3583 3573 3544 3497 3479 3463 3441 3425 3415 3387 3367 3276 3185 2817 0 0 2161 2142 2126 2114 2105 2100 2097 2095 2089 2085 2079 2075 2071 2067 2063 2059 2053 2046 2043 2039 2036 2036 2034 2034 2034 2034 2034 2035 2036 2036 2037 2037 2037 2037 2036 2036 2034 2033 2031 2030 2029 2026 2024 2022 2021 2020 2019 2019 2019 2019 2019 2019 2016 2015 2010 2007 1991 1968 1953 1928 1896 1873 1845 1832 1825 1819 1818 1816 1813 1811 1810 1808 1808 1808 1808 1808 1809 1812 1816 1818 1819 1821 1822 1824 1824 1824 1822 1822 1822 1822 1822 1822 1822 1822 1821 1819 1819 1818 1818 1818 1818 1818 1818 1818 1818 1818 1818 1818 1817 1817 1816 1816 1816 1816 1816 1816 1816 1815 1815 1815 1815 1815 1814 1814 1814 1814 1814 1813 1813 1813 1813 1812 1812 1812 1812 1812 1812 1811 1811 1811 1810 1810 1809 1809 1809 1808 1807 1807 1806 1806 1806 1805 1805 1804 1804 1804 1804 1803 1802 1801 1800 1798 1797 1796 1795 1794 1792 1791 1788 1787 1785 1783 1781 1779 1776 1773 1771 1768 1765 1762 1760 1757 1755 1753 1750 1747 1744 1741 1740 1739 1738 1738 1738 1739 1741 1741 1745 1748 1753 1758 1763 1768 1774 1779 1783 1786 1789 1791 1791 1792 1795 1798 1799 1800 1800 1801 1802 1802 1802 1801 1801 1801 1800 1799 1799 1799 1798 1798 1796 1796 1796 1795 1794 1794 1793 1792 1791 1790 1790 1788 1788 1788 1787 1786 1786 1785 1785 1783 1783 1782 1780 1779 1778 1777 1776 1774 1773 1771 1770 1769 1768 1768 1767 1766 1766 1766 1765 1765 1764 1764 1764 1764 1763 1763 1762 1762 1762 1762 1761 1761 1761 1761 1761 1762 1762 1763 1764 1765 1767 1767 1768 1770 1774 1779 1783 1789 1799 1816 1835 1865 1880 1897 1899 1899 1899 1898 1898 1896 1895 1895 1893 1892 1889 1888 1886 1885 1883 1881 1879 1876 1874 1872 1869 1867 1864 1863 1860 1858 1855 1852 1848 1843 1842 1840 1837 1822 1807 1782 1773 1761 1761 1756 1756 1756 1756 1763 1771 1771 1771 1765 0 0 0 0 0 0 0 0 0
2313 2323 2348 2355 2389 2405 2432 2448 2459 2459 2466 2467 2472 2499 2517 2533 2545 2561 2584 2604 2625 2643 2665 2679 2680 2687 2692 2692 2694 2696 2698 2703 2710 2731 2759 2775 2781 2784 2787 2797 2807 2828 2861 2883 2896 2913 2917 2917 2918 2920 2925 2938 2947 2952 2953 2970 2982 2995 3003 3007 3013 3021 3027 3037 3044 3057 3071 3085 3099 3107 3107 3107 3110 3110 3118 3123 3130 3134 3139 3147 3156 3165 3166 3168 3169 3170 3173 3178 3184 3191 3196 3200 3206 3213 3220 3220 3221 3229 3239 3251 3265 3273 3278 3282 3295 3301 3305 3311 3316 3320 3327 3333 3338 3341 3346 3352 3360 3366 3369 3376 3382 3388 3393 3397 3403 3412 3423 3431 3434 3435 3435 3440 3443 3446 3447 3448 3451 3454 3462 3467 3473 3479 3484 3486 3486 3486 3486 3486 3488 3491 3494 3496 3497 3497 3497 3498 3500 3503 3506 3510 3513 3515 3516 3517 3518 3521 3526 3526 3527 3527 3527 3528 3529 3531 3533 3535 3535 3536 3536 3535 3533 3533 3533 3533 3533 3533 3534 3534 3535 3536 3536 3537 3540 3541 3544 3546 3549 3552 3554 3557 3562 3568 3572 3574 3575 3576 3579 3582 3585 3588 3591 3591 3591 3591 3591 3593 3593 3594 3594 3594 3594 3593 3590 3587 3585 3585 3584 3583 3583 3582 3572 3567 3562 3562 3562 3565 3566 3569 3573 3574 3584 3597 3599 3599 3599 3601 3598 3595 3595 3589 3585 3583 3573 3550 3517 3497 3463 3435 3416 3415 3378 3344 3276 3180 2745 0 0 2158 2142 2126 2114 2105 2100 2096 2092 2088 2084 2079 2074 2071 2067 2063 2059 2052 2046 2043 2039 2036 2036 2034 2034 2034 2034 2034 2035 2035 2036 2037 2037 2037 2037 2036 2036 2034 2033 2032 2032 2030 2028 2025 2025 2025 2024 2024 2022 2022 2022 2024 2024 2024 2023 2021 2015 2002 1980 1962 1940 1900 1876 1848 1834 1825 1819 1818 1814 1811 1808 1806 1805 1805 1805 1805 1805 1806 1808 1811 1814 1816 1819 1820 1823 1823 1823 1822 1822 1822 1823 1823 1823 1823 1822 1822 1820 1820 1820 1819 1818 1818 1818 1818 1818 1818 1818 1818 1818 1817 1817 1816 1816 1816 1816 1816 1815 1815 1815 1815 1815 1814 1814 1814 1814 1814 1813 1813 1813 1813 1812 1812 1812 1812 1812 1812 1812 1811 1811 1811 1810 1810 1810 1809 1808 1808 1807 1807 1807 1806 1806 1806 1805 1804 1804 1803 1803 1803 1802 1801 1800 1799 1798 1797 1796 1795 1793 1791 1790 1788 1786 1785 1783 1781 1778 1776 1773 1771 1768 1765 1762 1760 1758 1755 1753 1750 1747 1744 1741 1740 1739 1738 1737 1737 1737 1738 1739 1742 1746 1751 1755 1759 1764 1770 1777 1781 1784 1785 1788 1789 1791 1793 1797 1798 1799 1799 1800 1800 1800 1800 1800 1800 1800 1799 1799 1798 1798 1797 1797 1796 1796 1795 1795 1794 1794 1793 1792 1791 1790 1790 1788 1788 1788 1787 1786 1786 1785 1784 1783 1782 1781 1780 1779 1778 1777 1776 1774 1773 1771 1770 1769 1768 1767 1767 1766 1766 1765 1764 1764 1763 1763 1763 1763 1762 1762 1762 1761 1761 1761 1761 1761 1761 1761 1761 1761 1762 1763 1764 1765 1767 1767 1768 1770 1775 1779 1784 1789 1803 1825 1844 1867 1883 1895 1898 1898 1898 1898 1898 1897 1896 1896 1894 1892 1890 1889 1887 1886 1884 1882 1880 1878 1876 1873 1871 1868 1865 1863 1860 1858 1856 1852 1848 1843 1843 1840 1837 1822 1807 1785 1779 1775 1774 1763 1763 1763 1764 1770 1771 1771 1771 1770 1753 0 0 0 0 0 0 0 0
2283 2302 2331 2337 2382 2405 2432 2448 2466 2467 2469 2473 2478 2499 2519 2545 2551 2582 2602 2626 2645 2664 2678 2680 2680 2689 2696 2699 2704 2706 2708 2709 2717 2735 2759 2777 2784 2786 2789 2800 2807 2842 2867 2883 2896 2913 2918 2922 2924 2927 2932 2945 2957 2962 2964 2970 2982 2996 3007 3015 3019 3023 3030 3040 3044 3057 3071 3085 3099 3108 3109 3109 3110 3112 3119 3127 3134 3142 3146 3152 3161 3169 3171 3174 3175 3177 3183 3189 3194 3199 3203 3205 3210 3214 3222 3222 3224 3231 3239 3251 3265 3273 3278 3286 3298 3303 3308 3313 3322 3324 3327 3333 3337 3341 3346 3354 3364 3368 3372 3376 3382 3388 3393 3398 3404 3415 3426 3434 3434 3435 3435 3440 3443 3449 3453 3459 3459 3460 3462 3467 3473 3479 3484 3487 3487 3487 3487 3487 3489 3492 3495 3497 3497 3497 3498 3499 3502 3504 3507 3510 3513 3516 3516 3518 3521 3523 3528 3528 3528 3528 3528 3528 3532 3533 3535 3537 3537 3538 3539 3539 3539 3537 3536 3536 3536 3536 3536 3538 3540 3540 3541 3542 3544 3545 3548 3549 3553 3558 3561 3563 3567 3570 3576 3579 3579 3582 3584 3587 3589 3592 3592 3592 3594 3594 3595 3596 3597 3597 3597 3597 3596 3595 3592 3587 3585 3585 3585 3585 3585 3585 3585 3574 3567 3566 3565 3565 3566 3573 3573 3577 3584 3598 3599 3599 3599 3601 3598 3596 3596 3596 3591 3583 3573 3550 3519 3504 3463 3446 3441 3416 3376 3344 3286 3063 2605 0 0 2158 2142 2124 2113 2104 2099 2095 2090 2086 2082 2078 2074 2070 2066 2062 2059 2052 2046 2042 2039 2035 2034 2033 2033 2033 2034 2034 2034 2035 2036 2037 2037 2037 2037 2036 2036 2034 2034 2033 2032 2031 2029 2027 2026 2026 2027 2027 2027 2028 2028 2028 2029 2029 2029 2027 2021 2016 2002 1971 1950 1907 1879 1856 1837 1825 1819 1818 1814 1810 1807 1806 1804 1803 1803 1803 1803 1804 1806 1809 1812 1812 1815 1818 1822 1822 1822 1821 1821 1821 1823 1823 1823 1823 1823 1822 1821 1820 1820 1819 1819 1819 1819 1819 1819 1819 1818 1818 1818 1817 1817 1816 1816 1816 1815 1815 1815 1814 1814 1814 1814 1814 1814 1814 1813 1813 1813 1813 1812 1812 1812 1811 1811 1811 1811 1811 1811 1811 1811 1811 1810 1810 1810 1809 1808 1807 1807 1807 1806 1806 1806 1805 1804 1804 1804 1803 1803 1802 1802 1800 1799 1799 1798 1797 1795 1795 1793 1791 1790 1788 1786 1784 1782 1780 1778 1776 1774 1771 1768 1766 1762 1760 1758 1755 1753 1750 1747 1744 1741 1740 1739 1737 1735 1735 1735 1735 1737 1740 1744 1748 1751 1756 1760 1765 1773 1778 1781 1783 1786 1789 1790 1793 1795 1797 1797 1799 1799 1799 1799 1799 1799 1799 1799 1799 1798 1798 1798 1797 1797 1796 1796 1795 1795 1794 1794 1793 1792 1791 1790 1790 1789 1789 1788 1787 1786 1785 1785 1784 1783 1782 1781 1780 1779 1778 1777 1776 1774 1773 1771 1770 1768 1768 1767 1767 1766 1765 1764 1764 1763 1763 1763 1762 1762 1762 1761 1761 1760 1760 1760 1760 1760 1760 1760 1761 1761 1762 1763 1764 1765 1766 1767 1768 1771 1775 1779 1784 1791 1805 1827 1845 1870 1887 1894 1898 1898 1898 1898 1898 1898 1897 1897 1895 1893 1891 1890 1888 1886 1885 1883 1881 1879 1876 1874 1872 1869 1867 1864 1861 1858 1858 1854 1848 1843 1843 1840 1837 1822 1807 1793 1790 1781 1778 1770 1770 1770 1771 1773 1774 1779 1779 1779 1772 0 0 0 0 0 0 0 0
2283 2302 2331 2337 2382 2405 2424 2448 2466 2484 2486 2488 2496 2517 2543 2563 2570 2594 2611 2630 2645 2664 2680 2680 2683 2690 2703 2711 2717 2719 2721 2724 2728 2744 2765 2781 2789 2794 2796 2800 2815 2853 2868 2883 2896 2913 2918 2922 2931 2931 2939 2952 2966 2966 2968 2972 2984 2996 3010 3020 3025 3028 3031 3041 3045 3057 3069 3085 3099 3108 3109 3109 3110 3120 3128 3136 3142 3149 3154 3157 3163 3169 3173 3175 3179 3179 3187 3195 3200 3201 3206 3209 3213 3222 3222 3223 3225 3231 3239 3251 3261 3273 3282 3290 3299 3304 3308 3314 3322 3324 3327 3332 3335 3341 3346 3356 3365 3372 3373 3376 3382 3388 3393 3399 3405 3415 3426 3433 3434 3434 3435 3441 3444 3451 3455 3460 3462 3465 3465 3467 3473 3480 3485 3488 3488 3488 3489 3489 3492 3495 3496 3498 3500 3500 3500 3501 3503 3505 3508 3511 3513 3516 3518 3520 3521 3526 3531 3532 3532 3533 3533 3533 3536 3537 3538 3539 3540 3542 3542 3542 3542 3540 3540 3540 3540 3540 3540 3542 3542 3544 3545 3545 3546 3549 3550 3553 3557 3561 3565 3568 3572 3578 3580 3582 3583 3585 3588 3590 3593 3596 3596 3596 3596 3596 3596 3598 3601 3601 3601 3601 3598 3595 3594 3588 3585 3585 3585 3586 3588 3591 3591 3591 3579 3577 3577 3576 3573 3573 3576 3577 3584 3598 3599 3599 3599 3595 3595 3595 3595 3595 3592 3584 3568 3550 3519 3504 3463 3452 3443 3414 3370 3364 3286 2970 2564 0 2170 2158 2141 2123 2112 2104 2098 2093 2090 2084 2081 2077 2073 2068 2065 2062 2057 2050 2045 2042 2037 2034 2034 2033 2033 2033 2033 2033 2034 2035 2035 2036 2037 2037 2037 2036 2036 2036 2036 2035 2032 2032 2031 2029 2029 2029 2029 2029 2030 2030 2031 2031 2031 2031 2031 2030 2026 2021 2010 1980 1957 1924 1886 1868 1845 1831 1822 1818 1814 1809 1806 1805 1803 1802 1801 1801 1801 1802 1804 1806 1809 1810 1811 1814 1819 1819 1820 1821 1821 1821 1823 1823 1823 1823 1823 1822 1821 1821 1821 1821 1821 1820 1820 1819 1819 1819 1819 1818 1818 1817 1817 1816 1816 1815 1815 1815 1814 1814 1814 1814 1814 1814 1814 1814 1813 1813 1812 1812 1812 1811 1811 1811 1811 1811 1811 1811 1811 1810 1810 1810 1810 1810 1809 1809 1808 1807 1807 1807 1806 1806 1805 1805 1804 1803 1803 1802 1802 1802 1801 1800 1799 1799 1798 1797 1795 1794 1792 1791 1789 1788 1786 1784 1782 1780 1778 1776 1774 1771 1769 1766 1762 1760 1758 1755 1753 1750 1747 1744 1742 1740 1738 1737 1735 1734 1734 1734 1734 1737 1741 1744 1748 1751 1755 1761 1769 1774 1776 1780 1783 1787 1789 1791 1794 1795 1796 1797 1797 1797 1797 1797 1798 1798 1798 1798 1798 1798 1797 1797 1796 1796 1795 1795 1794 1793 1793 1793 1792 1791 1790 1790 1789 1789 1788 1787 1786 1785 1784 1784 1783 1782 1781 1780 1779 1777 1776 1775 1774 1772 1771 1770 1768 1768 1767 1766 1765 1765 1764 1763 1763 1763 1762 1761 1761 1761 1761 1760 1760 1760 1759 1759 1759 1760 1760 1761 1761 1762 1763 1764 1765 1767 1767 1768 1771 1776 1780 1785 1795 1810 1829 1845 1873 1890 1894 1898 1900 1900 1900 1898 1898 1898 1897 1896 1894 1893 1891 1889 1887 1885 1884 1883 1881 1878 1876 1874 1870 1868 1865 1863 1859 1859 1856 1850 1844 1844 1842 1840 1828 1811 1796 1790 1781 1778 1773 1773 1773 1774 1775 1775 1786 1788 1788 1788 0 0 0 0 0 0 0 0
2283 2302 2331 2337 2382 2405 2424 2441 2463 2484 2499 2512 2527 2544 2552 2563 2571 2594 2615 2632 2646 2664 2679 2680 2683 2690 2705 2717 2721 2727 2729 2735 2742 2758 2774 2789 2799 2805 2806 2808 2822 2853 2868 2880 2891 2895 2909 2922 2932 2939 2947 2958 2967 2968 2970 2974 2985 2996 3011 3024 3031 3034 3037 3041 3045 3057 3069 3081 3096 3107 3108 3108 3109 3120 3130 3137 3142 3149 3154 3160 3164 3170 3174 3176 3180 3182 3191 3201 3207 3211 3211 3216 3216 3223 3224 3225 3225 3232 3237 3246 3255 3273 3284 3294 3300 3304 3309 3316 3322 3326 3328 3332 3335 3341 3347 3361 3368 3372 3373 3376 3382 3388 3393 3399 3406 3417 3426 3430 3433 3434 3434 3440 3446 3455 3459 3463 3467 3468 3469 3472 3476 3480 3485 3489 3490 3491 3492 3494 3494 3497 3498 3500 3501 3501 3502 3504 3505 3507 3509 3511 3516 3518 3520 3521 3522 3527 3533 3538 3539 3540 3540 3540 3540 3543 3543 3543 3543 3545 3545 3545 3545 3545 3545 3545 3545 3545 3544 3544 3545 3546 3547 3548 3550 3551 3553 3557 3561 3564 3567 3571 3575 3579 3584 3586 3587 3590 3591 3593 3596 3598 3598 3598 3598 3598 3598 3602 3604 3604 3604 3602 3601 3598 3597 3595 3590 3589 3589 3589 3589 3594 3594 3594 3590 3589 3588 3587 3587 3581 3581 3581 3588 3597 3597 3597 3590 3588 3588 3588 3594 3594 3594 3583 3562 3540 3519 3504 3465 3455 3443 3409 3370 3359 3286 2866 0 0 2147 2144 2135 2123 2109 2099 2096 2093 2090 2084 2079 2075 2071 2068 2065 2059 2054 2049 2045 2041 2036 2034 2033 2033 2033 2033 2033 2033 2034 2035 2036 2036 2037 2037 2037 2037 2037 2037 2037 2036 2035 2033 2032 2031 2031 2031 2031 2031 2032 2034 2034 2035 2035 2035 2033 2032 2030 2024 2013 1993 1967 1934 1893 1874 1855 1838 1830 1822 1814 1808 1806 1805 1803 1802 1800 1799 1799 1799 1801 1803 1806 1808 1810 1811 1813 1817 1819 1819 1820 1821 1822 1823 1823 1823 1822 1822 1821 1821 1821 1821 1821 1821 1820 1820 1819 1819 1819 1818 1818 1817 1817 1816 1815 1815 1815 1814 1814 1813 1813 1813 1813 1813 1813 1813 1813 1812 1812 1812 1811 1811 1811 1810 1810 1810 1810 1810 1810 1810 1810 1810 1810 1810 1809 1808 1808 1807 1807 1806 1806 1805 1805 1805 1804 1803 1802 1802 1802 1801 1800 1800 1799 1798 1798 1796 1795 1794 1792 1791 1789 1787 1785 1784 1782 1780 1778 1776 1774 1771 1769 1766 1764 1761 1758 1756 1753 1750 1747 1744 1742 1740 1738 1736 1735 1733 1732 1732 1732 1734 1738 1740 1743 1746 1749 1755 1763 1771 1774 1778 1783 1786 1787 1789 1792 1793 1795 1795 1796 1796 1796 1797 1797 1797 1797 1797 1797 1797 1797 1797 1796 1796 1795 1795 1794 1793 1793 1792 1792 1791 1790 1790 1789 1789 1788 1787 1786 1785 1784 1784 1783 1782 1781 1780 1779 1777 1776 1775 1774 1772 1771 1769 1768 1768 1766 1766 1765 1764 1763 1763 1763 1762 1761 1761 1761 1761 1760 1760 1760 1760 1759 1759 1759 1760 1760 1761 1761 1762 1763 1764 1765 1767 1767 1769 1771 1776 1783 1789 1795 1811 1830 1848 1874 1890 1894 1898 1901 1901 1901 1900 1899 1898 1898 1896 1895 1893 1891 1889 1887 1885 1885 1884 1881 1880 1877 1875 1872 1869 1867 1864 1861 1860 1859 1853 1848 1846 1845 1845 1832 1814 1800 1791 1781 1778 1775 1775 1775 1775 1777 1778 1792 1796 1796 1796 1795 0 0 0 0 0 0 0
2310 2332 2336 2358 2388 2413 2424 2441 2463 2485 2502 2518 2529 2544 2552 2563 2571 2594 2615 2633 2650 2660 2678 2678 2683 2695 2708 2720 2723 2728 2730 2738 2755 2772 2785 2799 2806 2810 2810 2813 2826 2853 2868 2877 2887 2893 2909 2922 2933 2944 2956 2965 2967 2968 2970 2974 2985 2998 3012 3028 3035 3044 3048 3049 3053 3059 3069 3081 3096 3101 3105 3108 3113 3121 3132 3138 3142 3149 3156 3160 3164 3170 3174 3176 3180 3184 3192 3202 3211 3215 3215 3220 3229 3229 3229 3232 3232 3232 3237 3246 3254 3271 3284 3294 3301 3304 3310 3315 3322 3325 3328 3332 3335 3341 3349 3361 3368 3372 3372 3373 3378 3386 3393 3399 3406 3417 3426 3428 3429 3432 3432 3439 3446 3456 3461 3466 3470 3472 3473 3476 3479 3482 3485 3489 3491 3492 3496 3497 3498 3498 3500 3501 3502 3503 3505 3506 3508 3511 3512 3516 3520 3520 3521 3521 3522 3528 3533 3539 3544 3545 3545 3546 3546 3547 3547 3547 3548 3550 3552 3553 3553 3553 3553 3553 3552 3550 3550 3549 3548 3548 3548 3549 3552 3556 3557 3560 3563 3566 3568 3571 3575 3579 3584 3586 3588 3591 3594 3595 3596 3598 3601 3601 3601 3603 3603 3604 3605 3605 3605 3603 3602 3602 3602 3601 3600 3597 3596 3596 3596 3597 3597 3597 3594 3594 3594 3593 3593 3593 3588 3588 3588 3588 3588 3588 3586 3586 3588 3588 3589 3589 3589 3583 3560 3540 3519 3507 3468 3465 3458 3409 3365 3359 3224 2778 0 0 2133 2123 2122 2112 2102 2098 2096 2093 2090 2084 2079 2074 2069 2067 2063 2058 2053 2049 2044 2040 2036 2033 2033 2032 2032 2032 2033 2033 2034 2034 2036 2036 2037 2038 2038 2038 2038 2038 2038 2038 2036 2035 2034 2033 2033 2032 2032 2032 2035 2037 2039 2040 2040 2040 2036 2035 2033 2028 2023 2009 1979 1962 1916 1885 1866 1844 1834 1823 1814 1808 1806 1804 1803 1801 1799 1797 1797 1797 1798 1799 1801 1803 1806 1807 1808 1810 1814 1816 1817 1821 1822 1822 1822 1822 1822 1821 1821 1821 1821 1822 1822 1822 1821 1820 1819 1819 1818 1818 1817 1817 1817 1815 1815 1815 1814 1814 1813 1813 1812 1812 1812 1812 1812 1812 1812 1811 1811 1811 1811 1810 1810 1810 1810 1809 1809 1809 1809 1809 1809 1809 1809 1809 1809 1808 1808 1807 1807 1806 1806 1805 1805 1804 1803 1802 1802 1802 1801 1801 1800 1799 1798 1798 1796 1796 1794 1793 1791 1791 1789 1787 1785 1784 1782 1780 1778 1776 1775 1772 1770 1768 1765 1762 1758 1756 1753 1750 1747 1745 1742 1740 1738 1736 1735 1733 1732 1732 1732 1733 1734 1737 1739 1740 1745 1749 1756 1765 1772 1775 1779 1783 1785 1786 1789 1792 1793 1794 1795 1796 1796 1796 1796 1797 1797 1797 1797 1797 1796 1796 1796 1796 1795 1794 1794 1793 1793 1792 1791 1791 1790 1789 1789 1788 1787 1786 1785 1785 1784 1784 1783 1782 1781 1779 1779 1777 1776 1775 1774 1772 1771 1769 1768 1768 1766 1766 1764 1764 1763 1763 1762 1762 1761 1761 1761 1760 1760 1760 1759 1759 1759 1759 1759 1760 1760 1761 1761 1762 1763 1765 1766 1767 1767 1769 1771 1776 1783 1791 1797 1812 1834 1850 1876 1894 1897 1902 1903 1903 1903 1903 1900 1899 1898 1896 1895 1893 1892 1890 1887 1886 1885 1884 1882 1880 1878 1876 1873 1871 1868 1866 1863 1862 1862 1858 1852 1847 1847 1846 1835 1814 1802 1791 1781 1777 1777 1777 1776 1777 1777 1780 1793 1798 1798 1798 1795 1777 0 0 0 0 0 0
2330 2334 2356 2374 2404 2430 2441 2444 2463 2485 2504 2518 2529 2544 2552 2559 2571 2590 2615 2638 2650 2660 2675 2678 2684 2700 2712 2721 2725 2730 2731 2739 2758 2777 2790 2799 2806 2812 2812 2816 2831 2851 2866 2877 2884 2893 2909 2922 2934 2946 2957 2966 2968 2968 2971 2984 3004 3023 3026 3036 3042 3050 3053 3058 3059 3065 3071 3081 3095 3101 3105 3108 3113 3123 3133 3138 3143 3148 3156 3160 3164 3169 3173 3176 3180 3184 3192 3203 3214 3216 3220 3227 3233 3238 3241 3241 3241 3242 3242 3246 3254 3271 3284 3294 3301 3305 3310 3315 3322 3325 3328 3332 3335 3342 3349 3361 3365 3366 3368 3368 3371 3384 3392 3399 3406 3417 3424 3427 3428 3429 3429 3439 3444 3457 3465 3470 3474 3476 3477 3479 3480 3482 3485 3489 3492 3494 3497 3498 3500 3500 3500 3502 3503 3504 3506 3509 3512 3514 3517 3520 3524 3524 3526 3527 3528 3528 3533 3542 3546 3549 3549 3549 3549 3549 3550 3551 3553 3555 3557 3558 3559 3559 3559 3559 3557 3556 3554 3553 3553 3552 3552 3552 3554 3560 3561 3563 3566 3566 3569 3572 3576 3580 3585 3588 3591 3594 3597 3598 3598 3599 3602 3604 3604 3605 3606 3606 3606 3606 3606 3606 3606 3606 3606 3606 3606 3605 3605 3604 3604 3602 3602 3601 3596 3594 3594 3594 3594 3593 3591 3591 3588 3588 3588 3585 3584 3584 3584 3584 3586 3586 3586 3583 3560 3540 3519 3507 3481 3478 3465 3398 3365 3359 3104 2736 0 0 2126 2114 2107 2105 2099 2098 2096 2096 2090 2084 2079 2074 2069 2065 2061 2058 2053 2049 2044 2039 2035 2033 2033 2032 2032 2032 2032 2033 2034 2034 2036 2036 2037 2038 2038 2038 2038 2039 2039 2039 2038 2036 2035 2035 2034 2034 2035 2035 2037 2040 2043 2046 2046 2046 2042 2042 2040 2039 2031 2020 1997 1974 1933 1898 1880 1850 1834 1823 1817 1808 1806 1804 1803 1801 1798 1796 1795 1795 1795 1795 1795 1798 1800 1804 1806 1807 1810 1813 1814 1818 1820 1820 1821 1821 1821 1821 1821 1821 1821 1822 1822 1822 1821 1820 1820 1819 1818 1818 1817 1817 1816 1815 1815 1814 1814 1814 1813 1812 1812 1812 1812 1811 1811 1811 1811 1810 1810 1810 1810 1810 1809 1809 1809 1809 1809 1809 1809 1809 1809 1809 1809 1809 1808 1808 1807 1807 1806 1806 1805 1805 1804 1803 1802 1802 1801 1801 1801 1800 1800 1798 1798 1797 1796 1795 1793 1793 1791 1789 1788 1786 1785 1784 1782 1780 1778 1776 1775 1773 1771 1768 1765 1763 1760 1757 1754 1751 1748 1746 1743 1740 1738 1735 1734 1733 1731 1730 1730 1730 1731 1734 1736 1740 1742 1745 1751 1759 1767 1770 1774 1778 1781 1783 1787 1790 1790 1791 1793 1794 1794 1795 1796 1796 1797 1797 1797 1796 1796 1796 1796 1795 1795 1794 1794 1793 1793 1792 1791 1790 1790 1789 1788 1787 1787 1786 1785 1785 1784 1784 1783 1782 1781 1779 1778 1777 1776 1775 1774 1772 1770 1769 1768 1768 1766 1765 1764 1764 1763 1763 1761 1761 1760 1760 1760 1759 1759 1759 1759 1759 1759 1759 1759 1760 1761 1761 1761 1762 1764 1765 1766 1767 1768 1769 1771 1775 1784 1793 1801 1821 1836 1854 1883 1894 1899 1902 1903 1903 1903 1903 1901 1899 1899 1897 1895 1894 1892 1890 1889 1887 1886 1885 1882 1881 1878 1876 1875 1872 1869 1867 1865 1864 1864 1861 1853 1847 1847 1846 1835 1814 1802 1790 1781 1777 1777 1777 1778 1779 1780 1785 1793 1798 1798 1798 1795 1777 0 0 0 0 0 0
2330 2339 2363 2384 2424 2441 2442 2453 2458 2485 2504 2518 2529 2539 2547 2556 2570 2588 2613 2639 2651 2660 2675 2678 2693 2702 2712 2721 2725 2730 2733 2741 2758 2777 2790 2799 2806 2812 2812 2818 2836 2851 2866 2877 2884 2893 2907 2920 2934 2946 2957 2966 2968 2970 2973 2988 3009 3026 3037 3043 3046 3050 3054 3061 3064 3068 3075 3085 3095 3101 3105 3108 3115 3123 3134 3139 3143 3148 3155 3162 3164 3168 3173 3177 3180 3186 3192 3205 3216 3221 3227 3230 3237 3239 3243 3249 3254 3254 3255 3255 3255 3271 3284 3294 3301 3306 3310 3315 3321 3325 3328 3334 3338 3344 3349 3354 3358 3359 3359 3365 3371 3381 3391 3399 3406 3413 3424 3424 3426 3426 3429 3436 3449 3458 3465 3470 3474 3476 3479 3481 3481 3483 3487 3490 3493 3495 3497 3499 3501 3501 3503 3504 3506 3507 3508 3511 3513 3516 3519 3522 3524 3527 3530 3531 3531 3533 3536 3551 3552 3555 3555 3555 3555 3555 3555 3557 3559 3559 3560 3561 3563 3563 3563 3563 3561 3559 3558 3557 3557 3557 3557 3557 3558 3563 3566 3567 3569 3569 3571 3576 3580 3583 3585 3589 3593 3595 3600 3600 3601 3603 3603 3607 3609 3609 3610 3610 3610 3611 3611 3611 3611 3611 3611 3610 3610 3610 3610 3610 3610 3608 3604 3601 3598 3596 3596 3595 3595 3593 3593 3590 3588 3588 3588 3585 3584 3583 3583 3583 3585 3585 3585 3577 3560 3543 3519 3512 3490 3481 3467 3398 3377 3359 3068 2641 0 0 2123 2114 2105 2099 2098 2098 2098 2096 2090 2084 2079 2073 2069 2063 2060 2057 2052 2047 2042 2037 2035 2033 2032 2031 2031 2031 2031 2032 2033 2034 2036 2037 2039 2039 2039 2039 2039 2039 2039 2039 2039 2039 2037 2037 2036 2036 2036 2037 2040 2043 2046 2046 2047 2047 2047 2047 2047 2047 2038 2025 2013 1986 1948 1913 1885 1856 1834 1824 1820 1812 1807 1805 1803 1800 1795 1793 1791 1791 1791 1791 1793 1793 1796 1800 1803 1806 1808 1813 1813 1814 1817 1819 1819 1819 1820 1820 1821 1821 1821 1822 1822 1822 1821 1820 1820 1819 1818 1818 1817 1816 1816 1815 1814 1814 1813 1813 1812 1812 1811 1811 1811 1811 1810 1810 1810 1810 1810 1810 1809 1809 1809 1808 1808 1808 1808 1808 1808 1808 1809 1809 1809 1809 1807 1807 1806 1806 1806 1806 1805 1804 1803 1802 1802 1801 1801 1801 1800 1800 1799 1798 1797 1797 1795 1795 1793 1792 1791 1789 1787 1786 1785 1783 1782 1780 1778 1776 1775 1773 1771 1768 1766 1763 1761 1758 1754 1751 1749 1747 1743 1740 1738 1735 1734 1732 1731 1730 1728 1728 1728 1730 1735 1736 1738 1740 1748 1755 1759 1765 1771 1775 1779 1781 1784 1786 1789 1789 1791 1793 1794 1794 1795 1795 1796 1796 1796 1796 1796 1795 1795 1795 1794 1794 1793 1793 1793 1792 1791 1790 1789 1789 1788 1787 1786 1786 1785 1785 1784 1783 1783 1781 1780 1779 1778 1777 1775 1775 1773 1772 1770 1769 1768 1767 1766 1765 1764 1763 1763 1761 1761 1761 1760 1759 1759 1759 1759 1759 1759 1759 1759 1759 1759 1760 1761 1761 1762 1763 1764 1765 1767 1769 1769 1770 1771 1775 1785 1796 1812 1827 1840 1873 1896 1896 1902 1903 1904 1904 1904 1903 1901 1900 1899 1898 1896 1894 1893 1892 1890 1888 1886 1885 1883 1881 1878 1876 1875 1873 1871 1869 1866 1865 1864 1861 1853 1847 1847 1845 1835 1815 1803 1792 1782 1781 1781 1781 1784 1786 1787 1787 1792 1792 1792 1786 1782 1777 0 0 0 0 0 0
2332 2346 2368 2399 2428 2441 2448 2453 2460 2489 2504 2518 2528 2539 2547 2556 2570 2588 2613 2639 2654 2663 2675 2687 2699 2706 2713 2723 2728 2734 2739 2750 2763 2778 2790 2799 2806 2812 2812 2820 2842 2851 2866 2877 2884 2897 2907 2920 2934 2946 2957 2966 2966 2968 2977 2993 3012 3028 3037 3043 3046 3052 3056 3061 3064 3068 3077 3085 3092 3101 3108 3116 3124 3130 3136 3140 3144 3148 3155 3162 3164 3168 3173 3177 3180 3186 3193 3208 3219 3224 3230 3235 3240 3242 3248 3251 3257 3263 3264 3266 3266 3272 3285 3294 3301 3306 3310 3315 3321 3325 3328 3334 3338 3344 3348 3350 3350 3354 3357 3363 3371 3380 3389 3398 3406 3413 3418 3420 3422 3425 3429 3436 3447 3458 3465 3470 3474 3476 3479 3481 3483 3486 3489 3493 3494 3495 3497 3500 3502 3502 3505 3505 3508 3511 3513 3515 3515 3517 3519 3523 3524 3528 3532 3533 3535 3538 3546 3552 3554 3557 3561 3561 3562 3562 3562 3563 3563 3563 3564 3564 3565 3565 3565 3564 3564 3561 3561 3561 3561 3562 3562 3563 3565 3567 3569 3571 3571 3573 3578 3582 3584 3587 3590 3593 3594 3598 3603 3607 3608 3609 3609 3611 3613 3613 3614 3614 3614 3614 3615 3615 3615 3615 3612 3611 3611 3611 3614 3614 3614 3612 3607 3605 3602 3601 3601 3600 3599 3596 3594 3590 3589 3588 3587 3587 3586 3585 3585 3583 3583 3580 3580 3573 3562 3557 3533 3526 3525 3515 3467 3422 3398 3344 2903 2540 0 0 2123 2113 2104 2098 2098 2097 2097 2096 2087 2083 2079 2073 2068 2063 2059 2055 2050 2044 2040 2037 2033 2030 2030 2030 2030 2030 2030 2031 2033 2035 2036 2038 2039 2039 2040 2040 2040 2040 2040 2040 2040 2040 2039 2039 2037 2037 2037 2039 2042 2046 2049 2049 2050 2050 2050 2053 2053 2053 2042 2032 2021 1992 1957 1923 1897 1862 1834 1824 1820 1816 1809 1805 1803 1799 1795 1793 1790 1788 1788 1788 1788 1789 1791 1795 1801 1803 1807 1810 1811 1812 1812 1816 1818 1818 1819 1819 1820 1820 1820 1821 1821 1821 1820 1820 1819 1818 1818 1817 1816 1816 1815 1815 1814 1813 1813 1813 1811 1811 1811 1810 1810 1810 1810 1810 1809 1809 1809 1808 1808 1808 1808 1808 1808 1808 1808 1807 1807 1807 1808 1808 1808 1808 1807 1806 1806 1805 1805 1804 1804 1804 1802 1802 1801 1801 1800 1800 1800 1799 1799 1798 1797 1796 1795 1795 1793 1792 1790 1789 1787 1786 1784 1783 1781 1780 1778 1776 1775 1773 1771 1768 1766 1764 1761 1759 1755 1752 1749 1747 1744 1740 1737 1734 1732 1731 1729 1729 1727 1727 1727 1728 1730 1731 1733 1735 1742 1749 1754 1759 1770 1775 1778 1780 1782 1785 1787 1789 1791 1791 1793 1793 1794 1794 1795 1795 1795 1795 1795 1795 1795 1795 1794 1794 1793 1793 1792 1791 1791 1790 1789 1788 1787 1787 1786 1786 1785 1785 1784 1783 1782 1781 1779 1778 1777 1776 1775 1774 1772 1771 1770 1769 1767 1767 1766 1765 1764 1763 1762 1761 1761 1761 1759 1759 1759 1758 1758 1758 1758 1759 1759 1759 1759 1760 1761 1761 1762 1763 1764 1766 1768 1769 1770 1770 1771 1775 1788 1803 1821 1833 1847 1882 1898 1901 1905 1906 1906 1906 1904 1903 1901 1900 1899 1898 1897 1895 1894 1893 1891 1889 1887 1885 1883 1881 1878 1876 1875 1873 1872 1869 1866 1865 1864 1861 1854 1847 1846 1843 1831 1815 1803 1792 1788 1785 1785 1785 1785 1787 1787 1788 1788 1788 1788 1786 1782 1766 1745 0 0 0 0 0
2335 2346 2377 2411 2442 2455 2457 2461 2468 2490 2504 2518 2528 2539 2547 2556 2570 2588 2613 2639 2654 2668 2679 2690 2703 2709 2716 2727 2731 2743 2751 2760 2767 2777 2790 2799 2806 2812 2812 2821 2844 2863 2871 2880 2889 2897 2907 2915 2927 2940 2950 2960 2965 2967 2983 3002 3018 3029 3037 3043 3047 3052 3056 3061 3064 3068 3078 3085 3092 3101 3108 3116 3127 3137 3141 3144 3147 3150 3156 3162 3164 3168 3173 3177 3180 3188 3196 3209 3220 3231 3238 3242 3245 3246 3250 3256 3262 3269 3273 3275 3278 3282 3292 3294 3303 3307 3312 3315 3322 3323 3328 3334 3338 3344 3345 3345 3349 3351 3356 3361 3371 3380 3389 3398 3406 3413 3418 3419 3420 3424 3429 3434 3443 3458 3465 3468 3470 3473 3479 3482 3484 3488 3491 3494 3496 3496 3497 3500 3502 3504 3507 3510 3512 3515 3519 3519 3519 3519 3519 3524 3526 3529 3532 3536 3541 3546 3548 3555 3558 3561 3563 3564 3565 3567 3568 3568 3567 3567 3567 3567 3566 3566 3566 3565 3564 3564 3564 3565 3565 3566 3566 3567 3572 3572 3573 3574 3575 3580 3582 3585 3587 3591 3595 3598 3601 3607 3610 3611 3613 3614 3614 3615 3616 3616 3616 3615 3615 3615 3615 3615 3615 3615 3614 3613 3613 3613 3617 3617 3617 3616 3614 3609 3605 3604 3604 3603 3599 3597 3595 3591 3587 3586 3586 3587 3587 3586 3586 3583 3580 3580 3579 3571 3566 3562 3562 3559 3545 3540 3465 3422 3398 3283 2821 0 0 2134 2121 2113 2104 2098 2098 2097 2097 2089 2084 2081 2077 2073 2068 2063 2057 2053 2046 2042 2039 2036 2032 2030 2029 2029 2029 2029 2029 2031 2032 2035 2037 2038 2039 2040 2040 2041 2041 2041 2041 2041 2041 2041 2041 2040 2039 2039 2039 2041 2044 2046 2050 2052 2054 2056 2056 2056 2056 2053 2043 2037 2025 1993 1961 1930 1907 1868 1834 1824 1820 1816 1811 1805 1803 1799 1795 1793 1790 1788 1787 1786 1786 1786 1787 1791 1796 1799 1802 1804 1809 1809 1810 1812 1815 1816 1817 1817 1818 1819 1819 1819 1820 1820 1820 1819 1818 1818 1817 1817 1816 1816 1815 1815 1813 1813 1812 1812 1811 1811 1810 1810 1810 1809 1809 1809 1809 1808 1808 1808 1808 1808 1808 1807 1807 1807 1807 1807 1807 1807 1807 1807 1807 1807 1807 1806 1806 1805 1805 1804 1804 1803 1802 1801 1801 1801 1800 1799 1799 1798 1798 1797 1796 1795 1795 1794 1793 1792 1790 1788 1787 1786 1784 1782 1781 1779 1778 1776 1775 1773 1771 1768 1766 1764 1762 1759 1756 1752 1750 1747 1744 1740 1737 1734 1732 1730 1729 1727 1727 1726 1726 1726 1727 1727 1727 1731 1737 1744 1747 1754 1765 1773 1775 1778 1781 1784 1786 1787 1789 1790 1791 1792 1793 1794 1794 1795 1795 1795 1795 1795 1795 1794 1793 1793 1793 1792 1791 1791 1790 1789 1788 1788 1787 1787 1785 1785 1785 1784 1784 1783 1781 1780 1779 1777 1776 1775 1774 1773 1772 1771 1770 1769 1767 1766 1766 1765 1764 1763 1762 1761 1760 1759 1759 1758 1758 1758 1758 1758 1758 1758 1759 1759 1759 1760 1760 1761 1762 1763 1764 1766 1768 1769 1770 1771 1773 1777 1790 1807 1822 1835 1852 1884 1899 1905 1907 1907 1907 1906 1904 1903 1901 1900 1899 1898 1897 1895 1894 1893 1891 1889 1887 1885 1883 1881 1878 1877 1875 1873 1872 1869 1866 1864 1862 1860 1854 1847 1844 1841 1830 1815 1803 1794 1794 1792 1790 1788 1788 1787 1787 1788 1788 1788 1788 1786 1782 1766 1745 0 0 0 0 0
2341 2354 2382 2417 2451 2455 2466 2466 2475 2494 2509 2518 2528 2539 2550 2557 2577 2593 2614 2638 2654 2668 2679 2690 2704 2711 2722 2730 2741 2754 2765 2770 2770 2776 2785 2796 2809 2812 2812 2824 2857 2866 2876 2881 2890 2898 2907 2915 2927 2940 2950 2960 2965 2970 2987 3003 3018 3029 3036 3041 3046 3050 3054 3059 3062 3069 3078 3087 3092 3101 3108 3116 3127 3137 3141 3147 3148 3153 3158 3163 3167 3169 3173 3179 3185 3189 3199 3209 3227 3234 3248 3254 3255 3255 3257 3262 3268 3273 3279 3285 3292 3300 3304 3304 3307 3313 3316 3318 3322 3323 3328 3332 3334 3334 3337 3344 3348 3349 3354 3360 3371 3380 3388 3397 3408 3417 3418 3418 3419 3420 3429 3434 3442 3456 3462 3464 3466 3472 3479 3483 3485 3488 3491 3494 3496 3496 3500 3502 3504 3507 3510 3511 3513 3516 3519 3519 3519 3519 3519 3526 3528 3531 3533 3538 3544 3549 3554 3560 3561 3564 3566 3566 3567 3570 3571 3571 3571 3569 3569 3568 3568 3568 3568 3568 3569 3570 3570 3570 3571 3571 3571 3574 3577 3578 3578 3579 3581 3585 3587 3588 3590 3594 3599 3601 3606 3609 3612 3612 3614 3616 3616 3616 3617 3617 3616 3616 3616 3615 3615 3615 3615 3615 3615 3615 3615 3618 3620 3620 3620 3619 3616 3614 3613 3609 3607 3606 3603 3598 3596 3591 3583 3583 3583 3585 3585 3585 3583 3582 3580 3579 3578 3571 3566 3565 3565 3559 3546 3545 3455 3422 3406 3277 2803 0 0 2117 2113 2110 2104 2098 2098 2097 2091 2088 2084 2080 2077 2072 2068 2061 2057 2053 2046 2041 2037 2035 2031 2029 2029 2029 2029 2029 2029 2031 2032 2035 2037 2039 2041 2042 2042 2042 2042 2042 2042 2042 2041 2041 2041 2041 2041 2041 2041 2044 2046 2049 2051 2055 2057 2058 2058 2058 2058 2053 2044 2039 2030 1998 1964 1939 1914 1879 1846 1827 1822 1817 1811 1806 1803 1800 1796 1793 1790 1788 1787 1786 1785 1785 1785 1787 1790 1793 1796 1798 1800 1805 1808 1809 1811 1813 1815 1816 1817 1817 1818 1818 1819 1818 1818 1818 1818 1818 1817 1816 1816 1815 1814 1814 1813 1812 1812 1812 1811 1811 1810 1809 1809 1809 1809 1809 1808 1808 1807 1807 1807 1807 1807 1807 1807 1807 1807 1807 1807 1806 1807 1807 1807 1806 1806 1806 1805 1805 1804 1804 1803 1802 1801 1801 1801 1800 1799 1799 1798 1797 1797 1796 1796 1795 1795 1793 1792 1790 1789 1788 1787 1785 1784 1782 1781 1779 1778 1776 1775 1773 1771 1769 1766 1764 1762 1759 1756 1753 1750 1747 1744 1740 1737 1734 1732 1730 1728 1726 1725 1725 1725 1725 1725 1725 1726 1729 1734 1738 1743 1749 1757 1765 1771 1776 1780 1784 1786 1787 1788 1789 1790 1791 1792 1793 1793 1794 1795 1795 1795 1794 1794 1794 1793 1793 1792 1792 1791 1790 1789 1788 1788 1787 1786 1786 1785 1784 1784 1784 1783 1782 1781 1780 1778 1776 1775 1774 1774 1772 1771 1770 1769 1768 1766 1766 1765 1764 1763 1762 1761 1760 1759 1759 1758 1758 1758 1757 1757 1757 1757 1758 1758 1758 1759 1760 1760 1761 1762 1763 1764 1766 1768 1769 1771 1771 1775 1779 1790 1808 1822 1838 1860 1886 1900 1905 1907 1907 1907 1906 1905 1903 1901 1901 1899 1898 1896 1895 1894 1893 1891 1889 1887 1885 1883 1881 1878 1877 1875 1873 1872 1869 1866 1864 1862 1860 1854 1847 1843 1838 1830 1820 1804 1794 1794 1793 1792 1791 1789 1788 1788 1788 1788 1788 1788 1788 1782 1766 1745 0 0 0 0 0
2342 2363 2390 2419 2451 2473 2480 2483 2486 2502 2517 2528 2537 2544 2552 2572 2585 2599 2616 2637 2654 2668 2679 2690 2704 2711 2722 2730 2741 2759 2767 2770 2770 2775 2779 2796 2810 2812 2816 2834 2859 2869 2876 2882 2891 2899 2907 2915 2927 2940 2950 2960 2965 2973 2989 3003 3018 3029 3032 3036 3043 3049 3052 3056 3062 3069 3081 3090 3095 3101 3111 3117 3129 3138 3141 3147 3152 3156 3159 3163 3168 3171 3174 3180 3186 3190 3201 3215 3231 3245 3256 3262 3265 3267 3268 3269 3271 3277 3285 3294 3301 3307 3311 3314 3317 3320 3320 3322 3323 3323 3328 3332 3334 3334 3336 3337 3344 3348 3352 3360 3369 3380 3388 3397 3408 3417 3417 3417 3418 3418 3427 3433 3442 3454 3459 3463 3466 3472 3479 3483 3485 3488 3491 3494 3496 3497 3502 3504 3507 3509 3510 3512 3514 3517 3520 3520 3520 3520 3520 3526 3529 3533 3536 3539 3545 3552 3559 3560 3563 3566 3569 3570 3570 3572 3573 3574 3574 3574 3572 3571 3571 3571 3571 3572 3574 3576 3576 3576 3575 3575 3575 3577 3580 3581 3582 3582 3585 3588 3591 3591 3594 3598 3602 3606 3609 3614 3615 3615 3617 3618 3618 3618 3617 3617 3616 3616 3616 3615 3615 3615 3615 3616 3616 3617 3617 3620 3621 3621 3621 3619 3616 3614 3613 3610 3609 3608 3605 3604 3597 3592 3582 3581 3581 3581 3581 3581 3581 3580 3579 3578 3578 3571 3566 3566 3566 3562 3546 3545 3444 3412 3406 3120 2693 0 0 2117 2113 2108 2103 2098 2097 2094 2089 2087 2084 2080 2076 2071 2067 2061 2057 2052 2046 2041 2037 2035 2031 2029 2029 2029 2029 2029 2029 2031 2032 2035 2038 2040 2041 2043 2043 2043 2043 2043 2043 2042 2042 2042 2042 2042 2042 2042 2044 2045 2047 2050 2052 2056 2057 2059 2059 2059 2059 2053 2046 2045 2037 1998 1966 1946 1928 1900 1859 1837 1824 1818 1812 1809 1805 1801 1797 1793 1790 1787 1786 1785 1784 1784 1784 1784 1784 1785 1789 1793 1793 1795 1801 1806 1806 1808 1810 1814 1815 1816 1817 1817 1817 1817 1817 1817 1817 1817 1816 1816 1815 1814 1814 1813 1813 1812 1811 1811 1811 1811 1810 1809 1809 1808 1808 1808 1808 1808 1807 1807 1807 1806 1806 1806 1806 1806 1806 1806 1806 1806 1806 1806 1806 1806 1805 1805 1805 1804 1804 1803 1803 1802 1801 1801 1800 1800 1799 1798 1798 1797 1796 1795 1795 1795 1794 1792 1791 1789 1788 1787 1786 1785 1783 1782 1780 1779 1778 1776 1775 1773 1771 1769 1767 1764 1762 1759 1756 1753 1750 1747 1744 1740 1737 1735 1732 1730 1727 1726 1724 1724 1724 1724 1723 1724 1724 1726 1730 1734 1740 1743 1750 1759 1766 1775 1779 1783 1785 1786 1787 1788 1790 1791 1792 1792 1793 1793 1793 1793 1793 1793 1793 1793 1792 1792 1791 1791 1790 1790 1789 1788 1787 1787 1786 1785 1785 1784 1784 1784 1783 1782 1781 1779 1777 1776 1774 1773 1772 1771 1770 1769 1768 1767 1766 1765 1764 1763 1762 1762 1760 1760 1759 1758 1758 1757 1757 1757 1757 1757 1757 1757 1757 1758 1759 1760 1760 1761 1762 1763 1764 1766 1768 1769 1771 1774 1775 1779 1790 1810 1826 1839 1872 1887 1902 1906 1907 1907 1907 1906 1905 1903 1901 1901 1899 1898 1897 1895 1893 1893 1891 1889 1887 1884 1882 1880 1878 1876 1875 1873 1870 1868 1866 1864 1862 1860 1854 1848 1842 1837 1830 1822 1807 1798 1796 1794 1793 1792 1790 1788 1788 1788 1789 1790 1790 1790 1785 1774 1752 1737 0 0 0 0
2358 2374 2396 2421 2451 2474 2484 2488 2490 2508 2521 2534 2539 2546 2563 2578 2588 2601 2618 2631 2644 2653 2670 2690 2705 2711 2722 2730 2741 2759 2767 2770 2771 2772 2779 2795 2818 2822 2824 2840 2866 2874 2878 2886 2892 2899 2908 2919 2934 2949 2961 2965 2968 2973 2991 3005 3013 3023 3025 3035 3041 3049 3052 3056 3062 3069 3082 3092 3101 3103 3111 3117 3129 3138 3143 3148 3154 3158 3162 3164 3168 3171 3177 3181 3187 3192 3201 3220 3237 3249 3258 3266 3270 3271 3271 3275 3276 3282 3288 3295 3303 3311 3312 3317 3323 3325 3326 3327 3327 3328 3331 3332 3334 3334 3336 3337 3344 3348 3352 3360 3369 3379 3385 3396 3408 3416 3416 3417 3418 3418 3424 3431 3438 3446 3456 3460 3466 3471 3479 3487 3488 3489 3491 3492 3494 3498 3502 3505 3508 3510 3510 3512 3514 3520 3521 3524 3524 3526 3528 3535 3537 3538 3540 3542 3547 3553 3559 3565 3565 3567 3570 3573 3574 3575 3575 3575 3576 3576 3576 3575 3575 3575 3577 3577 3579 3580 3580 3580 3580 3580 3580 3581 3582 3583 3584 3585 3591 3594 3597 3598 3599 3603 3608 3612 3615 3617 3618 3619 3619 3620 3619 3619 3617 3617 3617 3617 3616 3615 3615 3615 3615 3615 3616 3617 3619 3621 3621 3621 3621 3619 3616 3614 3613 3610 3610 3609 3608 3608 3601 3595 3582 3581 3576 3576 3576 3578 3578 3578 3578 3578 3578 3569 3562 3562 3562 3561 3559 3522 3429 3406 3404 3025 2577 0 0 2117 2113 2108 2103 2097 2096 2090 2086 2083 2082 2079 2075 2071 2066 2061 2057 2052 2046 2041 2037 2034 2032 2029 2028 2028 2028 2029 2029 2031 2032 2035 2038 2040 2043 2043 2044 2044 2044 2044 2044 2043 2043 2043 2043 2043 2043 2043 2045 2046 2047 2050 2052 2056 2058 2060 2060 2060 2060 2053 2049 2046 2037 1998 1969 1952 1933 1907 1869 1846 1832 1821 1815 1812 1807 1801 1797 1793 1790 1787 1786 1785 1783 1783 1783 1782 1782 1783 1784 1788 1789 1789 1792 1800 1803 1804 1807 1810 1812 1814 1814 1815 1815 1815 1816 1816 1816 1816 1816 1815 1814 1814 1813 1813 1812 1812 1811 1811 1811 1810 1809 1809 1808 1808 1807 1807 1807 1807 1807 1807 1806 1806 1806 1806 1806 1805 1805 1805 1806 1806 1806 1806 1806 1805 1805 1805 1804 1804 1804 1803 1802 1801 1801 1799 1799 1799 1798 1797 1796 1796 1795 1794 1794 1793 1793 1791 1790 1788 1788 1787 1786 1785 1783 1782 1780 1779 1777 1776 1774 1773 1771 1769 1767 1764 1762 1759 1756 1753 1750 1747 1744 1741 1737 1735 1732 1730 1727 1726 1723 1722 1722 1722 1722 1722 1722 1723 1727 1732 1735 1738 1744 1751 1761 1773 1777 1780 1783 1784 1785 1787 1789 1790 1791 1791 1792 1792 1792 1792 1792 1792 1792 1792 1792 1791 1791 1790 1789 1789 1788 1788 1787 1786 1786 1785 1784 1784 1784 1783 1782 1781 1779 1778 1776 1775 1774 1773 1771 1770 1768 1767 1767 1766 1765 1764 1763 1763 1762 1762 1760 1759 1758 1757 1757 1757 1757 1757 1757 1757 1757 1757 1757 1758 1759 1759 1760 1762 1762 1763 1764 1766 1768 1770 1772 1774 1775 1781 1792 1810 1826 1840 1875 1901 1903 1907 1907 1907 1907 1906 1905 1903 1902 1902 1899 1898 1897 1895 1893 1891 1890 1889 1887 1884 1881 1879 1878 1876 1875 1872 1870 1868 1866 1864 1863 1859 1854 1849 1843 1837 1830 1824 1823 1805 1796 1795 1794 1793 1791 1791 1791 1792 1794 1795 1795 1794 1789 1775 1754 1741 0 0 0 0
2368 2383 2398 2427 2453 2477 2489 2490 2496 2511 2524 2536 2547 2553 2567 2580 2593 2603 2618 2631 2641 2653 2670 2690 2705 2709 2716 2722 2740 2759 2767 2770 2770 2772 2779 2796 2821 2831 2836 2852 2869 2875 2879 2889 2899 2907 2919 2930 2946 2956 2962 2968 2976 2978 2991 3005 3013 3023 3025 3035 3041 3049 3052 3056 3062 3071 3082 3092 3106 3109 3111 3117 3128 3138 3143 3150 3155 3161 3163 3165 3169 3171 3177 3183 3188 3195 3206 3224 3240 3249 3259 3266 3271 3271 3273 3277 3284 3288 3294 3299 3306 3312 3317 3323 3328 3336 3338 3338 3338 3339 3339 3342 3344 3344 3346 3346 3346 3348 3353 3360 3367 3378 3385 3395 3405 3412 3414 3414 3415 3418 3424 3431 3435 3443 3451 3458 3462 3469 3479 3487 3489 3489 3490 3492 3494 3498 3502 3505 3508 3510 3512 3514 3517 3520 3522 3526 3528 3528 3529 3535 3540 3544 3546 3548 3550 3553 3560 3565 3568 3569 3571 3573 3575 3576 3576 3577 3580 3580 3580 3579 3579 3579 3580 3582 3583 3584 3584 3584 3582 3582 3582 3585 3585 3585 3586 3587 3594 3599 3603 3605 3606 3609 3614 3616 3617 3618 3620 3620 3621 3621 3621 3621 3621 3619 3617 3615 3615 3614 3614 3614 3615 3615 3616 3618 3619 3621 3621 3621 3621 3619 3616 3614 3611 3610 3610 3610 3612 3612 3612 3602 3594 3586 3576 3570 3568 3566 3566 3568 3573 3573 3573 3568 3559 3559 3559 3558 3538 3496 3416 3406 3399 2962 0 0 2141 2121 2113 2107 2101 2097 2092 2085 2082 2080 2080 2077 2073 2069 2066 2061 2057 2052 2047 2041 2037 2033 2031 2030 2028 2028 2028 2029 2030 2031 2033 2035 2038 2040 2043 2043 2044 2045 2045 2045 2045 2045 2044 2044 2044 2044 2044 2044 2045 2046 2048 2051 2053 2056 2058 2060 2060 2060 2060 2057 2052 2046 2037 1998 1971 1955 1937 1912 1879 1858 1839 1826 1819 1813 1807 1802 1797 1791 1790 1787 1786 1783 1782 1781 1780 1780 1780 1780 1780 1782 1785 1785 1787 1791 1799 1803 1806 1809 1810 1811 1813 1813 1813 1813 1814 1814 1815 1815 1815 1814 1813 1813 1812 1812 1812 1811 1811 1811 1810 1810 1809 1808 1808 1808 1807 1807 1807 1807 1807 1806 1806 1806 1805 1805 1805 1805 1804 1804 1804 1804 1804 1804 1804 1804 1804 1804 1804 1803 1803 1802 1802 1801 1800 1799 1799 1798 1798 1797 1795 1795 1795 1794 1794 1793 1792 1791 1789 1788 1787 1786 1786 1785 1783 1782 1780 1778 1777 1776 1774 1773 1771 1768 1767 1764 1762 1759 1756 1754 1750 1747 1744 1741 1737 1735 1732 1730 1727 1725 1723 1721 1721 1721 1721 1721 1721 1721 1725 1730 1735 1737 1739 1746 1755 1767 1771 1777 1780 1783 1783 1786 1787 1789 1789 1790 1790 1790 1791 1791 1791 1791 1791 1790 1790 1790 1790 1789 1789 1788 1787 1787 1786 1785 1785 1784 1783 1783 1783 1783 1782 1780 1779 1778 1776 1775 1773 1771 1770 1769 1768 1767 1766 1765 1764 1763 1763 1762 1761 1761 1760 1759 1758 1757 1756 1756 1756 1756 1756 1756 1756 1756 1757 1758 1758 1759 1760 1762 1762 1763 1764 1766 1768 1770 1774 1777 1779 1786 1803 1814 1829 1842 1882 1905 1906 1906 1906 1906 1906 1906 1905 1904 1903 1902 1900 1898 1897 1895 1893 1891 1889 1888 1886 1884 1881 1879 1878 1876 1875 1872 1870 1868 1867 1865 1863 1859 1854 1849 1844 1837 1830 1825 1825 1809 1797 1796 1796 1795 1795 1796 1796 1798 1799 1799 1799 1799 1799 1780 1761 1746 0 0 0 0
