296 296 302 314 314 314 0 0 0 0 0 0 0 0 0 289 295 304 304 304 0 0 0 0 0 0 0 0 0 0 0 0 0 0 324 324 324 0 339 339 342 343 358 359 364 371 377 377 377 375 375 372 367 367 367 367 0 0 0 0 0 383 396 404 405 405 405 397 397 397 402 404 422 428 440 446 466 490 516 535 546 561 0 0 0 0 0 0 0 0 0 0 1001 1001 995 976 972 967 964 964 964 969 971 982 996 1011 1017 1019 1020 1030 1035 1048 1052 1057 1064 1071 1077 1089 1102 1121 1131 0 0 0 0 0 0 0 0 0 0 0 0 0 0 0 1516 1529 1547 1552 1554 1558 1565 1572 1578 1582 1588 1594 1597 1598 1598 1598 1597 1597 1597 1602 1606 1610 1616 1618 1624 1629 1632 1636 1641 1645 1651 1653 1655 1657 1662 1666 1670 1675 1681 1686 1690 1694 1698 1704 1709 1713 1715 1717 1722 1726 1728 1730 1732 1734 1736 1739 1743 1748 1753 1759 1763 1767 1770 1772 1776 1781 1785 1787 1790 1792 1794 1795 1796 1800 1804 1808 1811 1814 1818 1822 1825 1829 1832 1834 1836 1840 1843 1846 1848 1850 1853 1855 1857 1859 1861 1863 1867 1868 1870 1874 1876 1879 1881 1883 1886 1889 1890 1892 1895 1899 1900 1901 1902 1905 1905 1906 1906 1906 1906 1910 1913 1917 1920 1920 1920 1920 1920 1921 1921 1922 1927 1931 1935 1935 1935 1929 1923 1920 1919 1918 1906 0 0 0 1687 1675 1657 1649 1646 1641 1637 1630 1625 1621 1617 1613 1607 1603 1600 1598 1595 1591 1587 1584 1582 1580 1578 1576 1574 1572 1570 1568 1567 1566 1564 1562 1561 1559 1557 1555 1554 1552 1551 1549 1547 1545 1543 1542 1540 1538 1536 1534 1533 1532 1531 1529 1528 1526 1525 1525 1524 1523 1522 1520 1519 1518 1517 1516 1515 1514 1513 1512 1512 1511 1511 1510 1510 1509 1509 1508 1508 1507 1507 1507 1505 1505 1504 1504 1504 1503 1503 1503 1503 1503 1503 1503 1503 1503 1502 1501 1500 1500 1500 1500 1500 1499 1498 1496 1496 1495 1495 1494 1494 1490 1487 1487 1485 1485 1485 1484 1484 1484 1472 1459 0 0 0 0 0 0 0 0 0 0 0 0 0 1054 1042 1033 1031 1031 1030 1029 1026 1025 1023 1022 1022 1019 1017 1016 1014 1013 1011 1009 1008 1006 1005 1004 1003 1002 1000 999 997 996 995 994 994 994 994 994 994 994 994 997 1001 1011 1015 1030 0 0 0 0 0 0 1592 1610 1618 1618 1618 1618 1618 1619 1620 1621 1623 1623 1623 1623 1622 1622 1622 1623 1625 1625 1626 1626 1626 1626 1626 1626 1626 1626 1626 1626 1626 1625 1625 1624 1623 1622 1620 1619 1617 1616 1616 1616 1616 1616 1617 1617 1617 1616 1616 1616 1616 1615 1615 1614 1613 1613 1612 1612 1612 1610 1610 1609 1609 1609 1609 1608 1608 1608 1607 1607 1606 1605 1604 1603 1602 1602 1601 1599 1597 1595 1592 1591 1590 1588 1585 1582 1579 1578 1577 1576 1576 1575 1573 1571 1569 1569 1569 1569 1570 1570 1570 1570 1570 1569 1561 1559 1544 1537 1534 0 0 0 0 0 0 0 0 0 0 0 0 0 0 0 0 0 0 0 0 0 0 0 0 0 0 0 0 0 0 0 0 0 0 0 0 0 0 0 0 0 0 0 0 0 0 0 0 0 0 0 0 0 0 0 0 0 0 0 0 0 0 0 0 0 0 0 0 0
296 296 305 325 325 325 321 0 0 0 0 0 0 0 0 291 293 295 295 0 0 0 0 0 0 0 0 0 0 0 0 0 0 0 0 320 321 0 0 346 353 353 358 371 371 374 376 376 376 376 375 373 372 372 372 371 371 0 0 0 0 383 394 403 403 403 401 393 393 393 396 401 404 406 422 446 466 490 511 533 544 546 548 0 0 0 0 0 0 0 0 0 976 976 976 959 953 952 952 952 964 969 971 982 1002 1012 1017 1019 1020 1030 1035 1048 1058 1072 1081 1092 1096 0 0 0 0 0 0 0 0 0 0 0 0 0 0 0 0 1504 1507 1514 1525 1537 1548 1553 1555 1559 1565 1572 1578 1582 1588 1594 1597 1597 1597 1595 1595 1595 1596 1602 1606 1610 1616 1618 1624 1629 1632 1636 1641 1651 1658 1660 1663 1666 1667 1669 1672 1677 1681 1686 1691 1696 1699 1704 1710 1714 1716 1720 1724 1726 1729 1730 1733 1735 1739 1741 1744 1748 1753 1759 1763 1767 1769 1771 1774 1778 1782 1785 1788 1791 1793 1794 1795 1798 1801 1805 1808 1811 1814 1818 1820 1824 1827 1831 1833 1834 1836 1840 1843 1846 1849 1851 1853 1855 1858 1861 1862 1864 1866 1869 1873 1876 1878 1879 1881 1882 1885 1888 1891 1895 1898 1899 1899 1901 1902 1902 1902 1902 1902 1905 1910 1915 1917 1917 1917 1917 1917 1918 1918 1919 1921 1922 1926 1926 1926 1924 1920 1917 1917 1914 1904 0 0 0 1679 1674 1650 1647 1644 1638 1633 1627 1623 1619 1616 1610 1606 1602 1599 1597 1595 1591 1587 1584 1582 1580 1578 1576 1574 1572 1570 1568 1567 1565 1563 1561 1560 1558 1557 1555 1554 1552 1551 1549 1547 1545 1543 1542 1540 1538 1536 1535 1533 1532 1531 1529 1527 1526 1526 1525 1524 1523 1522 1521 1519 1519 1517 1516 1515 1514 1513 1512 1512 1511 1511 1510 1510 1510 1510 1509 1509 1509 1508 1508 1507 1506 1504 1504 1504 1504 1504 1504 1504 1504 1503 1503 1503 1503 1503 1503 1501 1501 1500 1500 1500 1499 1499 1499 1499 1497 1496 1496 1495 1491 1489 1487 1487 1487 1489 1489 1489 1489 1489 1482 1474 1462 1452 0 0 0 0 0 0 0 0 0 0 0 0 1039 1039 1038 1037 1037 1035 1030 1023 1023 1022 1020 1019 1017 1015 1014 1013 1011 1008 1006 1006 1005 1004 1002 1001 999 998 996 996 995 994 994 994 994 994 994 994 996 1002 1011 1022 1035 0 0 0 0 0 0 1599 1616 1618 1618 1618 1618 1618 1618 1618 1619 1621 1623 1623 1623 1623 1623 1623 1623 1625 1625 1626 1626 1626 1627 1628 1628 1628 1627 1627 1626 1626 1626 1625 1624 1623 1622 1620 1619 1617 1616 1615 1615 1615 1615 1615 1615 1615 1615 1615 1614 1614 1613 1613 1612 1611 1611 1611 1610 1610 1609 1608 1607 1607 1607 1607 1607 1607 1606 1606 1605 1605 1604 1604 1603 1602 1601 1599 1598 1594 1592 1590 1589 1588 1585 1584 1579 1577 1575 1575 1574 1574 1574 1573 1570 1569 1569 1569 1569 1569 1569 1570 1570 1573 1573 1573 1567 1552 1534 1530 0 0 0 0 0 0 0 0 0 0 0 0 0 0 0 0 0 0 0 0 0 0 0 0 0 0 0 0 0 0 0 0 0 0 0 0 0 0 0 0 0 0 0 0 0 0 0 0 0 0 0 0 0 0 0 0 0 0 0 0 0 0 0 0 0 0 0 0 0
299 299 312 330 333 333 333 0 0 0 0 0 0 0 287 287 288 288 288 0 0 0 0 0 0 0 0 0 0 0 0 0 0 0 0 317 327 342 348 360 363 364 367 371 371 376 376 376 375 375 373 373 373 373 373 374 379 383 383 383 386 383 383 386 386 390 390 393 393 393 396 401 404 406 422 446 466 489 511 522 532 534 540 0 0 0 0 0 0 0 0 0 948 948 948 941 941 941 950 952 964 972 978 990 1007 1016 1018 1019 1020 1033 1046 1048 0 0 0 0 0 0 0 0 0 0 0 0 0 0 0 0 1444 1477 1504 1508 1513 1514 1518 1521 1529 1539 1549 1553 1555 1559 1565 1572 1578 1582 1588 1590 1591 1591 1593 1594 1594 1594 1596 1602 1606 1610 1617 1623 1627 1631 1635 1639 1647 1655 1658 1660 1663 1666 1667 1670 1676 1679 1683 1688 1692 1696 1700 1704 1710 1714 1718 1721 1724 1726 1729 1731 1734 1736 1739 1741 1744 1748 1753 1757 1760 1762 1764 1767 1771 1776 1780 1784 1786 1789 1790 1790 1791 1795 1798 1803 1805 1806 1808 1813 1817 1822 1824 1827 1830 1832 1833 1836 1839 1844 1845 1849 1851 1854 1856 1858 1858 1860 1862 1866 1870 1873 1873 1874 1874 1877 1879 1882 1885 1889 1892 1893 1894 1896 1898 1899 1899 1900 1900 1902 1907 1911 1913 1913 1913 1913 1913 1913 1914 1915 1915 1916 1917 1920 1920 1920 1920 1916 1914 1912 1903 0 0 0 1672 1659 1648 1644 1640 1635 1631 1627 1621 1617 1613 1610 1606 1602 1599 1595 1593 1590 1587 1584 1582 1580 1578 1576 1574 1571 1569 1568 1566 1565 1563 1561 1560 1558 1557 1555 1554 1552 1551 1549 1547 1545 1544 1542 1540 1538 1537 1535 1533 1532 1531 1529 1527 1526 1526 1525 1524 1523 1521 1521 1519 1519 1518 1517 1516 1514 1514 1513 1512 1512 1511 1510 1510 1510 1510 1510 1510 1510 1509 1509 1508 1507 1506 1505 1504 1504 1504 1504 1504 1504 1504 1504 1503 1503 1503 1503 1503 1503 1501 1501 1501 1501 1500 1500 1500 1499 1497 1496 1495 1492 1490 1490 1489 1489 1489 1489 1489 1489 1489 1486 1476 1470 1464 1464 1463 1454 0 0 0 0 0 0 0 0 0 0 0 0 1050 1044 1037 1034 1029 1026 1023 1021 1020 1018 1016 1016 1014 1012 1009 1007 1006 1005 1004 1003 1002 999 999 997 996 996 995 995 995 994 994 994 995 996 1002 1011 1022 1034 0 0 0 0 0 1588 1607 1618 1618 1618 1617 1615 1615 1615 1617 1619 1620 1622 1622 1622 1622 1622 1623 1623 1625 1626 1626 1626 1627 1627 1628 1629 1631 1631 1631 1631 1629 1628 1627 1625 1625 1624 1622 1620 1617 1616 1615 1615 1615 1615 1615 1614 1614 1613 1613 1613 1612 1612 1612 1611 1610 1610 1610 1609 1608 1607 1607 1606 1606 1606 1606 1605 1605 1605 1605 1604 1604 1603 1602 1601 1600 1598 1598 1595 1591 1590 1587 1586 1584 1582 1581 1579 1576 1575 1573 1573 1573 1573 1571 1569 1568 1568 1568 1568 1568 1569 1569 1569 1573 1573 1573 1567 1555 1534 1512 0 0 0 0 0 0 0 0 0 0 0 0 0 0 0 0 0 0 0 0 0 0 0 0 0 0 0 0 0 0 0 0 0 0 0 0 0 0 0 0 0 0 0 0 0 0 0 0 0 0 0 0 0 0 0 0 0 0 0 0 0 0 0 0 0 0 0 0 0
313 313 324 330 333 333 333 315 298 285 0 0 279 287 287 287 288 288 285 0 0 0 0 0 0 0 0 0 0 0 0 0 0 0 0 0 327 342 350 363 364 364 367 371 371 376 376 376 371 371 371 371 371 373 373 374 382 385 385 385 383 381 381 383 386 393 393 393 393 393 396 401 404 406 425 448 466 488 509 510 523 530 535 0 0 0 0 0 0 0 0 906 920 920 921 923 923 941 950 967 983 988 993 1004 1012 1023 0 0 0 0 0 0 0 0 0 0 0 0 0 0 0 0 0 0 0 0 1472 1480 1488 1496 1504 1514 1519 1521 1523 1531 1533 1541 1549 1553 1555 1559 1565 1572 1576 1577 1577 1578 1581 1587 1590 1592 1594 1595 1598 1603 1610 1616 1623 1625 1630 1634 1638 1643 1650 1655 1658 1660 1663 1666 1667 1670 1676 1679 1683 1688 1692 1696 1700 1704 1710 1714 1718 1721 1724 1726 1729 1730 1734 1736 1739 1741 1744 1748 1752 1754 1757 1759 1763 1766 1770 1776 1780 1784 1786 1786 1786 1787 1787 1791 1794 1798 1800 1803 1806 1809 1813 1818 1822 1824 1827 1829 1832 1835 1837 1840 1842 1845 1848 1851 1854 1854 1855 1857 1859 1863 1867 1868 1868 1869 1871 1874 1876 1878 1880 1881 1885 1888 1891 1893 1897 1898 1898 1899 1899 1901 1903 1906 1906 1906 1906 1906 1906 1906 1907 1907 1908 1910 1912 1914 1915 1915 1915 1910 1908 1905 1895 0 0 0 1672 1652 1644 1641 1638 1635 1631 1626 1621 1616 1611 1607 1605 1600 1598 1595 1593 1590 1587 1584 1582 1580 1578 1575 1574 1571 1569 1567 1566 1564 1563 1561 1560 1558 1557 1555 1554 1552 1551 1549 1547 1546 1544 1542 1540 1538 1537 1535 1533 1532 1531 1529 1527 1526 1526 1525 1524 1523 1521 1521 1519 1519 1518 1517 1516 1515 1514 1513 1513 1512 1512 1511 1510 1510 1510 1510 1510 1510 1510 1509 1509 1508 1507 1507 1505 1505 1505 1505 1504 1504 1504 1504 1504 1504 1504 1504 1504 1503 1503 1503 1502 1501 1500 1500 1500 1499 1497 1496 1495 1493 1491 1490 1490 1490 1490 1490 1490 1490 1490 1486 1479 1471 1470 1469 1465 1461 1456 1442 0 0 0 0 0 0 0 0 0 0 0 0 1048 1034 1031 1027 1027 1027 1022 1020 1017 1016 1015 1013 1010 1008 1008 1008 1006 1003 1002 999 999 997 996 996 995 995 995 995 995 995 995 995 1002 1011 1022 1035 0 0 0 0 0 1589 1611 1618 1618 1618 1616 1613 1613 1613 1615 1617 1619 1619 1620 1620 1621 1622 1622 1623 1624 1625 1626 1626 1627 1627 1628 1630 1631 1631 1631 1631 1631 1630 1630 1628 1627 1625 1623 1621 1617 1616 1615 1615 1615 1615 1615 1614 1614 1612 1612 1612 1612 1611 1610 1609 1608 1608 1607 1606 1606 1605 1605 1605 1605 1604 1603 1603 1603 1603 1603 1603 1602 1601 1599 1599 1598 1597 1594 1593 1589 1586 1583 1583 1581 1581 1580 1578 1576 1574 1572 1572 1571 1570 1569 1567 1567 1567 1567 1568 1568 1569 1569 1569 1573 1573 1573 1567 1555 1533 1491 0 0 0 0 0 0 0 0 0 0 0 0 0 0 0 0 0 0 0 0 0 0 0 0 0 0 0 0 0 0 0 0 0 0 0 0 0 0 0 0 0 0 0 0 0 0 0 0 0 0 0 0 0 0 0 0 0 0 0 0 0 0 0 0 0 0 0 0 0
323 323 328 330 333 333 333 319 299 287 0 279 279 287 287 287 287 287 284 0 0 0 0 0 318 319 320 320 0 0 0 0 0 0 0 0 327 342 350 363 364 364 365 366 367 376 376 376 371 371 371 371 373 373 373 378 383 386 386 386 381 376 376 376 386 394 395 396 398 400 415 416 423 424 433 452 458 462 485 505 507 515 521 0 0 0 0 0 0 0 0 906 911 916 920 923 923 941 965 990 0 0 0 0 0 0 0 0 0 0 0 0 0 0 0 0 0 0 0 0 0 0 0 0 1454 1464 1486 1494 1495 1497 1504 1514 1519 1521 1523 1531 1533 1541 1548 1553 1555 1558 1565 1572 1576 1577 1577 1578 1581 1587 1590 1592 1594 1595 1598 1604 1610 1620 1623 1625 1630 1635 1640 1645 1650 1655 1657 1658 1660 1663 1666 1670 1676 1679 1683 1688 1692 1696 1700 1704 1708 1714 1718 1721 1723 1726 1729 1730 1734 1736 1737 1740 1742 1745 1749 1752 1755 1758 1761 1765 1769 1774 1779 1783 1784 1784 1785 1785 1785 1788 1792 1794 1797 1800 1803 1807 1812 1815 1818 1822 1824 1828 1830 1834 1835 1836 1839 1841 1845 1847 1849 1851 1853 1855 1858 1862 1865 1865 1865 1866 1866 1870 1873 1875 1875 1875 1877 1883 1886 1889 1893 1895 1895 1897 1897 1897 1897 1898 1899 1899 1900 1900 1900 1902 1902 1903 1905 1907 1911 1912 1912 1912 1911 1907 1906 1904 1891 0 0 0 1672 1652 1642 1638 1636 1634 1631 1626 1620 1614 1609 1605 1603 1600 1597 1595 1593 1590 1587 1584 1582 1580 1578 1575 1574 1571 1569 1567 1565 1564 1562 1561 1559 1558 1556 1555 1554 1552 1551 1549 1547 1546 1544 1542 1540 1538 1537 1535 1533 1532 1531 1529 1528 1527 1526 1525 1524 1523 1521 1521 1520 1519 1518 1518 1516 1515 1514 1513 1513 1512 1512 1511 1510 1510 1510 1510 1510 1510 1510 1509 1509 1508 1508 1507 1507 1506 1506 1505 1505 1504 1504 1504 1504 1505 1505 1505 1504 1504 1503 1503 1502 1501 1501 1500 1500 1499 1497 1496 1495 1494 1494 1493 1493 1491 1491 1491 1491 1491 1491 1487 1486 1486 1483 1476 1473 1468 1466 1465 1460 0 0 0 0 0 0 0 0 0 0 0 0 0 0 1030 1029 1028 1026 1022 1018 1017 1015 1014 1011 1011 1011 1011 1010 1003 1002 1001 999 998 996 996 996 995 995 995 995 995 995 996 1003 1011 1022 1036 0 0 0 0 0 1595 1613 1614 1614 1614 1612 1612 1612 1612 1612 1614 1616 1617 1618 1618 1619 1619 1620 1622 1624 1625 1626 1626 1627 1627 1628 1630 1631 1631 1631 1631 1631 1631 1630 1629 1627 1626 1624 1622 1620 1619 1619 1617 1617 1616 1615 1614 1614 1612 1611 1611 1611 1610 1610 1609 1607 1606 1605 1604 1604 1604 1603 1603 1603 1602 1601 1601 1601 1601 1601 1601 1601 1599 1598 1598 1596 1594 1592 1589 1586 1583 1581 1581 1579 1579 1578 1577 1574 1571 1570 1569 1568 1567 1567 1567 1566 1566 1566 1567 1567 1567 1567 1567 1567 1567 1566 1565 1555 1531 1482 0 0 0 0 0 0 0 0 0 0 0 0 0 0 0 0 0 0 0 0 0 0 0 0 0 0 0 0 0 0 0 0 0 0 0 0 0 0 0 0 0 0 0 0 0 0 0 0 0 0 0 0 0 0 0 0 0 0 0 0 0 0 0 0 0 0 0 0 0
327 327 328 328 328 328 325 319 300 294 288 287 287 287 287 287 287 287 293 293 301 301 309 317 319 319 320 320 319 0 0 0 0 0 0 0 327 335 350 357 359 364 364 364 366 366 366 366 370 371 371 371 371 375 375 378 385 385 385 378 374 374 374 375 390 397 397 398 400 402 419 423 424 424 433 447 452 454 456 488 504 510 513 0 0 0 0 0 0 0 0 906 911 916 920 923 923 944 0 0 0 0 0 0 0 0 0 0 0 0 0 0 0 0 0 0 0 0 0 1440 1448 1456 1463 1467 1470 1475 1486 1494 1497 1498 1504 1514 1519 1521 1524 1531 1534 1544 1548 1553 1555 1558 1565 1572 1576 1577 1577 1578 1581 1587 1590 1592 1595 1599 1604 1609 1616 1621 1623 1626 1630 1635 1640 1645 1650 1653 1654 1656 1659 1662 1665 1669 1673 1677 1680 1684 1689 1694 1698 1704 1706 1711 1715 1718 1722 1725 1727 1730 1733 1735 1737 1738 1740 1743 1747 1751 1753 1756 1759 1762 1765 1772 1777 1781 1781 1782 1783 1783 1785 1787 1790 1793 1795 1797 1800 1804 1809 1812 1816 1819 1822 1826 1829 1831 1833 1835 1837 1838 1841 1845 1846 1848 1850 1854 1856 1861 1861 1861 1861 1861 1861 1864 1866 1869 1871 1872 1873 1876 1879 1883 1887 1889 1891 1891 1891 1890 1890 1890 1892 1894 1895 1896 1897 1899 1899 1899 1901 1904 1907 1909 1909 1909 1906 1903 1903 1899 1888 0 0 0 1677 1652 1642 1636 1634 1632 1630 1626 1620 1614 1609 1604 1602 1600 1597 1595 1593 1589 1586 1584 1582 1580 1578 1575 1574 1571 1568 1567 1565 1563 1561 1559 1558 1557 1556 1555 1554 1552 1550 1549 1547 1546 1544 1542 1541 1538 1537 1535 1533 1532 1531 1529 1528 1527 1527 1526 1525 1523 1522 1521 1520 1519 1518 1518 1516 1515 1515 1514 1513 1513 1512 1511 1511 1511 1511 1511 1511 1510 1510 1509 1509 1509 1508 1507 1507 1506 1506 1505 1505 1505 1504 1504 1504 1505 1505 1505 1505 1504 1503 1503 1502 1502 1501 1500 1500 1499 1498 1496 1495 1495 1495 1494 1494 1493 1493 1493 1492 1492 1492 1492 1492 1492 1488 1482 1478 1475 1474 1473 1473 1473 1471 1467 0 0 0 0 0 0 0 0 0 0 0 0 0 1040 1031 1030 1028 1022 1018 1014 1012 1011 1011 1011 1010 1007 1004 1002 1001 1000 998 996 996 996 995 995 995 995 995 997 1003 1011 1022 0 0 0 0 0 0 1598 1613 1613 1613 1613 1612 1611 1611 1611 1612 1614 1615 1616 1616 1616 1616 1616 1617 1618 1620 1623 1623 1625 1626 1627 1628 1630 1630 1631 1631 1631 1631 1631 1630 1629 1627 1626 1625 1623 1621 1620 1619 1618 1618 1617 1616 1615 1614 1612 1611 1611 1609 1609 1608 1607 1606 1605 1604 1604 1603 1603 1603 1602 1602 1601 1600 1599 1599 1599 1599 1599 1599 1599 1597 1594 1593 1591 1589 1586 1585 1582 1580 1579 1577 1577 1575 1574 1572 1569 1566 1566 1566 1565 1565 1564 1562 1562 1562 1562 1562 1562 1562 1562 1562 1563 1562 1562 1548 1523 1479 0 0 0 0 0 0 0 0 0 0 0 0 0 0 0 0 0 0 0 0 0 0 0 0 0 0 0 0 0 0 0 0 0 0 0 0 0 0 0 0 0 0 0 0 0 0 0 0 0 0 0 0 0 0 0 0 0 0 0 0 0 0 0 0 0 0 0 0 0
328 328 320 320 320 319 318 318 316 306 294 282 282 282 284 0 0 287 301 303 308 311 317 318 319 319 320 320 319 0 0 0 0 0 0 320 327 335 338 341 351 359 364 364 366 366 368 371 371 372 372 371 372 375 375 381 386 386 386 378 374 374 374 377 391 398 398 399 402 405 419 423 424 424 433 438 443 452 454 480 501 510 513 0 0 0 0 0 0 0 0 909 911 926 926 927 934 0 0 0 0 0 0 0 0 0 0 0 0 0 0 0 0 0 0 0 0 1414 1445 1449 1455 1458 1463 1467 1470 1475 1486 1495 1498 1498 1504 1514 1520 1524 1530 1535 1539 1545 1552 1555 1558 1558 1566 1575 1580 1582 1583 1586 1589 1591 1594 1597 1599 1602 1605 1611 1616 1621 1624 1626 1630 1635 1640 1645 1648 1651 1652 1653 1657 1661 1664 1667 1670 1673 1679 1682 1688 1692 1697 1702 1706 1709 1711 1715 1718 1722 1725 1727 1731 1735 1735 1736 1739 1742 1745 1748 1751 1753 1755 1758 1760 1766 1773 1777 1779 1779 1780 1782 1784 1786 1787 1790 1792 1794 1798 1801 1806 1810 1814 1817 1821 1824 1827 1828 1829 1830 1831 1834 1838 1843 1845 1845 1847 1851 1854 1859 1859 1859 1858 1858 1858 1859 1860 1863 1865 1865 1867 1870 1875 1878 1881 1883 1883 1883 1883 1883 1883 1883 1888 1891 1893 1894 1894 1894 1894 1894 1897 1901 1903 1905 1905 1905 1902 1899 1898 1891 1882 1854 0 0 1686 1652 1642 1635 1632 1629 1626 1623 1619 1614 1608 1603 1600 1597 1595 1593 1591 1588 1586 1584 1582 1580 1578 1575 1572 1570 1568 1566 1563 1562 1561 1559 1557 1557 1555 1554 1553 1551 1550 1549 1547 1546 1544 1542 1541 1539 1537 1535 1533 1532 1531 1529 1528 1527 1527 1526 1525 1524 1522 1522 1521 1519 1518 1518 1516 1515 1515 1514 1514 1513 1512 1511 1511 1511 1511 1511 1511 1510 1510 1509 1509 1509 1508 1507 1507 1506 1506 1505 1505 1505 1505 1505 1505 1505 1505 1505 1505 1504 1503 1503 1502 1501 1500 1500 1500 1499 1497 1496 1495 1495 1495 1495 1495 1494 1494 1493 1493 1492 1492 1492 1492 1492 1491 1488 1484 1482 1482 1482 1482 1482 1482 1480 1474 1464 1455 0 0 0 0 0 0 0 0 0 0 0 0 0 1046 1037 1019 1014 1012 1012 1012 1012 1011 1009 1006 1004 1002 1001 999 996 996 996 996 996 996 996 997 997 1003 1015 1032 0 0 0 0 0 0 1601 1611 1611 1611 1610 1610 1610 1610 1610 1612 1612 1613 1614 1614 1615 1615 1615 1615 1616 1618 1620 1623 1623 1624 1625 1626 1627 1628 1629 1630 1630 1630 1630 1630 1629 1627 1625 1625 1623 1622 1621 1619 1618 1618 1617 1617 1615 1614 1612 1611 1610 1608 1608 1606 1605 1605 1604 1603 1603 1601 1601 1601 1601 1600 1599 1598 1597 1597 1597 1597 1597 1597 1596 1595 1592 1591 1588 1586 1584 1583 1582 1580 1578 1576 1574 1572 1572 1570 1568 1565 1565 1565 1564 1563 1560 1560 1558 1557 1557 1556 1556 1556 1556 1557 1557 1557 1551 1531 1522 1477 0 0 0 0 0 0 0 0 0 0 0 0 0 0 0 0 0 0 0 0 0 0 0 0 0 0 0 0 0 0 0 0 0 0 0 0 0 0 0 0 0 0 0 0 0 0 0 0 0 0 0 0 0 0 0 0 0 0 0 0 0 0 0 0 0 0 0 0 0
328 328 320 320 0 320 319 319 319 319 309 290 0 0 0 0 293 300 302 304 308 313 317 319 320 336 0 0 338 0 0 0 0 0 334 334 335 338 338 341 351 359 364 364 366 366 368 371 373 376 376 376 379 380 381 386 388 388 388 378 377 377 377 382 393 411 414 426 438 438 438 428 423 0 423 437 438 439 454 480 501 510 0 0 0 0 0 0 0 0 0 914 931 934 943 947 0 0 0 0 1104 1111 1114 0 0 0 0 0 0 0 0 1369 1381 1398 1399 1416 1429 1435 1447 1450 1455 1458 1463 1467 1470 1475 1486 1495 1503 1509 1510 1514 1520 1524 1530 1535 1543 1546 1552 1559 1561 1566 1572 1578 1582 1586 1587 1590 1592 1593 1594 1598 1601 1604 1607 1612 1617 1621 1624 1626 1630 1635 1640 1643 1645 1648 1648 1653 1656 1660 1663 1667 1670 1673 1679 1682 1687 1692 1697 1701 1706 1706 1707 1709 1714 1718 1719 1722 1726 1729 1732 1734 1736 1739 1740 1742 1746 1746 1748 1751 1755 1761 1767 1772 1774 1775 1778 1781 1783 1783 1784 1786 1788 1793 1796 1798 1803 1807 1812 1816 1820 1822 1823 1824 1826 1828 1828 1831 1836 1841 1845 1845 1846 1849 1853 1855 1856 1856 1856 1854 1854 1854 1855 1857 1859 1860 1862 1865 1868 1871 1874 1875 1876 1876 1877 1877 1879 1883 1887 1890 1891 1891 1891 1891 1891 1891 1895 1897 1897 1900 1901 1901 1901 1897 1893 1887 1873 1849 0 0 1686 1653 1640 1634 1630 1626 1624 1620 1618 1613 1608 1603 1600 1597 1594 1592 1589 1587 1585 1584 1582 1580 1578 1575 1572 1569 1567 1565 1563 1562 1560 1559 1557 1556 1555 1554 1553 1551 1550 1549 1547 1546 1544 1542 1541 1539 1538 1536 1534 1532 1531 1530 1528 1527 1527 1526 1525 1524 1522 1522 1521 1519 1519 1518 1516 1515 1515 1514 1514 1513 1512 1511 1511 1511 1510 1510 1510 1510 1509 1509 1509 1508 1508 1507 1507 1506 1506 1505 1505 1505 1505 1505 1505 1505 1505 1505 1505 1504 1503 1502 1502 1501 1500 1500 1499 1499 1497 1496 1495 1495 1495 1495 1495 1494 1494 1493 1493 1492 1492 1492 1492 1492 1491 1490 1489 1489 1489 1489 1489 1489 1488 1488 1483 1475 1467 1462 1455 0 0 0 0 0 0 0 0 0 0 0 0 1039 1019 1015 1012 1012 1012 1012 1011 1010 1006 1005 1004 1001 999 997 997 997 997 997 997 997 997 997 1003 1025 1042 0 0 0 0 0 0 1601 1609 1609 1609 1609 1609 1609 1610 1610 1610 1611 1611 1612 1612 1613 1613 1613 1614 1615 1616 1619 1620 1621 1621 1622 1623 1624 1624 1625 1629 1629 1629 1629 1629 1628 1626 1625 1625 1624 1622 1621 1619 1618 1618 1618 1617 1615 1614 1612 1609 1609 1608 1607 1606 1604 1604 1603 1602 1601 1600 1599 1599 1599 1598 1597 1596 1596 1596 1595 1595 1595 1595 1594 1592 1590 1588 1586 1585 1583 1582 1582 1579 1578 1575 1571 1570 1570 1569 1567 1564 1563 1563 1563 1560 1558 1556 1555 1553 1553 1551 1551 1549 1547 1541 1532 1531 1529 1520 1499 1473 0 0 0 0 0 0 0 0 0 0 0 0 0 0 0 0 0 0 0 0 0 0 0 0 0 0 0 0 0 0 0 0 0 0 0 0 0 0 0 0 0 0 0 0 0 0 0 0 0 0 0 0 0 0 0 0 0 0 0 0 0 0 0 0 0 0 0 0 0
330 330 320 320 320 320 322 325 325 322 319 304 0 0 300 301 306 306 310 310 310 314 317 322 329 336 338 0 0 0 0 0 0 341 345 346 346 346 346 346 351 364 367 371 371 371 371 371 374 376 382 382 382 383 383 393 395 396 399 399 399 395 393 393 393 411 427 439 439 439 439 436 0 423 423 437 438 439 456 480 0 0 0 0 0 0 0 0 0 0 0 932 964 967 973 979 0 0 0 1104 1121 1128 1132 1157 0 0 0 0 0 1341 1373 1390 1396 1402 1407 1416 1429 1435 1447 1450 1450 1451 1455 1458 1458 1476 1488 1498 1506 1511 1513 1516 1520 1527 1537 1541 1547 1550 1555 1562 1565 1571 1575 1578 1582 1586 1588 1590 1592 1593 1594 1598 1601 1604 1607 1612 1617 1621 1625 1628 1631 1635 1639 1641 1645 1646 1648 1653 1656 1660 1662 1666 1670 1673 1677 1682 1685 1691 1697 1701 1702 1702 1704 1705 1708 1712 1714 1716 1720 1723 1727 1731 1733 1735 1737 1738 1741 1743 1745 1748 1753 1757 1762 1765 1768 1771 1774 1777 1777 1778 1780 1784 1787 1792 1794 1797 1802 1804 1809 1814 1817 1818 1818 1820 1821 1822 1824 1828 1833 1837 1843 1844 1845 1845 1849 1853 1854 1854 1854 1852 1852 1852 1852 1853 1853 1855 1857 1860 1862 1864 1866 1868 1869 1872 1873 1875 1879 1883 1886 1888 1888 1888 1888 1888 1888 1889 1892 1893 1894 1899 1901 1901 1901 1896 1892 1886 1872 1849 0 0 0 1653 1640 1631 1628 1623 1621 1617 1616 1612 1607 1602 1598 1595 1593 1590 1587 1585 1583 1581 1580 1578 1577 1574 1572 1569 1567 1565 1563 1561 1560 1558 1557 1555 1554 1553 1551 1551 1550 1548 1547 1545 1544 1542 1541 1539 1538 1536 1534 1532 1531 1530 1528 1527 1527 1526 1525 1524 1523 1522 1521 1519 1519 1518 1516 1515 1515 1514 1514 1513 1512 1511 1511 1510 1510 1510 1510 1509 1509 1509 1508 1508 1508 1507 1507 1506 1505 1505 1505 1505 1505 1505 1505 1505 1505 1505 1505 1504 1503 1502 1501 1501 1500 1499 1499 1499 1497 1496 1495 1495 1495 1495 1495 1494 1494 1493 1493 1492 1492 1492 1492 1492 1492 1492 1493 1493 1493 1494 1495 1495 1495 1495 1490 1482 1476 1476 1475 1473 1466 1450 0 0 0 0 0 0 0 0 0 0 1034 1017 1017 1016 1016 1016 1013 1010 1008 1006 1004 1002 1001 999 999 999 999 998 998 998 998 999 1003 1029 1060 0 0 0 0 0 0 1598 1609 1609 1609 1608 1608 1608 1608 1609 1609 1609 1610 1610 1611 1612 1612 1612 1612 1613 1614 1617 1618 1618 1618 1618 1619 1620 1623 1623 1623 1624 1624 1625 1626 1626 1626 1625 1624 1624 1622 1621 1619 1619 1618 1618 1617 1616 1613 1611 1609 1609 1607 1606 1605 1604 1602 1602 1601 1600 1599 1598 1598 1596 1595 1595 1594 1594 1594 1594 1593 1593 1592 1591 1589 1586 1585 1585 1583 1581 1580 1578 1578 1576 1571 1568 1568 1567 1567 1565 1563 1562 1561 1560 1558 1556 1555 1553 1553 1552 1549 1546 1544 1544 1536 1532 1528 1524 1520 1497 1468 0 0 0 0 0 0 0 0 0 0 0 0 0 0 0 0 0 0 0 0 0 0 0 0 0 0 0 0 0 0 0 0 0 0 0 0 0 0 0 0 0 0 0 0 0 0 0 0 0 0 0 0 0 0 0 0 0 0 0 0 0 0 0 0 0 0 0 0 0
341 341 332 334 332 332 332 332 332 330 326 326 320 320 320 320 320 318 311 311 311 317 318 322 337 359 359 359 0 0 0 0 0 352 355 355 359 359 359 360 362 365 367 371 373 373 374 377 378 382 385 386 386 387 389 395 397 400 403 404 404 404 397 397 397 411 432 444 444 444 442 439 0 423 423 437 439 0 0 0 0 0 0 0 0 0 0 0 0 0 0 947 965 991 993 1009 1035 1067 1095 1115 1133 1152 1172 1191 0 0 0 0 1343 1368 1384 1392 1396 1402 1407 1416 1429 1435 1445 1449 1450 1451 1452 1452 1458 1476 1489 1502 1511 1516 1524 1527 1531 1534 1538 1542 1547 1550 1555 1562 1565 1571 1575 1578 1582 1586 1588 1590 1592 1593 1594 1598 1601 1604 1607 1612 1617 1621 1625 1628 1631 1635 1637 1639 1643 1645 1648 1652 1656 1660 1662 1666 1670 1673 1677 1680 1684 1688 1692 1697 1699 1699 1699 1703 1706 1708 1710 1713 1715 1718 1722 1729 1733 1735 1736 1737 1739 1742 1744 1745 1749 1754 1757 1761 1764 1767 1769 1769 1772 1774 1779 1783 1787 1791 1794 1797 1798 1800 1806 1811 1813 1814 1814 1815 1816 1819 1821 1824 1830 1836 1840 1840 1840 1841 1843 1846 1849 1851 1851 1851 1851 1851 1851 1849 1849 1849 1851 1853 1855 1859 1860 1861 1861 1863 1868 1872 1876 1879 1883 1883 1884 1885 1884 1884 1884 1885 1887 1890 1892 1899 1901 1901 1901 1896 1891 1885 1871 1848 0 0 0 1653 1640 1630 1624 1621 1620 1616 1610 1604 1601 1598 1595 1593 1591 1589 1587 1585 1583 1581 1578 1577 1576 1574 1572 1569 1567 1564 1563 1561 1559 1557 1557 1555 1554 1553 1551 1550 1549 1548 1547 1545 1543 1542 1540 1539 1538 1536 1534 1532 1531 1529 1527 1526 1526 1526 1525 1524 1523 1521 1521 1519 1519 1518 1516 1515 1515 1514 1513 1513 1512 1511 1511 1510 1509 1509 1509 1509 1509 1509 1508 1508 1507 1507 1507 1505 1505 1505 1505 1505 1505 1505 1505 1505 1505 1505 1504 1504 1503 1502 1501 1501 1499 1499 1498 1498 1496 1496 1495 1494 1494 1494 1494 1494 1493 1493 1493 1492 1492 1492 1492 1492 1492 1493 1494 1495 1497 1498 1499 1499 1499 1496 1494 1493 1493 1492 1492 1492 1484 1476 1469 0 0 0 0 0 0 0 0 0 0 0 0 1024 1023 1022 1019 1014 1011 1010 1009 1008 1007 999 999 999 999 999 999 999 1000 1000 1006 1030 0 0 0 0 0 0 0 1601 1609 1609 1609 1606 1606 1606 1607 1607 1607 1607 1608 1609 1609 1610 1610 1610 1610 1612 1613 1614 1616 1617 1617 1617 1617 1618 1621 1621 1621 1621 1621 1621 1622 1622 1622 1623 1623 1623 1622 1621 1620 1618 1618 1618 1617 1615 1613 1610 1609 1608 1607 1606 1604 1603 1602 1601 1600 1599 1598 1596 1596 1595 1594 1593 1593 1593 1593 1591 1591 1591 1589 1588 1585 1584 1583 1583 1582 1578 1577 1576 1573 1570 1568 1565 1565 1565 1564 1562 1560 1560 1558 1557 1555 1555 1553 1553 1553 1551 1548 1545 1543 1539 1535 1531 1525 1520 1520 1496 1467 0 0 0 0 0 0 0 0 0 0 0 0 0 0 0 0 0 0 0 0 0 0 0 0 0 0 0 0 0 0 0 0 0 0 0 0 0 0 0 0 0 0 0 0 0 0 0 0 0 0 0 0 0 0 0 0 0 0 0 0 0 0 0 0 0 0 0 0 0
351 351 347 351 347 346 346 340 340 340 344 344 344 335 333 330 328 323 321 321 321 328 330 331 339 360 385 0 0 0 0 0 0 0 363 365 369 369 369 370 368 368 370 372 377 378 383 390 395 395 395 394 393 393 394 399 400 401 404 407 407 407 402 402 402 417 439 451 451 451 451 442 442 442 0 0 0 0 0 532 532 533 0 0 0 0 0 0 0 0 0 949 968 999 1031 1036 1061 1079 1097 1118 1138 1162 1182 1196 0 0 0 1358 1372 1378 1384 1392 1396 1402 1407 1413 1419 1425 1434 1448 1450 1451 1452 1452 1458 1480 1493 1505 1514 1518 1524 1527 1531 1534 1538 1543 1547 1550 1555 1562 1565 1571 1575 1578 1581 1584 1588 1588 1589 1590 1590 1594 1597 1601 1606 1612 1616 1621 1625 1628 1631 1635 1636 1638 1642 1644 1648 1652 1654 1658 1661 1666 1670 1673 1673 1675 1676 1679 1686 1691 1692 1693 1694 1698 1702 1704 1707 1709 1712 1714 1719 1725 1730 1733 1734 1734 1738 1739 1741 1743 1747 1751 1755 1757 1761 1763 1765 1765 1767 1771 1777 1782 1786 1790 1792 1794 1794 1795 1800 1806 1807 1807 1808 1809 1810 1814 1818 1822 1826 1830 1836 1836 1837 1838 1838 1838 1841 1842 1844 1845 1845 1847 1847 1847 1846 1846 1846 1848 1851 1854 1854 1855 1855 1855 1862 1868 1871 1874 1876 1877 1878 1878 1879 1879 1879 1880 1880 1882 1888 1895 1897 1897 1897 1892 1888 1883 1869 1848 0 0 0 1651 1639 1630 1624 1621 1618 1615 1607 1602 1598 1596 1593 1591 1590 1589 1587 1585 1583 1580 1578 1577 1575 1573 1572 1568 1565 1563 1561 1560 1558 1556 1556 1554 1553 1552 1550 1549 1548 1547 1546 1545 1543 1542 1540 1539 1538 1535 1534 1532 1531 1529 1527 1526 1525 1525 1524 1524 1523 1521 1520 1519 1518 1518 1516 1515 1515 1514 1513 1513 1512 1511 1510 1510 1509 1508 1508 1508 1508 1508 1507 1507 1506 1506 1505 1505 1504 1504 1504 1504 1505 1505 1505 1505 1505 1505 1504 1504 1503 1502 1501 1501 1499 1499 1498 1497 1495 1495 1494 1494 1494 1494 1493 1493 1493 1493 1493 1492 1492 1492 1492 1492 1494 1494 1495 1498 1500 1500 1501 1501 1500 1497 1497 1497 1500 1500 1500 1500 1500 1477 1470 1462 0 0 0 0 0 0 0 0 0 0 0 0 0 0 1036 1032 1031 1020 1013 1012 1011 1011 1007 1000 1000 1000 1000 1001 1004 1004 1011 1034 0 0 0 0 0 0 1572 1601 1609 1609 1609 1606 1605 1605 1605 1605 1605 1606 1608 1608 1608 1608 1608 1608 1608 1610 1613 1614 1615 1616 1617 1617 1617 1618 1619 1620 1620 1620 1621 1621 1621 1621 1621 1622 1622 1622 1622 1621 1619 1618 1618 1618 1617 1615 1613 1610 1608 1607 1607 1606 1604 1602 1600 1598 1598 1597 1595 1595 1594 1593 1592 1591 1591 1591 1590 1590 1589 1587 1587 1585 1583 1581 1580 1580 1579 1577 1575 1574 1572 1568 1565 1563 1561 1561 1561 1560 1558 1556 1555 1554 1554 1553 1552 1551 1549 1547 1545 1542 1538 1538 1533 1529 1525 1523 1515 1495 0 0 0 0 0 0 0 0 0 0 0 0 0 0 0 0 0 0 0 0 0 0 0 0 0 0 0 0 0 0 0 0 0 0 0 0 0 0 0 0 0 0 0 0 0 0 0 0 0 0 0 0 0 0 0 0 0 0 0 0 0 0 0 0 0 0 0 0 0 0
351 351 351 352 361 361 361 358 355 355 355 355 355 355 347 340 340 337 337 337 0 0 0 0 0 0 0 396 396 387 0 0 0 0 0 382 382 382 377 372 371 371 371 372 380 381 388 406 422 422 422 407 407 407 407 407 405 405 405 410 410 410 409 409 0 419 454 454 455 455 451 446 446 446 0 0 0 0 544 544 544 547 547 0 0 0 0 0 0 0 0 949 976 1001 1031 1044 1061 1079 1098 1119 1138 1162 1185 1205 0 0 0 1358 1372 1379 1384 1392 1393 1401 1407 1413 1419 1425 1434 1448 1451 1452 1453 1459 1466 1481 1495 1505 1514 1518 1524 1527 1531 1535 1539 1543 1547 1550 1554 1559 1564 1568 1573 1578 1580 1583 1585 1585 1586 1587 1589 1592 1595 1599 1605 1610 1614 1619 1623 1625 1628 1631 1633 1637 1641 1644 1647 1651 1654 1656 1660 1661 1665 1667 1669 1671 1672 1674 1679 1683 1687 1690 1691 1694 1698 1700 1703 1706 1709 1711 1715 1721 1726 1730 1732 1734 1735 1735 1737 1741 1744 1748 1752 1755 1758 1761 1763 1765 1766 1770 1775 1781 1785 1785 1788 1789 1790 1792 1794 1798 1800 1800 1800 1803 1807 1809 1814 1817 1820 1824 1827 1830 1832 1832 1832 1832 1832 1837 1837 1837 1839 1839 1842 1842 1842 1842 1842 1842 1846 1846 1846 1847 1847 1847 1855 1862 1866 1866 1866 1867 1868 1870 1871 1874 1874 1874 1875 1876 1881 1889 1889 1889 1888 1885 1884 1879 1867 1845 0 0 0 1646 1639 1630 1622 1618 1616 1610 1604 1600 1597 1596 1593 1591 1589 1588 1587 1585 1582 1580 1578 1576 1575 1573 1570 1567 1564 1562 1559 1558 1555 1554 1553 1552 1551 1550 1549 1547 1546 1545 1544 1543 1543 1542 1540 1539 1537 1535 1534 1532 1531 1529 1527 1526 1525 1524 1523 1523 1522 1521 1520 1519 1518 1518 1516 1515 1514 1514 1513 1513 1512 1511 1510 1510 1509 1508 1507 1507 1507 1507 1507 1506 1506 1505 1505 1504 1504 1504 1504 1504 1504 1505 1505 1504 1504 1503 1503 1503 1502 1502 1501 1500 1499 1499 1497 1496 1495 1495 1494 1494 1494 1493 1493 1493 1493 1493 1493 1492 1492 1492 1492 1493 1495 1497 1498 1499 1500 1500 1501 1501 1500 1500 1500 1500 1500 1500 1501 1500 1500 1493 1482 1472 1458 1449 1440 0 0 0 0 0 0 0 0 0 0 0 0 0 0 0 1023 1012 1012 1011 1008 1006 1003 1002 1002 1002 1006 1014 1021 0 0 0 0 0 0 0 1581 1605 1609 1609 1609 1606 1605 1603 1603 1603 1605 1605 1606 1606 1606 1606 1606 1606 1607 1608 1611 1613 1614 1615 1615 1616 1617 1618 1619 1620 1620 1620 1620 1620 1620 1620 1621 1621 1621 1621 1621 1620 1619 1617 1617 1616 1615 1614 1612 1610 1607 1606 1605 1605 1603 1602 1599 1597 1596 1594 1593 1593 1593 1592 1592 1589 1589 1588 1588 1588 1586 1585 1584 1583 1581 1579 1578 1576 1574 1573 1572 1572 1570 1567 1563 1560 1560 1559 1559 1558 1556 1554 1553 1552 1552 1551 1550 1547 1545 1544 1541 1541 1535 1534 1532 1529 1523 1518 1509 1490 0 0 0 0 0 0 0 0 0 0 0 0 0 0 0 0 0 0 0 0 0 0 0 0 0 0 0 0 0 0 0 0 0 0 0 0 0 0 0 0 0 0 0 0 0 0 0 0 0 0 0 0 0 0 0 0 0 0 0 0 0 0 0 0 0 0 0 0 0 0
351 351 351 352 364 370 370 370 367 360 360 360 360 360 359 353 352 352 353 364 0 0 0 0 0 0 402 403 403 402 394 0 0 0 0 0 0 392 391 388 384 380 380 380 381 383 394 406 422 422 422 410 410 410 411 411 411 411 411 411 412 414 426 442 0 0 475 475 470 467 464 464 464 475 0 0 524 543 545 545 545 553 553 0 0 0 0 0 0 0 0 949 976 1001 1031 1044 1067 1079 1098 1119 1138 1162 1187 1213 0 0 1340 1359 1372 1379 1387 1393 1393 1401 1407 1413 1419 1425 1434 1448 1459 1465 1468 1471 1480 1487 1496 1505 1514 1518 1524 1525 1530 1535 1539 1543 1547 1550 1554 1558 1563 1567 1571 1575 1579 1580 1582 1582 1584 1586 1588 1591 1594 1599 1605 1609 1610 1613 1618 1621 1624 1626 1627 1631 1638 1643 1646 1649 1651 1653 1655 1658 1662 1665 1665 1667 1668 1669 1673 1678 1684 1685 1688 1690 1693 1697 1699 1701 1703 1706 1711 1715 1720 1725 1728 1729 1730 1731 1734 1738 1740 1742 1747 1752 1757 1759 1762 1764 1765 1769 1773 1777 1778 1781 1785 1787 1788 1789 1792 1793 1793 1794 1795 1799 1803 1807 1808 1810 1813 1815 1818 1821 1821 1821 1820 1820 1820 1825 1829 1831 1832 1834 1837 1838 1838 1838 1838 1838 1838 1838 1838 1841 1841 1841 1849 1854 1858 1859 1859 1860 1861 1863 1867 1870 1872 1873 1873 1875 1875 1881 1881 1881 1881 1880 1878 1873 1860 1838 0 0 0 1643 1639 1629 1622 1617 1612 1607 1604 1600 1597 1594 1592 1591 1589 1588 1586 1584 1581 1579 1576 1575 1573 1570 1567 1564 1562 1560 1558 1556 1555 1552 1550 1549 1548 1548 1547 1546 1544 1542 1542 1541 1541 1541 1539 1538 1537 1535 1533 1532 1531 1529 1527 1525 1525 1523 1523 1522 1522 1521 1519 1518 1518 1517 1516 1515 1514 1514 1513 1511 1511 1511 1510 1509 1508 1508 1507 1507 1506 1505 1505 1505 1505 1505 1504 1504 1504 1504 1504 1504 1504 1504 1504 1504 1503 1503 1503 1502 1501 1501 1501 1499 1499 1498 1497 1495 1495 1495 1494 1494 1494 1493 1493 1493 1493 1493 1493 1492 1492 1492 1493 1494 1496 1497 1498 1499 1500 1500 1500 1500 1500 1500 1500 1500 1500 1500 1501 1500 1500 1494 1483 1479 1479 1476 1472 1468 0 0 0 0 0 0 0 0 0 0 0 0 0 0 0 0 1030 1020 1015 1013 1013 1010 1010 1010 1017 1035 0 0 0 0 0 0 0 0 1586 1605 1609 1609 1609 1606 1604 1602 1602 1602 1602 1603 1605 1605 1605 1605 1605 1605 1606 1607 1610 1612 1614 1614 1615 1616 1617 1618 1618 1619 1620 1620 1620 1620 1620 1620 1620 1620 1620 1619 1618 1617 1616 1614 1614 1613 1613 1612 1611 1607 1605 1604 1604 1604 1602 1600 1599 1596 1594 1592 1592 1591 1591 1590 1590 1588 1587 1586 1585 1584 1583 1583 1583 1581 1580 1576 1575 1574 1571 1570 1569 1569 1568 1564 1562 1560 1558 1557 1557 1557 1556 1554 1552 1551 1549 1547 1545 1544 1543 1541 1539 1536 1535 1534 1532 1528 1523 1511 1493 1482 0 0 0 0 0 0 0 0 0 0 0 0 0 0 0 0 0 0 0 0 0 0 0 0 0 0 0 0 0 0 0 0 0 0 0 0 0 0 0 0 0 0 0 0 0 0 0 0 0 0 0 0 0 0 0 0 0 0 0 0 0 0 0 0 0 0 0 0 0 0
338 338 342 351 365 372 378 378 378 365 364 364 364 367 369 371 373 373 381 0 0 0 0 0 0 0 416 416 416 417 417 0 0 0 0 0 0 403 403 403 402 402 401 388 388 388 396 409 422 422 422 410 410 410 413 416 418 420 421 422 422 426 0 0 493 501 501 503 501 494 485 485 485 494 516 526 535 546 548 548 561 561 561 0 0 0 0 0 0 0 0 0 976 999 1029 1044 1067 1084 1097 1119 1143 1165 1191 1213 0 1299 1343 1359 1372 1378 1387 1393 1393 1401 1416 1423 1429 1432 1441 1451 1461 1469 1474 1480 1485 1491 1497 1505 1512 1516 1521 1522 1529 1534 1540 1543 1547 1550 1553 1556 1561 1565 1570 1572 1576 1578 1578 1579 1581 1585 1588 1590 1594 1599 1603 1606 1606 1607 1610 1616 1621 1622 1625 1628 1635 1640 1645 1646 1649 1649 1651 1655 1659 1661 1663 1663 1665 1665 1668 1674 1680 1682 1685 1687 1691 1692 1694 1695 1699 1702 1705 1709 1712 1714 1717 1718 1722 1726 1729 1733 1736 1737 1739 1746 1752 1759 1762 1762 1764 1768 1770 1773 1774 1778 1781 1783 1786 1788 1788 1789 1789 1789 1792 1796 1800 1802 1803 1806 1808 1810 1810 1811 1811 1811 1812 1813 1815 1818 1822 1825 1825 1828 1832 1834 1834 1834 1832 1832 1831 1830 1830 1832 1833 1835 1841 1844 1845 1849 1853 1856 1857 1861 1864 1866 1870 1870 1870 1871 1871 1871 1875 1875 1875 1874 1872 1872 1857 1830 0 0 1662 1639 1637 1629 1621 1617 1612 1607 1603 1599 1596 1594 1592 1590 1588 1587 1585 1582 1579 1576 1575 1573 1571 1567 1565 1563 1560 1557 1556 1555 1553 1552 1550 1548 1546 1545 1544 1542 1541 1540 1540 1539 1539 1539 1539 1537 1536 1535 1533 1532 1531 1529 1527 1525 1524 1523 1522 1521 1521 1520 1519 1518 1517 1517 1516 1515 1514 1514 1513 1511 1511 1511 1509 1508 1508 1508 1507 1506 1506 1505 1504 1504 1504 1504 1504 1504 1503 1503 1503 1503 1503 1503 1503 1503 1503 1502 1502 1501 1501 1500 1499 1499 1498 1497 1497 1495 1495 1495 1494 1494 1494 1494 1493 1493 1493 1493 1493 1492 1492 1492 1494 1495 1496 1497 1498 1499 1500 1500 1500 1500 1500 1500 1500 1500 1500 1500 1500 1500 1500 1496 1489 1489 1489 1494 1496 1496 1496 1492 1492 0 0 0 0 0 0 0 0 0 0 0 0 0 0 0 0 1021 1014 1014 1014 1015 1027 0 0 0 0 0 0 0 0 1576 1600 1600 1600 1599 1599 1599 1600 1600 1600 1600 1600 1601 1603 1603 1604 1604 1604 1604 1606 1607 1610 1612 1613 1614 1615 1616 1617 1618 1618 1618 1618 1618 1618 1618 1618 1619 1619 1619 1618 1617 1616 1615 1614 1614 1612 1611 1610 1610 1609 1606 1605 1603 1603 1602 1601 1600 1598 1595 1593 1591 1590 1590 1589 1589 1589 1586 1586 1584 1582 1582 1581 1581 1581 1580 1577 1575 1574 1570 1567 1566 1565 1565 1564 1562 1560 1559 1557 1556 1556 1556 1556 1554 1552 1550 1546 1545 1543 1542 1541 1538 1537 1536 1535 1534 1532 1528 1523 1511 1493 0 0 0 0 0 0 0 0 0 0 0 0 0 0 0 0 0 0 0 0 0 0 0 0 0 0 0 0 0 0 0 0 0 0 0 0 0 0 0 0 0 0 0 0 0 0 0 0 0 0 0 0 0 0 0 0 0 0 0 0 0 0 0 0 0 0 0 0 0 0 0
338 338 342 351 367 374 382 382 382 379 364 364 364 368 378 388 394 396 397 0 0 420 429 437 437 444 444 444 444 433 433 433 433 467 467 467 439 419 419 419 421 421 421 419 404 404 404 412 415 415 415 410 410 410 413 417 422 432 442 447 450 451 0 0 496 515 515 515 514 503 485 485 485 494 537 543 550 554 560 561 568 568 583 612 0 0 0 0 0 0 0 0 0 0 0 1043 1057 1085 1097 1120 1143 1166 1191 1229 0 1317 1340 1358 1372 1378 1384 1393 1404 1414 1419 1426 1431 1438 1443 1451 1461 1469 1474 1480 1485 1491 1497 1505 1507 1511 1515 1520 1528 1534 1540 1543 1547 1549 1552 1554 1558 1563 1568 1569 1572 1574 1574 1575 1576 1581 1584 1590 1592 1596 1599 1601 1602 1603 1607 1613 1618 1621 1623 1627 1632 1638 1642 1644 1645 1646 1648 1651 1655 1659 1660 1661 1661 1663 1664 1668 1673 1677 1680 1683 1686 1689 1690 1692 1696 1698 1700 1701 1703 1707 1711 1716 1720 1724 1726 1730 1732 1734 1736 1741 1749 1756 1759 1760 1761 1764 1767 1769 1771 1774 1776 1778 1782 1784 1785 1785 1785 1787 1792 1794 1795 1795 1797 1802 1804 1804 1804 1804 1804 1804 1806 1808 1810 1812 1815 1819 1821 1823 1827 1828 1828 1828 1828 1827 1827 1826 1826 1826 1826 1830 1832 1832 1832 1836 1843 1849 1852 1854 1857 1859 1864 1868 1868 1868 1868 1868 1870 1870 1870 1861 1861 1860 1848 1820 0 0 1648 1633 1630 1629 1621 1614 1611 1607 1602 1599 1596 1593 1591 1589 1588 1586 1584 1581 1578 1575 1574 1571 1568 1566 1563 1561 1559 1557 1555 1554 1552 1549 1548 1546 1543 1541 1539 1539 1539 1539 1539 1539 1539 1539 1537 1536 1535 1534 1533 1532 1530 1528 1526 1525 1523 1522 1521 1520 1520 1519 1518 1518 1517 1517 1516 1515 1514 1513 1512 1511 1511 1509 1509 1508 1508 1507 1507 1506 1505 1505 1504 1504 1504 1504 1504 1503 1503 1503 1503 1503 1502 1502 1502 1502 1502 1502 1500 1500 1500 1499 1499 1498 1498 1497 1497 1495 1495 1495 1494 1494 1494 1494 1493 1493 1493 1492 1492 1492 1492 1492 1494 1495 1496 1497 1498 1499 1500 1500 1500 1500 1500 1500 1500 1501 1501 1501 1501 1501 1500 1496 1495 1495 1495 1503 1505 1509 1510 1510 1519 1524 1528 0 0 0 0 0 0 0 0 0 0 0 0 0 0 0 0 0 0 0 0 0 0 0 0 0 0 0 0 1593 1600 1600 1600 1596 1596 1596 1597 1597 1597 1598 1599 1599 1601 1602 1603 1604 1604 1604 1606 1607 1610 1612 1613 1614 1615 1616 1617 1618 1618 1618 1618 1618 1618 1618 1617 1617 1616 1616 1616 1616 1616 1614 1614 1613 1612 1611 1609 1607 1606 1605 1603 1602 1602 1600 1600 1599 1597 1595 1592 1590 1589 1589 1588 1588 1588 1585 1583 1581 1580 1579 1579 1578 1578 1576 1575 1572 1569 1566 1564 1562 1562 1562 1562 1561 1559 1559 1556 1555 1555 1554 1554 1554 1551 1549 1545 1544 1542 1540 1539 1537 1537 1535 1535 1534 1534 1528 1521 1510 1493 0 0 0 0 0 0 0 0 0 0 0 0 0 0 0 0 0 0 0 0 0 0 0 0 0 0 0 0 0 0 0 0 0 0 0 0 0 0 0 0 0 0 0 0 0 0 0 0 0 0 0 0 0 0 0 0 0 0 0 0 0 0 0 0 0 0 0 0 0 0 0
338 338 342 351 367 376 384 384 384 384 374 374 374 385 396 402 404 409 0 0 417 429 441 452 461 473 473 473 463 463 463 466 467 467 467 467 460 438 426 423 422 422 421 419 404 404 404 408 415 415 415 405 405 405 413 417 422 432 442 447 450 0 0 0 516 518 518 518 514 503 498 498 498 510 537 543 550 561 568 570 582 588 601 622 643 664 0 0 0 0 0 0 0 0 0 0 1051 1092 1097 1120 1143 1167 1191 0 0 1317 1338 1356 1367 1375 1384 1393 1404 1416 1423 1428 1432 1438 1443 1452 1461 1469 1474 1480 1485 1491 1497 1502 1505 1508 1512 1518 1526 1534 1540 1542 1543 1546 1549 1551 1553 1559 1562 1564 1566 1568 1570 1571 1571 1573 1577 1584 1589 1591 1592 1593 1595 1599 1603 1609 1614 1617 1621 1626 1629 1635 1639 1643 1643 1643 1645 1648 1652 1656 1656 1656 1658 1658 1660 1664 1666 1671 1675 1679 1683 1685 1686 1689 1693 1695 1695 1696 1699 1705 1709 1714 1719 1723 1725 1728 1731 1733 1736 1740 1746 1751 1756 1756 1757 1759 1765 1767 1768 1769 1771 1773 1776 1778 1779 1780 1782 1784 1786 1786 1786 1788 1788 1793 1793 1794 1794 1795 1795 1795 1799 1802 1803 1806 1808 1813 1815 1819 1821 1824 1824 1824 1824 1820 1818 1816 1816 1816 1821 1823 1823 1826 1828 1828 1837 1842 1842 1842 1843 1843 1852 1862 1862 1862 1862 1862 1861 1861 1861 1852 1831 1809 1799 1789 0 0 1642 1626 1624 1621 1621 1614 1610 1607 1601 1598 1595 1593 1590 1588 1587 1585 1583 1580 1577 1575 1573 1570 1567 1565 1562 1560 1559 1557 1554 1552 1550 1548 1546 1544 1542 1539 1537 1537 1537 1536 1536 1537 1537 1536 1536 1535 1533 1532 1531 1530 1528 1526 1525 1525 1523 1522 1521 1520 1519 1518 1517 1517 1516 1516 1515 1514 1513 1513 1512 1511 1509 1509 1508 1508 1507 1507 1507 1506 1505 1505 1504 1504 1504 1504 1504 1503 1503 1503 1503 1502 1502 1502 1501 1501 1500 1500 1499 1499 1498 1498 1498 1497 1497 1497 1496 1495 1495 1495 1494 1494 1494 1494 1494 1493 1493 1492 1492 1492 1492 1492 1494 1495 1496 1497 1498 1499 1500 1500 1500 1500 1500 1500 1501 1501 1501 1501 1501 1501 1500 1496 1496 1496 1499 1504 1510 1514 1517 1519 1526 1532 1543 1582 1596 1596 1596 0 0 0 0 0 0 0 0 0 0 0 0 0 0 0 0 0 0 0 0 0 0 0 1590 1598 1598 1598 1597 1595 1595 1595 1596 1597 1597 1597 1597 1598 1600 1602 1603 1604 1604 1605 1607 1608 1611 1612 1613 1615 1615 1616 1617 1618 1618 1618 1618 1618 1618 1618 1617 1616 1616 1616 1616 1616 1616 1614 1613 1613 1611 1609 1607 1605 1602 1602 1601 1601 1599 1597 1597 1596 1595 1593 1590 1588 1587 1587 1587 1586 1585 1583 1581 1578 1578 1577 1575 1575 1573 1572 1571 1568 1565 1564 1562 1561 1560 1560 1559 1558 1557 1555 1553 1551 1549 1549 1549 1549 1549 1547 1545 1543 1541 1540 1536 1534 1534 1534 1535 1535 1535 1531 1520 1510 1490 0 0 0 0 0 0 0 0 0 0 0 0 0 0 0 0 0 0 0 0 0 0 0 0 0 0 0 0 0 0 0 0 0 0 0 0 0 0 0 0 0 0 0 0 0 0 0 0 0 0 0 0 0 0 0 0 0 0 0 0 0 0 0 0 0 0 0 0 0 0 0
356 357 357 364 367 378 385 385 385 387 387 387 398 410 417 418 419 426 0 0 446 451 460 461 464 473 473 473 463 463 463 466 467 467 467 467 460 447 433 427 423 422 421 419 404 404 404 408 408 408 404 403 403 404 412 416 422 432 442 447 0 0 0 0 516 518 518 518 518 506 498 498 498 510 537 543 550 563 583 596 598 601 608 629 648 649 657 0 0 0 0 0 0 0 0 0 0 1092 1097 1120 1140 1167 0 0 1275 1317 1338 1351 1360 1369 1382 1393 1404 1416 1423 1428 1432 1438 1443 1451 1459 1465 1470 1476 1481 1488 1495 1499 1503 1504 1508 1514 1523 1531 1536 1537 1539 1541 1546 1548 1550 1552 1554 1557 1561 1562 1565 1565 1566 1566 1569 1572 1574 1576 1581 1584 1589 1595 1602 1606 1609 1609 1609 1615 1622 1631 1635 1636 1638 1639 1643 1645 1648 1651 1651 1652 1653 1653 1655 1659 1663 1668 1672 1676 1679 1682 1684 1686 1689 1690 1691 1692 1698 1704 1709 1713 1718 1721 1724 1727 1730 1733 1736 1739 1743 1747 1751 1752 1752 1755 1757 1763 1764 1764 1765 1765 1767 1770 1772 1775 1776 1777 1779 1781 1781 1783 1784 1784 1785 1785 1785 1785 1786 1790 1795 1795 1796 1797 1800 1805 1811 1816 1819 1820 1820 1820 1819 1816 1812 1812 1812 1813 1818 1820 1820 1820 1821 1825 1833 1833 1833 1834 1834 1834 1844 1852 1852 1852 1839 1837 1835 1835 1833 1831 1827 1809 1799 1784 0 0 1634 1620 1617 1617 1616 1614 1610 1607 1601 1597 1595 1592 1589 1588 1586 1585 1582 1579 1577 1574 1573 1570 1566 1563 1562 1560 1559 1556 1553 1551 1548 1546 1544 1543 1540 1539 1537 1536 1536 1535 1535 1535 1535 1535 1535 1534 1533 1532 1529 1528 1526 1524 1524 1523 1522 1522 1520 1519 1519 1518 1517 1516 1516 1515 1515 1514 1512 1511 1511 1510 1509 1508 1507 1507 1506 1506 1506 1505 1505 1504 1504 1504 1503 1503 1503 1502 1502 1501 1501 1501 1501 1501 1500 1500 1500 1499 1499 1498 1497 1497 1497 1496 1496 1496 1496 1495 1495 1495 1494 1494 1494 1494 1494 1493 1493 1492 1492 1492 1492 1492 1493 1495 1496 1497 1498 1499 1499 1499 1499 1499 1500 1500 1501 1501 1501 1501 1501 1501 1500 1499 1499 1499 1503 1507 1514 1518 1523 1525 1530 1545 1564 1606 1617 1617 1617 1615 1606 1589 1571 0 0 0 0 0 0 0 0 0 0 0 0 0 0 0 0 0 0 1594 1598 1598 1597 1597 1595 1595 1595 1595 1595 1596 1596 1596 1597 1598 1600 1602 1603 1605 1606 1606 1608 1610 1611 1614 1615 1616 1616 1617 1618 1618 1618 1618 1618 1618 1618 1618 1617 1616 1616 1616 1616 1616 1615 1614 1612 1611 1610 1608 1606 1603 1601 1599 1599 1599 1597 1596 1595 1593 1593 1590 1587 1584 1584 1584 1583 1582 1580 1577 1577 1576 1576 1575 1574 1571 1570 1569 1566 1564 1562 1561 1560 1559 1557 1557 1557 1554 1552 1551 1549 1547 1547 1547 1547 1547 1547 1547 1545 1543 1541 1540 1536 1534 1534 1534 1535 1535 1535 1531 1520 1510 1490 0 0 0 0 0 0 0 0 0 0 0 0 0 0 0 0 0 0 0 0 0 0 0 0 0 0 0 0 0 0 0 0 0 0 0 0 0 0 0 0 0 0 0 0 0 0 0 0 0 0 0 0 0 0 0 0 0 0 0 0 0 0 0 0 0 0 0 0 0 0 0
364 364 376 380 386 388 391 391 394 394 394 404 417 434 442 444 447 461 0 0 464 464 461 461 464 473 473 473 463 463 463 466 466 466 465 463 460 447 433 427 420 415 408 396 396 396 400 408 408 408 404 402 402 401 394 394 394 406 0 0 0 0 0 0 516 518 518 518 516 506 498 498 498 510 526 532 547 563 583 596 598 601 608 629 647 647 649 660 0 0 0 0 0 0 0 0 0 1092 1095 1120 1138 1167 0 1235 1275 1294 1309 1332 1351 1366 1378 1390 1404 1416 1423 1428 1432 1438 1443 1450 1456 1464 1467 1471 1474 1480 1488 1495 1499 1502 1506 1511 1519 1524 1529 1532 1534 1538 1541 1544 1545 1546 1549 1551 1554 1556 1558 1558 1559 1560 1560 1562 1562 1565 1569 1574 1582 1591 1597 1598 1598 1599 1601 1605 1613 1623 1627 1630 1633 1636 1639 1643 1645 1646 1648 1648 1650 1652 1653 1655 1659 1665 1668 1671 1672 1674 1676 1680 1682 1684 1688 1692 1697 1701 1703 1709 1714 1719 1721 1724 1728 1732 1735 1736 1741 1744 1747 1747 1749 1750 1751 1751 1751 1753 1754 1756 1759 1761 1764 1766 1769 1772 1775 1777 1778 1780 1782 1782 1782 1781 1781 1781 1784 1788 1790 1790 1791 1791 1794 1800 1806 1811 1813 1813 1814 1815 1815 1815 1811 1811 1811 1812 1815 1815 1817 1817 1820 1825 1830 1830 1830 1827 1827 1827 1830 1830 1830 1809 1809 1809 1812 1818 1824 1824 1824 1809 1799 1783 0 0 1626 1617 1615 1613 1613 1612 1609 1604 1599 1595 1594 1591 1588 1587 1585 1583 1581 1579 1576 1574 1571 1569 1566 1563 1561 1558 1557 1555 1553 1549 1547 1545 1543 1541 1538 1537 1536 1536 1535 1535 1535 1534 1534 1534 1534 1533 1531 1529 1527 1526 1525 1523 1523 1522 1522 1521 1519 1518 1518 1517 1516 1516 1514 1514 1514 1513 1512 1511 1510 1510 1509 1507 1506 1506 1506 1505 1504 1503 1503 1503 1503 1502 1502 1502 1501 1501 1501 1500 1500 1500 1500 1500 1499 1499 1499 1498 1498 1497 1497 1497 1497 1496 1496 1496 1495 1495 1495 1494 1494 1494 1494 1493 1493 1493 1493 1492 1492 1491 1491 1491 1493 1494 1496 1497 1497 1498 1498 1499 1499 1499 1500 1501 1502 1502 1502 1502 1501 1501 1500 1500 1500 1502 1509 1514 1518 1521 1524 1529 1543 1560 1572 1607 1625 1625 1625 1621 1621 1613 1602 1591 1577 1574 0 0 0 0 0 0 0 0 0 0 0 0 0 0 1594 1597 1598 1598 1597 1597 1594 1594 1594 1595 1595 1596 1596 1596 1597 1598 1600 1602 1605 1607 1608 1609 1611 1612 1613 1615 1616 1617 1618 1618 1618 1619 1619 1619 1619 1618 1618 1618 1618 1616 1616 1616 1615 1615 1614 1613 1611 1608 1608 1607 1604 1602 1600 1598 1598 1597 1596 1595 1592 1591 1588 1585 1583 1581 1581 1581 1580 1578 1574 1573 1572 1572 1572 1571 1570 1569 1568 1566 1563 1560 1558 1558 1558 1557 1555 1555 1555 1553 1551 1548 1547 1546 1545 1545 1546 1546 1546 1546 1544 1542 1541 1539 1536 1534 1534 1534 1535 1535 1535 1531 1518 1504 1487 0 0 0 0 0 0 0 0 0 0 0 0 0 0 0 0 0 0 0 0 0 0 0 0 0 0 0 0 0 0 0 0 0 0 0 0 0 0 0 0 0 0 0 0 0 0 0 0 0 0 0 0 0 0 0 0 0 0 0 0 0 0 0 0 0 0 0 0 0 0 0
364 364 376 396 396 405 407 412 415 415 417 418 425 434 442 444 447 461 464 464 464 464 460 457 457 449 438 438 438 442 451 454 454 454 454 454 453 447 435 427 420 406 393 379 379 379 392 394 395 396 401 401 401 398 389 389 389 389 390 0 0 0 0 0 508 509 510 514 514 514 508 508 508 510 516 532 547 563 583 596 598 601 608 629 633 640 649 657 0 0 0 0 0 0 0 0 0 0 1095 1112 1131 0 0 1234 1243 1271 1286 1302 1335 1351 1373 1388 1401 1409 1420 1427 1432 1436 1441 1445 1452 1457 1463 1466 1470 1475 1482 1488 1494 1500 1504 1511 1516 1519 1519 1524 1530 1534 1538 1539 1539 1541 1544 1546 1549 1550 1551 1551 1552 1552 1555 1558 1561 1565 1569 1572 1577 1583 1589 1592 1593 1593 1595 1600 1608 1617 1622 1627 1629 1633 1638 1641 1643 1645 1646 1646 1647 1650 1653 1655 1659 1662 1664 1667 1668 1670 1672 1675 1677 1680 1685 1690 1693 1697 1700 1704 1708 1713 1718 1721 1723 1729 1733 1734 1739 1740 1742 1742 1743 1745 1745 1746 1746 1747 1749 1749 1751 1755 1757 1760 1763 1767 1770 1773 1775 1776 1778 1780 1780 1781 1781 1781 1784 1786 1786 1787 1787 1787 1793 1797 1804 1806 1806 1807 1810 1814 1814 1814 1808 1808 1808 1811 1813 1814 1814 1815 1819 1823 1824 1824 1824 1822 1822 1822 1828 1828 1828 1807 1807 1807 1812 1818 1824 1839 1839 1839 1823 0 0 1652 1626 1614 1609 1607 1606 1606 1605 1599 1596 1594 1592 1590 1588 1586 1584 1582 1580 1579 1576 1573 1570 1567 1564 1562 1559 1557 1554 1553 1550 1548 1546 1544 1542 1539 1537 1535 1534 1534 1534 1533 1533 1533 1533 1533 1532 1531 1530 1528 1527 1525 1523 1522 1522 1521 1520 1520 1519 1518 1517 1517 1515 1515 1514 1514 1512 1511 1511 1511 1510 1510 1508 1507 1506 1505 1505 1505 1503 1502 1502 1501 1501 1501 1500 1500 1500 1500 1500 1499 1499 1499 1499 1499 1499 1499 1499 1497 1497 1497 1496 1496 1496 1496 1495 1495 1495 1494 1494 1494 1493 1493 1493 1493 1493 1493 1492 1492 1491 1491 1491 1491 1492 1493 1494 1495 1495 1496 1497 1497 1497 1498 1499 1500 1502 1502 1502 1502 1502 1502 1502 1502 1502 1506 1512 1518 1523 1528 1531 1532 1544 1568 1586 1617 1636 1636 1636 1635 1629 1620 1613 1606 1597 1591 1590 1582 0 0 0 0 0 0 0 0 0 1586 1597 1598 1598 1598 1598 1598 1597 1596 1594 1594 1594 1594 1596 1596 1597 1597 1597 1598 1600 1604 1607 1609 1611 1611 1613 1613 1615 1616 1618 1618 1618 1619 1619 1619 1619 1619 1619 1619 1618 1618 1618 1616 1616 1615 1615 1615 1613 1612 1609 1608 1605 1603 1602 1601 1599 1596 1596 1595 1594 1593 1591 1588 1585 1583 1580 1579 1578 1578 1578 1575 1571 1570 1569 1567 1567 1566 1566 1566 1566 1563 1559 1558 1554 1554 1554 1554 1553 1553 1553 1552 1550 1548 1546 1545 1545 1545 1545 1545 1545 1545 1544 1542 1541 1539 1536 1534 1534 1534 1535 1535 1535 1529 1514 1490 1473 0 0 0 0 0 0 0 0 0 0 0 0 0 0 0 0 0 0 0 0 0 0 0 0 0 0 0 0 0 0 0 0 0 0 0 0 0 0 0 0 0 0 0 0 0 0 0 0 0 0 0 0 0 0 0 0 0 0 0 0 0 0 0 0 0 0 0 0 0 0 0
365 365 378 396 397 412 412 415 422 422 423 425 425 434 442 444 447 461 464 464 464 455 445 442 435 433 432 432 433 437 446 446 447 447 446 444 444 441 435 429 420 406 393 379 379 379 386 392 394 395 395 395 395 395 389 389 381 373 372 372 0 0 0 0 468 472 490 506 514 514 514 513 513 513 516 532 547 563 565 569 581 588 594 605 608 616 627 650 0 0 0 0 0 0 0 0 0 0 0 0 0 0 0 1210 1241 1270 1277 1291 1322 1337 1356 1381 1391 1394 1402 1416 1425 1431 1437 1444 1447 1456 1462 1465 1469 1474 1479 1480 1485 1495 1502 1509 1512 1514 1516 1520 1526 1530 1532 1534 1536 1537 1541 1544 1546 1546 1548 1549 1551 1551 1553 1557 1561 1564 1568 1572 1574 1578 1582 1585 1588 1589 1594 1600 1607 1614 1621 1623 1626 1631 1637 1641 1642 1644 1644 1645 1646 1650 1652 1653 1655 1657 1657 1658 1663 1667 1670 1672 1673 1677 1684 1687 1690 1693 1696 1698 1702 1706 1710 1713 1716 1719 1724 1732 1738 1738 1738 1738 1738 1738 1740 1741 1742 1744 1745 1747 1748 1750 1753 1754 1758 1761 1764 1769 1771 1773 1774 1778 1778 1779 1779 1780 1782 1782 1782 1780 1780 1780 1787 1796 1798 1799 1799 1801 1808 1811 1811 1811 1808 1808 1808 1810 1811 1813 1814 1814 1815 1821 1821 1821 1817 1812 1812 1812 1815 1815 1815 1807 1807 1807 1812 1818 1827 1841 1841 1841 1833 0 0 1650 1625 1612 1601 1598 1598 1598 1598 1598 1596 1593 1591 1589 1587 1584 1582 1580 1579 1578 1575 1572 1569 1566 1564 1561 1559 1555 1553 1550 1548 1545 1544 1543 1540 1538 1536 1535 1534 1533 1532 1532 1531 1531 1531 1531 1531 1529 1528 1528 1526 1525 1522 1521 1520 1520 1519 1518 1517 1517 1516 1515 1515 1514 1513 1513 1512 1511 1510 1509 1508 1508 1507 1506 1505 1505 1505 1504 1503 1502 1501 1500 1500 1499 1499 1499 1499 1499 1499 1499 1499 1499 1499 1498 1498 1498 1497 1496 1496 1496 1496 1495 1495 1495 1495 1494 1493 1493 1493 1493 1493 1493 1493 1493 1493 1493 1492 1492 1491 1491 1491 1491 1491 1492 1493 1494 1495 1495 1496 1496 1496 1497 1498 1500 1501 1502 1502 1502 1503 1503 1503 1503 1505 1510 1517 1522 1528 1534 1535 1538 1551 1568 1589 1630 1645 1645 1645 1644 1638 1630 1621 1619 1616 1613 1609 1604 1588 1579 1574 1568 0 0 0 1582 1591 1596 1598 1598 1598 1598 1598 1598 1597 1594 1594 1594 1594 1594 1596 1597 1597 1598 1598 1601 1603 1607 1609 1611 1613 1615 1616 1618 1618 1618 1618 1619 1619 1619 1619 1619 1619 1619 1619 1618 1618 1618 1618 1616 1615 1614 1614 1613 1613 1611 1609 1607 1604 1603 1601 1599 1597 1595 1593 1592 1592 1590 1588 1585 1582 1580 1578 1576 1574 1573 1572 1571 1568 1567 1566 1563 1563 1563 1563 1563 1562 1558 1554 1553 1551 1550 1549 1548 1548 1548 1549 1549 1549 1548 1546 1542 1542 1542 1542 1543 1544 1544 1544 1542 1541 1540 1537 1534 1534 1532 1529 1529 1525 1524 1503 1483 1469 0 0 0 0 0 0 0 0 0 0 0 0 0 0 0 0 0 0 0 0 0 0 0 0 0 0 0 0 0 0 0 0 0 0 0 0 0 0 0 0 0 0 0 0 0 0 0 0 0 0 0 0 0 0 0 0 0 0 0 0 0 0 0 0 0 0 0 0 0 0 0
365 365 378 397 397 412 412 415 422 422 423 425 425 431 433 433 435 435 437 437 437 430 430 429 428 428 428 431 433 435 442 442 442 442 442 441 440 440 435 429 425 406 393 379 379 379 381 386 391 394 394 395 395 393 393 389 381 373 372 372 372 0 0 0 458 470 474 487 500 519 519 519 517 517 517 547 558 563 565 569 581 588 594 602 606 608 620 650 685 0 0 0 0 0 0 0 0 0 0 0 0 0 0 1206 1223 1248 1275 1290 1302 1319 1339 1360 1377 1383 1389 1403 1417 1423 1432 1439 1447 1456 1458 1464 1469 1473 1474 1475 1481 1489 1497 1503 1507 1510 1512 1517 1522 1524 1527 1528 1530 1533 1537 1540 1544 1545 1548 1549 1550 1551 1552 1557 1560 1564 1567 1569 1570 1573 1577 1581 1584 1589 1594 1600 1606 1612 1617 1621 1623 1628 1634 1640 1642 1643 1643 1643 1644 1644 1645 1646 1648 1649 1649 1654 1660 1665 1668 1671 1672 1673 1680 1684 1687 1690 1694 1695 1697 1700 1703 1703 1704 1706 1710 1713 1719 1724 1727 1728 1729 1730 1731 1732 1734 1735 1737 1739 1742 1745 1747 1748 1751 1754 1757 1761 1766 1768 1768 1769 1769 1769 1770 1776 1776 1776 1776 1772 1772 1772 1773 1780 1787 1790 1793 1796 1803 1804 1804 1804 1803 1803 1803 1807 1811 1811 1811 1813 1813 1814 1814 1814 1808 1805 1805 1808 1815 1815 1821 1828 1828 1844 1857 1859 1860 1865 1865 1865 1837 0 0 1645 1625 1609 1598 1595 1595 1595 1596 1596 1596 1592 1589 1587 1586 1582 1581 1579 1577 1576 1575 1572 1568 1566 1564 1561 1558 1555 1553 1550 1548 1545 1543 1540 1538 1537 1535 1534 1533 1533 1532 1532 1531 1530 1530 1529 1528 1528 1527 1527 1526 1524 1522 1521 1519 1519 1517 1516 1516 1515 1515 1514 1514 1513 1513 1512 1512 1511 1510 1509 1508 1507 1506 1505 1504 1504 1504 1504 1503 1501 1500 1499 1499 1498 1498 1498 1497 1497 1498 1498 1498 1498 1498 1498 1497 1497 1496 1495 1495 1495 1494 1494 1494 1493 1493 1493 1493 1493 1493 1492 1492 1492 1492 1492 1492 1491 1491 1490 1490 1490 1490 1490 1491 1492 1493 1494 1494 1495 1496 1496 1496 1497 1498 1499 1500 1501 1501 1502 1504 1505 1505 1507 1510 1516 1520 1524 1529 1537 1541 1549 1564 1570 1604 1631 1649 1649 1649 1647 1641 1633 1627 1623 1622 1621 1621 1614 1609 1606 1601 1592 1589 1589 1589 1594 1596 1599 1599 1599 1599 1598 1598 1597 1597 1595 1594 1594 1594 1595 1596 1597 1598 1598 1600 1605 1608 1610 1611 1612 1616 1617 1619 1619 1620 1620 1620 1620 1620 1620 1620 1619 1619 1619 1618 1618 1618 1617 1616 1616 1614 1613 1613 1612 1612 1611 1609 1606 1603 1600 1599 1598 1595 1594 1592 1592 1591 1588 1585 1582 1580 1579 1576 1574 1570 1568 1567 1567 1565 1564 1563 1562 1560 1559 1559 1558 1556 1554 1553 1549 1546 1546 1545 1543 1543 1543 1545 1545 1545 1544 1543 1541 1540 1539 1538 1538 1538 1539 1540 1540 1540 1539 1539 1539 1536 1530 1523 1519 1518 1514 1499 1478 1466 0 0 0 0 0 0 0 0 0 0 0 0 0 0 0 0 0 0 0 0 0 0 0 0 0 0 0 0 0 0 0 0 0 0 0 0 0 0 0 0 0 0 0 0 0 0 0 0 0 0 0 0 0 0 0 0 0 0 0 0 0 0 0 0 0 0 0 0 0 0 0
362 362 376 396 397 411 412 415 422 422 422 420 416 416 416 416 417 420 427 427 427 427 426 426 426 427 428 431 431 432 436 441 441 441 440 440 440 439 435 429 425 411 394 383 381 381 381 385 391 395 395 395 394 393 393 393 393 373 372 372 372 372 380 412 450 468 472 477 483 507 530 530 530 536 539 547 558 565 569 571 581 584 594 602 606 608 620 638 664 683 0 0 0 0 0 0 0 0 0 0 0 0 0 0 1198 1227 1256 1278 1299 1308 1332 1348 1365 1378 1389 1398 1408 1419 1424 1432 1441 1449 1452 1458 1463 1467 1468 1474 1479 1486 1491 1497 1499 1500 1506 1511 1514 1516 1520 1522 1524 1528 1533 1537 1540 1542 1546 1549 1549 1551 1552 1555 1558 1563 1564 1565 1566 1569 1572 1578 1582 1587 1593 1599 1603 1609 1614 1616 1620 1623 1630 1637 1637 1637 1637 1636 1635 1635 1635 1640 1642 1646 1648 1653 1659 1665 1668 1670 1671 1671 1676 1680 1684 1686 1691 1694 1695 1696 1696 1696 1696 1696 1697 1703 1708 1712 1715 1721 1723 1723 1723 1722 1722 1722 1726 1732 1734 1736 1737 1739 1743 1746 1750 1754 1758 1758 1758 1757 1757 1757 1766 1772 1772 1772 1770 1764 1764 1764 1766 1773 1779 1784 1786 1790 1796 1798 1798 1798 1794 1794 1794 1799 1802 1803 1803 1802 1804 1804 1797 1804 1805 1805 1805 1808 1815 1834 1842 1847 1855 1868 1874 1874 1874 1874 1874 1872 0 0 0 1643 1626 1609 1598 1593 1593 1593 1595 1595 1595 1591 1589 1585 1584 1582 1580 1577 1576 1574 1572 1570 1568 1566 1563 1561 1557 1555 1552 1550 1548 1545 1542 1540 1537 1535 1533 1532 1532 1531 1531 1530 1530 1530 1529 1528 1528 1527 1526 1526 1526 1524 1522 1521 1519 1518 1516 1516 1515 1515 1514 1514 1512 1512 1512 1512 1511 1510 1509 1507 1507 1506 1505 1504 1504 1503 1503 1503 1502 1500 1500 1499 1498 1498 1498 1497 1497 1496 1496 1496 1497 1497 1497 1497 1497 1496 1495 1494 1494 1494 1493 1492 1492 1492 1492 1492 1492 1492 1492 1492 1491 1491 1491 1491 1491 1490 1490 1490 1490 1490 1490 1490 1491 1491 1493 1494 1494 1495 1495 1495 1495 1495 1497 1497 1499 1500 1502 1502 1505 1506 1509 1511 1515 1519 1521 1526 1534 1542 1549 1559 1575 1579 1608 1638 1651 1651 1651 1649 1641 1636 1629 1623 1622 1622 1621 1621 1620 1617 1614 1614 1610 1604 1602 1602 1600 1600 1600 1598 1596 1596 1596 1595 1595 1596 1596 1596 1596 1597 1597 1597 1599 1600 1603 1606 1609 1610 1612 1615 1617 1619 1622 1622 1622 1622 1621 1621 1621 1620 1620 1620 1620 1619 1618 1618 1618 1617 1616 1615 1613 1611 1611 1611 1610 1609 1607 1604 1602 1600 1597 1596 1594 1593 1592 1592 1591 1588 1584 1581 1577 1576 1574 1571 1567 1564 1564 1564 1564 1562 1560 1560 1557 1557 1555 1554 1552 1550 1548 1545 1543 1542 1540 1539 1539 1539 1542 1542 1542 1542 1540 1538 1538 1536 1532 1531 1531 1531 1534 1535 1539 1539 1539 1539 1536 1528 1515 1508 1507 1507 1497 1467 1450 0 0 0 0 0 0 0 0 0 0 0 0 0 0 0 0 0 0 0 0 0 0 0 0 0 0 0 0 0 0 0 0 0 0 0 0 0 0 0 0 0 0 0 0 0 0 0 0 0 0 0 0 0 0 0 0 0 0 0 0 0 0 0 0 0 0 0 0 0 0 0
362 362 376 394 397 405 408 409 410 417 417 417 403 403 403 406 416 420 427 427 427 426 426 426 426 428 430 430 430 431 434 439 439 439 439 439 439 438 434 426 425 417 404 387 381 381 381 385 391 395 395 395 394 393 393 393 393 393 385 372 372 372 380 412 450 466 472 475 479 496 530 530 530 536 539 557 565 566 572 584 584 585 595 602 606 608 620 638 658 671 684 0 0 0 0 0 0 0 0 0 0 0 0 0 0 0 0 0 1284 1305 1330 1348 1364 1377 1387 1397 1407 1416 1420 1425 1434 1443 1449 1453 1457 1461 1464 1470 1476 1482 1487 1492 1492 1493 1495 1496 1499 1506 1510 1515 1519 1523 1527 1530 1532 1537 1543 1545 1546 1548 1549 1553 1556 1559 1559 1560 1561 1563 1568 1575 1579 1584 1586 1591 1598 1605 1609 1612 1613 1616 1625 1628 1628 1628 1624 1624 1624 1627 1633 1637 1640 1644 1646 1651 1655 1661 1663 1666 1669 1671 1673 1675 1680 1684 1688 1689 1690 1690 1690 1690 1690 1690 1691 1695 1699 1703 1708 1713 1713 1713 1713 1712 1712 1712 1720 1727 1727 1727 1727 1727 1732 1737 1742 1747 1750 1750 1750 1752 1752 1752 1761 1761 1761 1761 1760 1759 1759 1759 1766 1769 1773 1776 1777 1783 1788 1790 1790 1790 1781 1775 1775 1775 1775 1776 1777 1777 1778 1787 1797 1804 1805 1808 1808 1826 1850 1863 1881 1882 1882 1888 1891 1891 1891 1886 1885 1883 0 0 0 1640 1626 1609 1598 1592 1591 1591 1591 1591 1591 1591 1587 1584 1582 1580 1579 1577 1576 1574 1571 1568 1566 1564 1563 1560 1557 1555 1552 1550 1548 1545 1542 1539 1537 1535 1532 1532 1530 1530 1529 1529 1529 1529 1527 1527 1527 1527 1525 1524 1523 1522 1521 1520 1518 1517 1516 1515 1515 1514 1514 1513 1512 1511 1511 1511 1510 1509 1509 1507 1506 1505 1505 1503 1503 1502 1501 1501 1500 1499 1499 1499 1497 1497 1497 1496 1495 1495 1495 1495 1495 1496 1496 1495 1495 1495 1494 1493 1493 1492 1492 1491 1491 1491 1491 1491 1491 1491 1491 1491 1491 1490 1490 1490 1490 1490 1489 1489 1489 1489 1489 1490 1490 1490 1491 1493 1493 1494 1494 1494 1494 1495 1497 1497 1498 1500 1502 1504 1505 1508 1510 1513 1518 1520 1522 1529 1539 1548 1561 1571 1576 1588 1614 1641 1649 1649 1649 1647 1642 1636 1629 1623 1622 1622 1621 1621 1620 1617 1617 1617 1617 1617 1610 1605 1604 1603 1600 1598 1596 1596 1596 1595 1596 1596 1597 1597 1597 1597 1597 1597 1599 1600 1603 1607 1610 1612 1614 1615 1618 1621 1622 1622 1622 1622 1622 1621 1621 1621 1620 1620 1620 1619 1618 1618 1617 1616 1615 1613 1611 1610 1610 1610 1608 1607 1605 1602 1601 1599 1596 1595 1593 1592 1591 1591 1591 1588 1584 1579 1575 1574 1571 1567 1564 1563 1561 1561 1560 1560 1558 1556 1555 1553 1551 1549 1547 1547 1545 1543 1541 1539 1537 1535 1535 1535 1538 1539 1539 1539 1536 1534 1533 1533 1530 1526 1525 1525 1525 1530 1534 1539 1539 1539 1536 1522 1501 1498 1498 1495 1487 1444 1420 0 0 0 0 0 0 0 0 0 0 0 0 0 0 0 0 0 0 0 0 0 0 0 0 0 0 0 0 0 0 0 0 0 0 0 0 0 0 0 0 0 0 0 0 0 0 0 0 0 0 0 0 0 0 0 0 0 0 0 0 0 0 0 0 0 0 0 0 0 0 0
360 360 370 380 382 382 384 385 387 401 403 403 403 403 403 406 414 420 425 425 425 425 425 425 425 428 429 430 430 431 433 437 437 437 437 437 437 437 434 426 425 418 405 390 390 387 387 390 391 395 395 395 394 391 391 393 394 393 393 397 398 398 413 426 457 468 472 475 479 489 507 535 537 541 553 565 573 574 574 584 586 588 598 609 610 611 622 634 654 659 665 0 0 0 0 0 0 0 0 0 0 0 0 0 0 0 0 0 0 1291 1326 1345 1364 1375 1378 1386 1399 1408 1409 1411 1416 1425 1434 1444 1446 1453 1457 1465 1471 1473 1479 1484 1484 1484 1484 1484 1489 1494 1500 1509 1516 1517 1520 1523 1527 1535 1538 1541 1542 1544 1547 1551 1553 1555 1556 1556 1557 1561 1565 1568 1571 1575 1578 1584 1592 1599 1603 1606 1606 1608 1612 1612 1612 1612 1612 1612 1616 1622 1628 1634 1635 1637 1637 1638 1641 1648 1654 1659 1661 1664 1666 1670 1674 1680 1683 1685 1685 1686 1687 1687 1687 1687 1688 1688 1693 1697 1702 1704 1704 1704 1704 1704 1704 1707 1717 1717 1717 1717 1717 1717 1724 1730 1735 1739 1743 1743 1743 1744 1745 1749 1756 1756 1756 1750 1750 1750 1751 1757 1765 1766 1767 1767 1768 1774 1776 1776 1776 1772 1760 1758 1758 1758 1769 1775 1777 1777 1778 1787 1804 1831 1849 1850 1858 1871 1886 1895 1902 1907 1909 1909 1917 1917 1917 1907 1904 1898 0 0 0 1638 1625 1609 1598 1592 1588 1588 1588 1586 1586 1586 1585 1582 1581 1580 1579 1577 1575 1572 1569 1567 1565 1563 1561 1559 1557 1555 1552 1550 1548 1546 1542 1539 1537 1535 1532 1531 1529 1529 1529 1528 1528 1527 1526 1525 1525 1525 1525 1524 1523 1521 1520 1518 1517 1516 1516 1515 1514 1514 1513 1513 1512 1511 1511 1511 1510 1508 1507 1506 1505 1505 1504 1503 1502 1501 1501 1499 1499 1498 1498 1497 1496 1496 1495 1495 1494 1494 1494 1494 1494 1494 1494 1494 1494 1493 1492 1492 1492 1491 1491 1490 1490 1490 1490 1490 1490 1490 1490 1490 1490 1490 1490 1490 1490 1489 1488 1488 1488 1489 1489 1489 1489 1489 1490 1491 1492 1493 1493 1493 1494 1495 1497 1497 1498 1500 1502 1504 1506 1509 1513 1516 1520 1522 1526 1532 1539 1548 1561 1571 1585 1603 1628 1642 1648 1648 1648 1645 1642 1636 1629 1623 1622 1622 1621 1620 1620 1617 1617 1617 1618 1618 1618 1610 1607 1607 1601 1598 1596 1596 1596 1596 1596 1597 1597 1597 1597 1597 1597 1597 1599 1601 1605 1608 1610 1613 1614 1615 1618 1621 1622 1622 1622 1622 1622 1621 1621 1621 1620 1620 1619 1618 1617 1616 1615 1614 1613 1612 1611 1609 1608 1608 1606 1604 1604 1601 1599 1598 1595 1593 1591 1589 1589 1589 1589 1587 1584 1579 1574 1571 1569 1567 1564 1562 1559 1558 1558 1557 1554 1553 1551 1550 1549 1547 1545 1545 1544 1542 1540 1538 1535 1533 1533 1533 1536 1536 1536 1532 1531 1531 1531 1530 1529 1525 1524 1524 1524 1525 1525 1529 1531 1531 1531 1506 1491 1487 1485 1484 1477 1444 1410 0 0 0 0 0 0 0 0 0 0 0 0 0 0 0 0 0 0 0 0 0 0 0 0 0 0 0 0 0 0 0 0 0 0 0 0 0 0 0 0 0 0 0 0 0 0 0 0 0 0 0 0 0 0 0 0 0 0 0 0 0 0 0 0 0 0 0 0 0 0 0
353 353 357 364 365 370 371 377 385 394 398 401 401 403 403 406 414 421 425 425 425 425 425 425 425 428 429 430 430 431 433 433 433 434 436 437 437 437 434 426 425 418 405 390 390 390 392 394 394 394 394 393 387 376 0 0 0 393 393 397 398 398 419 435 458 470 473 477 479 486 496 516 539 558 568 573 574 574 574 584 590 593 599 610 614 618 622 634 638 640 642 642 0 0 0 0 0 0 0 0 0 0 0 0 0 0 0 0 0 0 0 1345 1361 1365 1372 1375 1377 1389 1390 1391 1401 1413 1424 1436 1438 1443 1444 1446 1449 1455 1462 1469 1471 1472 1474 1478 1482 1487 1496 1506 1511 1513 1514 1515 1520 1527 1531 1534 1538 1542 1544 1547 1551 1552 1553 1555 1556 1560 1563 1566 1568 1571 1574 1580 1586 1595 1598 1599 1599 1600 1605 1606 1606 1606 1606 1607 1611 1617 1623 1628 1628 1629 1630 1630 1632 1637 1643 1648 1651 1654 1657 1662 1668 1673 1677 1679 1679 1680 1681 1682 1683 1683 1683 1685 1687 1691 1695 1698 1698 1698 1697 1697 1697 1700 1707 1708 1708 1711 1711 1711 1718 1724 1727 1735 1736 1736 1737 1738 1738 1742 1748 1748 1748 1748 1748 1748 1749 1755 1762 1762 1762 1759 1759 1759 1759 1760 1760 1760 1749 1758 1758 1758 1769 1775 1777 1778 1787 1812 1842 1853 1859 1869 1880 1896 1906 1913 1924 1926 1926 1928 1940 1948 1948 1948 1939 0 0 0 0 1632 1625 1609 1598 1592 1588 1585 1583 1582 1581 1581 1581 1581 1581 1580 1578 1576 1574 1571 1568 1567 1565 1563 1560 1558 1556 1555 1552 1550 1548 1546 1543 1540 1537 1535 1532 1531 1529 1529 1528 1528 1527 1526 1524 1524 1524 1524 1523 1523 1522 1520 1518 1517 1517 1516 1515 1514 1514 1513 1512 1512 1511 1511 1511 1510 1509 1508 1507 1505 1505 1504 1504 1502 1501 1500 1498 1497 1497 1497 1497 1497 1496 1495 1495 1494 1494 1494 1494 1493 1493 1493 1493 1493 1492 1492 1491 1490 1490 1490 1490 1489 1489 1489 1489 1489 1489 1489 1488 1488 1488 1488 1488 1488 1488 1488 1488 1488 1488 1489 1489 1489 1489 1489 1489 1490 1491 1493 1493 1493 1494 1496 1496 1497 1498 1500 1503 1506 1508 1512 1514 1518 1521 1523 1526 1532 1539 1548 1561 1571 1586 1618 1641 1644 1647 1647 1647 1647 1642 1639 1631 1623 1622 1621 1620 1619 1617 1617 1617 1617 1618 1618 1618 1611 1608 1607 1604 1599 1597 1596 1596 1596 1597 1598 1598 1598 1598 1598 1598 1598 1599 1603 1607 1610 1612 1613 1614 1616 1618 1621 1622 1622 1622 1622 1621 1621 1621 1621 1620 1619 1618 1617 1616 1615 1614 1612 1611 1610 1608 1608 1607 1606 1605 1603 1601 1599 1598 1596 1595 1591 1588 1585 1585 1585 1584 1584 1583 1578 1574 1570 1568 1567 1564 1561 1559 1558 1556 1554 1552 1550 1549 1549 1547 1546 1545 1543 1542 1541 1540 1537 1532 1530 1530 1529 1528 1528 1527 1527 1527 1527 1527 1527 1527 1524 1523 1522 1521 1518 1514 1514 1513 1512 1505 1490 1485 1477 1477 1477 1466 1443 0 0 0 0 0 0 0 0 0 0 0 0 0 0 0 0 0 0 0 0 0 0 0 0 0 0 0 0 0 0 0 0 0 0 0 0 0 0 0 0 0 0 0 0 0 0 0 0 0 0 0 0 0 0 0 0 0 0 0 0 0 0 0 0 0 0 0 0 0 0 0 0
347 348 348 350 356 361 363 371 384 390 396 398 401 409 409 414 416 421 421 421 423 423 423 424 425 425 428 429 429 431 431 431 430 430 430 436 436 436 434 430 422 418 405 390 390 390 397 404 404 404 397 388 387 0 0 0 0 376 388 393 398 398 0 0 465 480 482 486 486 486 493 506 539 558 568 573 574 574 574 579 586 594 599 610 614 618 621 621 622 625 625 640 651 0 0 0 0 0 0 0 0 0 0 0 0 0 0 0 0 0 0 0 0 1356 1358 1358 1362 1364 1367 1367 1382 1404 1417 1426 1431 1431 1433 1434 1435 1439 1446 1453 1459 1462 1466 1471 1478 1486 1493 1500 1505 1507 1509 1511 1514 1517 1521 1528 1533 1538 1543 1545 1548 1548 1549 1551 1552 1557 1561 1564 1567 1571 1572 1577 1582 1588 1589 1591 1592 1592 1598 1601 1601 1602 1602 1602 1607 1611 1615 1619 1620 1621 1622 1624 1628 1630 1636 1640 1645 1648 1650 1655 1662 1668 1671 1671 1672 1673 1675 1680 1680 1680 1680 1680 1683 1685 1686 1686 1689 1691 1691 1691 1691 1691 1697 1701 1701 1702 1703 1705 1712 1720 1723 1724 1726 1728 1729 1729 1734 1739 1740 1740 1741 1741 1741 1748 1748 1753 1753 1753 1747 1739 1739 1739 1743 1749 1760 1760 1749 1758 1758 1758 1769 1782 1794 1813 1841 1859 1866 1872 1884 1894 1909 1922 1933 1945 1960 1960 1962 1963 1974 1995 1995 1995 1984 0 0 0 0 1630 1623 1609 1599 1594 1590 1585 1583 1580 1580 1580 1580 1579 1579 1579 1578 1576 1574 1570 1568 1566 1564 1562 1559 1558 1556 1554 1552 1550 1548 1546 1543 1540 1538 1535 1533 1531 1529 1529 1528 1527 1526 1526 1524 1524 1524 1524 1523 1522 1521 1519 1518 1517 1516 1515 1515 1514 1513 1512 1512 1511 1511 1511 1510 1509 1509 1508 1506 1505 1504 1504 1503 1502 1500 1498 1496 1496 1496 1495 1495 1494 1494 1494 1494 1494 1494 1493 1492 1492 1491 1491 1491 1491 1491 1490 1490 1489 1489 1488 1488 1487 1487 1487 1487 1487 1487 1487 1487 1486 1486 1486 1486 1487 1487 1487 1487 1488 1488 1488 1488 1488 1488 1488 1489 1490 1491 1493 1493 1493 1495 1496 1496 1497 1499 1501 1504 1507 1509 1513 1516 1518 1521 1523 1526 1532 1538 1542 1549 1566 1587 1621 1645 1647 1647 1647 1647 1647 1646 1640 1636 1630 1624 1619 1618 1618 1614 1611 1611 1611 1613 1613 1613 1611 1608 1607 1605 1603 1599 1598 1598 1598 1598 1599 1599 1599 1599 1599 1599 1600 1601 1604 1608 1611 1612 1613 1615 1616 1618 1620 1621 1621 1621 1621 1621 1621 1621 1619 1618 1616 1616 1615 1615 1614 1613 1610 1609 1609 1608 1607 1605 1605 1602 1600 1599 1599 1597 1594 1593 1589 1585 1584 1584 1584 1583 1583 1582 1576 1573 1570 1568 1567 1564 1561 1559 1556 1552 1552 1550 1548 1547 1546 1546 1545 1544 1542 1541 1541 1538 1534 1530 1527 1524 1522 1521 1520 1520 1520 1520 1520 1521 1523 1523 1523 1522 1519 1516 1511 1506 1502 1498 1498 1496 1490 1485 1477 1476 1469 1459 1443 0 0 0 0 0 0 0 0 0 0 0 0 0 0 0 0 0 0 0 0 0 0 0 0 0 0 0 0 0 0 0 0 0 0 0 0 0 0 0 0 0 0 0 0 0 0 0 0 0 0 0 0 0 0 0 0 0 0 0 0 0 0 0 0 0 0 0 0 0 0 0 0
342 342 344 347 351 356 356 361 361 362 376 394 396 409 414 416 416 421 421 421 419 419 419 421 423 424 425 426 429 429 429 428 424 424 424 432 434 434 434 430 422 413 400 390 390 390 406 418 418 418 404 388 387 0 0 0 0 351 368 380 388 398 0 0 475 488 488 488 488 487 487 489 0 558 568 570 570 574 574 578 585 594 599 610 614 615 615 615 615 621 625 640 650 655 673 703 0 0 0 0 0 0 0 0 0 0 0 0 0 0 0 0 0 0 1318 1322 1326 1348 1351 1359 1359 1382 1403 1413 1416 1419 1421 1422 1428 1435 1442 1447 1452 1456 1460 1466 1472 1482 1489 1493 1498 1502 1507 1510 1510 1511 1513 1519 1527 1535 1538 1541 1544 1546 1546 1547 1550 1552 1556 1560 1564 1568 1569 1571 1575 1579 1581 1582 1583 1586 1591 1595 1597 1599 1599 1600 1605 1606 1608 1610 1613 1615 1618 1623 1627 1629 1632 1637 1641 1644 1644 1649 1656 1662 1665 1665 1666 1666 1673 1674 1674 1675 1675 1675 1677 1679 1680 1682 1685 1687 1687 1687 1687 1687 1688 1692 1693 1694 1694 1701 1706 1713 1713 1714 1716 1716 1716 1718 1727 1733 1733 1733 1732 1730 1728 1720 1717 1715 1715 1717 1728 1728 1732 1739 1743 1749 1760 1764 1773 1774 1807 1809 1810 1819 1821 1842 1870 1883 1891 1894 1910 1928 1940 1950 1968 1986 1999 1999 2002 2002 2002 2014 2014 2014 2001 0 0 0 1648 1630 1619 1610 1603 1598 1593 1587 1583 1579 1579 1579 1578 1578 1578 1577 1576 1575 1573 1570 1568 1566 1564 1562 1559 1558 1556 1555 1552 1550 1548 1546 1543 1540 1538 1536 1534 1531 1530 1529 1528 1527 1526 1526 1524 1524 1524 1523 1522 1521 1521 1519 1517 1516 1515 1514 1514 1513 1513 1512 1511 1511 1511 1510 1510 1509 1508 1507 1506 1505 1504 1503 1503 1501 1498 1497 1496 1495 1495 1494 1493 1493 1492 1492 1492 1492 1492 1492 1491 1491 1490 1490 1489 1489 1488 1488 1488 1487 1487 1487 1486 1486 1486 1486 1486 1486 1486 1486 1486 1486 1486 1486 1486 1486 1486 1486 1486 1486 1487 1487 1487 1487 1488 1488 1489 1490 1491 1493 1494 1494 1495 1496 1497 1497 1500 1503 1506 1508 1511 1513 1517 1519 1519 1521 1521 1523 1526 1531 1549 1566 1588 1622 1648 1648 1648 1647 1647 1647 1646 1644 1641 1633 1625 1619 1618 1617 1614 1610 1610 1610 1610 1610 1610 1610 1607 1606 1605 1603 1601 1599 1599 1599 1599 1599 1599 1599 1599 1600 1600 1601 1603 1606 1611 1613 1613 1615 1615 1616 1618 1620 1621 1621 1621 1621 1621 1620 1619 1618 1616 1615 1614 1614 1614 1613 1612 1610 1608 1607 1606 1605 1604 1603 1600 1598 1598 1597 1594 1593 1589 1587 1585 1584 1583 1582 1582 1581 1579 1574 1571 1568 1566 1565 1563 1561 1558 1555 1552 1550 1548 1546 1546 1545 1543 1543 1541 1540 1539 1539 1537 1534 1530 1527 1523 1519 1514 1513 1513 1513 1513 1513 1513 1513 1513 1513 1513 1512 1510 1508 1503 1498 1493 1491 1491 1489 1483 1475 1470 1460 1453 1438 0 0 0 0 0 0 0 0 0 0 0 0 0 0 0 0 0 0 0 0 0 0 0 0 0 0 0 0 0 0 0 0 0 0 0 0 0 0 0 0 0 0 0 0 0 0 0 0 0 0 0 0 0 0 0 0 0 0 0 0 0 0 0 0 0 0 0 0 0 0 0 0
337 337 337 342 348 351 356 358 359 359 361 375 394 409 414 415 415 415 413 413 413 415 415 419 423 423 425 426 427 427 427 422 422 422 423 425 433 433 433 433 425 406 386 386 386 390 417 432 432 432 417 388 387 0 0 0 0 0 368 380 388 0 0 0 475 490 490 490 489 487 487 489 507 533 538 550 564 564 565 575 584 594 598 602 605 611 611 611 613 619 625 647 650 650 657 700 705 0 0 0 0 0 0 0 0 0 0 0 0 0 0 0 0 0 1299 1306 1313 1326 1334 1338 1343 1353 1373 1389 1392 1394 1396 1401 1418 1430 1438 1443 1450 1454 1457 1460 1467 1472 1482 1488 1491 1497 1503 1507 1508 1508 1510 1515 1523 1529 1533 1536 1539 1541 1542 1542 1545 1548 1552 1554 1559 1564 1568 1569 1571 1573 1574 1575 1577 1580 1585 1590 1593 1595 1597 1600 1604 1605 1605 1606 1608 1613 1617 1622 1626 1629 1632 1634 1635 1636 1636 1641 1649 1657 1657 1658 1661 1661 1662 1667 1667 1668 1668 1669 1671 1672 1673 1675 1681 1681 1681 1681 1681 1681 1682 1682 1684 1689 1691 1695 1700 1706 1706 1706 1706 1706 1706 1709 1714 1714 1715 1715 1714 1714 1703 1703 1703 1699 1715 1717 1728 1728 1732 1739 1749 1788 1815 1830 1832 1833 1835 1838 1838 1838 1850 1869 1893 1899 1906 1916 1958 1962 1969 1982 1990 1991 2000 2019 2019 2019 2019 2019 2019 2019 2001 0 0 0 1645 1630 1619 1610 1603 1598 1593 1589 1583 1579 1578 1578 1577 1577 1576 1573 1570 1569 1569 1568 1568 1565 1564 1561 1559 1558 1556 1555 1552 1551 1548 1546 1543 1540 1538 1536 1534 1531 1530 1529 1528 1527 1526 1526 1525 1524 1523 1523 1522 1521 1520 1519 1517 1516 1514 1514 1514 1513 1513 1512 1511 1511 1510 1510 1510 1509 1508 1507 1506 1504 1502 1502 1502 1500 1498 1497 1496 1495 1494 1494 1493 1493 1492 1492 1492 1492 1492 1492 1491 1490 1489 1488 1488 1488 1487 1487 1486 1485 1485 1485 1485 1485 1484 1484 1484 1484 1484 1484 1484 1484 1484 1484 1484 1485 1485 1485 1485 1486 1486 1486 1487 1487 1487 1488 1489 1490 1492 1494 1494 1495 1495 1496 1497 1498 1500 1504 1506 1508 1511 1513 1517 1520 1520 1520 1521 1521 1521 1531 1549 1566 1590 1627 1657 1657 1657 1653 1652 1651 1650 1647 1644 1634 1625 1619 1617 1617 1614 1610 1609 1609 1609 1608 1605 1605 1605 1605 1605 1603 1601 1601 1600 1600 1600 1600 1601 1601 1601 1601 1601 1603 1606 1610 1613 1614 1615 1615 1617 1617 1618 1620 1621 1621 1621 1620 1620 1620 1619 1618 1616 1615 1614 1614 1613 1612 1611 1609 1607 1605 1605 1604 1603 1601 1598 1596 1595 1593 1592 1590 1587 1587 1585 1584 1581 1581 1579 1577 1574 1571 1569 1567 1565 1563 1561 1559 1557 1555 1552 1549 1547 1546 1543 1543 1541 1541 1540 1538 1538 1535 1533 1532 1530 1527 1522 1517 1511 1506 1506 1505 1505 1505 1505 1504 1504 1504 1504 1504 1504 1504 1503 1498 1493 1491 1491 1489 1482 1472 1469 1460 1453 1435 0 0 0 0 0 0 0 0 0 0 0 0 0 0 0 0 0 0 0 0 0 0 0 0 0 0 0 0 0 0 0 0 0 0 0 0 0 0 0 0 0 0 0 0 0 0 0 0 0 0 0 0 0 0 0 0 0 0 0 0 0 0 0 0 0 0 0 0 0 0 0 0
333 333 334 338 344 347 351 352 355 357 357 359 373 388 402 411 411 411 405 405 405 408 413 417 419 422 424 426 426 426 426 422 422 422 422 425 429 433 433 433 425 405 385 385 385 402 432 432 432 432 417 400 388 0 0 0 0 0 0 0 0 0 0 0 475 490 490 490 489 487 487 489 507 533 535 550 550 554 560 566 570 575 590 593 595 601 606 610 618 626 644 646 647 649 657 688 693 697 0 0 0 0 0 0 0 0 0 0 0 0 0 0 0 0 1287 1300 1304 1316 1323 1326 1330 1338 1349 1350 1358 1359 1376 1395 1406 1423 1433 1440 1447 1452 1454 1455 1458 1466 1474 1482 1487 1493 1497 1501 1503 1505 1508 1515 1521 1526 1529 1532 1534 1535 1536 1537 1539 1541 1545 1550 1556 1558 1563 1565 1565 1567 1567 1570 1573 1576 1580 1583 1586 1589 1593 1597 1601 1603 1604 1604 1604 1609 1615 1620 1624 1625 1626 1626 1627 1627 1627 1634 1641 1652 1652 1652 1650 1650 1650 1654 1658 1660 1660 1665 1668 1669 1669 1672 1677 1677 1677 1677 1675 1675 1675 1677 1684 1686 1690 1690 1694 1698 1699 1699 1699 1695 1688 1684 1684 1684 1684 1684 1685 1681 1688 1689 1690 1699 1715 1717 1728 1746 1753 1764 1784 1814 1841 1860 1866 1866 1866 1864 1864 1864 1888 1908 1917 1920 1927 1958 1989 1990 1991 1991 1991 1991 2000 2019 2019 2019 2019 2019 2019 2019 2001 0 0 0 1641 1626 1617 1608 1603 1598 1593 1590 1583 1579 1578 1578 1577 1577 1576 1573 1570 1567 1566 1565 1565 1565 1563 1561 1559 1558 1556 1555 1552 1551 1549 1546 1543 1540 1538 1537 1534 1532 1530 1529 1529 1527 1526 1526 1525 1524 1523 1523 1522 1521 1520 1519 1517 1516 1514 1514 1513 1513 1512 1512 1511 1510 1510 1510 1509 1509 1507 1506 1505 1504 1502 1502 1501 1500 1498 1497 1495 1495 1494 1494 1493 1493 1492 1492 1492 1492 1492 1492 1491 1490 1489 1488 1487 1487 1487 1487 1486 1485 1484 1484 1484 1483 1483 1481 1481 1481 1482 1482 1482 1483 1483 1483 1483 1484 1484 1484 1485 1485 1485 1486 1487 1487 1487 1488 1489 1491 1493 1494 1495 1496 1496 1496 1497 1499 1502 1505 1507 1508 1511 1513 1517 1520 1520 1520 1521 1521 1521 1531 1549 1569 1597 1655 1667 1667 1667 1664 1662 1659 1657 1650 1644 1634 1625 1619 1617 1615 1614 1611 1610 1610 1609 1608 1605 1605 1605 1605 1604 1603 1601 1601 1601 1601 1601 1601 1601 1601 1601 1602 1603 1604 1608 1612 1614 1616 1617 1618 1618 1620 1621 1621 1621 1621 1621 1620 1620 1620 1619 1618 1616 1614 1613 1613 1612 1610 1610 1607 1606 1604 1604 1603 1602 1599 1598 1596 1595 1593 1592 1590 1587 1586 1585 1584 1581 1580 1577 1575 1573 1570 1568 1566 1563 1562 1559 1558 1556 1554 1552 1549 1547 1545 1543 1543 1541 1540 1539 1537 1534 1532 1530 1530 1530 1527 1522 1515 1506 1500 1500 1500 1499 1499 1497 1497 1496 1496 1497 1497 1499 1499 1499 1498 1493 1491 1491 1488 1480 1472 1469 1460 1453 1430 1391 0 0 0 0 0 0 0 0 0 0 0 0 0 0 0 0 0 0 0 0 0 0 0 0 0 0 0 0 0 0 0 0 0 0 0 0 0 0 0 0 0 0 0 0 0 0 0 0 0 0 0 0 0 0 0 0 0 0 0 0 0 0 0 0 0 0 0 0 0 0 0
332 332 333 336 340 344 347 348 352 352 355 358 363 373 385 394 400 400 400 400 400 404 410 412 416 420 421 424 425 425 425 422 421 421 421 425 429 431 431 431 425 404 387 387 387 412 432 432 432 432 417 411 403 403 403 402 397 0 0 382 417 427 428 451 466 478 483 489 490 490 494 502 516 525 529 532 536 537 556 558 560 563 568 580 584 596 609 616 617 628 644 644 645 649 652 657 670 674 0 0 0 0 0 0 0 0 0 0 0 0 0 0 0 0 0 1272 1280 1304 1314 1314 1315 1320 1333 1340 1346 1352 1369 1378 1399 1415 1425 1433 1442 1448 1449 1450 1451 1459 1470 1478 1485 1489 1492 1495 1496 1499 1505 1510 1516 1523 1526 1527 1528 1529 1529 1530 1532 1532 1533 1537 1549 1555 1557 1559 1559 1561 1564 1566 1569 1572 1574 1575 1576 1580 1585 1590 1594 1596 1598 1599 1602 1607 1611 1616 1619 1619 1619 1618 1618 1618 1620 1628 1637 1643 1643 1643 1641 1641 1641 1643 1648 1653 1658 1663 1665 1666 1666 1667 1671 1675 1675 1675 1674 1673 1673 1673 1681 1686 1686 1688 1689 1689 1689 1689 1689 1680 1668 1663 1663 1663 1670 1671 1677 1681 1688 1689 1690 1718 1728 1749 1751 1763 1774 1792 1817 1838 1860 1877 1878 1878 1878 1878 1878 1888 1915 1934 1934 1938 1945 1958 1989 1990 1991 1991 1991 1991 2000 2019 2019 2019 2019 2017 2015 2008 1994 0 0 0 1636 1625 1615 1608 1598 1595 1594 1590 1583 1579 1577 1577 1576 1576 1576 1572 1570 1567 1566 1565 1563 1563 1563 1561 1559 1558 1556 1555 1552 1552 1550 1547 1544 1541 1538 1537 1534 1532 1531 1530 1529 1528 1526 1526 1525 1524 1523 1522 1521 1521 1520 1519 1517 1516 1514 1514 1513 1512 1512 1512 1511 1510 1509 1509 1508 1508 1507 1506 1505 1504 1502 1502 1501 1500 1498 1497 1494 1494 1494 1494 1493 1493 1493 1492 1492 1492 1492 1491 1491 1490 1489 1488 1487 1487 1486 1486 1485 1484 1483 1483 1483 1482 1481 1480 1480 1480 1482 1482 1482 1482 1483 1483 1483 1484 1484 1484 1484 1484 1484 1485 1486 1487 1487 1488 1489 1491 1493 1494 1496 1496 1497 1497 1497 1500 1504 1506 1507 1508 1510 1513 1518 1518 1518 1518 1518 1518 1521 1539 1563 1585 1640 1668 1672 1672 1672 1664 1662 1659 1657 1650 1644 1634 1625 1619 1617 1615 1614 1613 1612 1611 1609 1608 1605 1605 1605 1605 1604 1603 1602 1601 1601 1601 1601 1601 1601 1602 1602 1603 1605 1607 1610 1614 1616 1617 1619 1619 1620 1622 1622 1622 1622 1621 1621 1620 1620 1619 1619 1618 1616 1614 1612 1611 1610 1609 1609 1606 1604 1603 1602 1601 1601 1599 1597 1596 1595 1593 1592 1589 1587 1586 1585 1584 1581 1578 1575 1572 1571 1567 1565 1564 1562 1560 1559 1558 1556 1554 1551 1549 1547 1545 1543 1543 1540 1539 1537 1536 1533 1531 1528 1528 1527 1526 1518 1510 1501 1495 1495 1495 1494 1494 1493 1492 1492 1492 1492 1492 1494 1497 1497 1497 1496 1494 1494 1485 1476 1472 1469 1466 1451 1428 1394 0 0 0 0 0 0 0 0 0 0 0 0 0 0 0 0 0 0 0 0 0 0 0 0 0 0 0 0 0 0 0 0 0 0 0 0 0 0 0 0 0 0 0 0 0 0 0 0 0 0 0 0 0 0 0 0 0 0 0 0 0 0 0 0 0 0 0 0 0 0 0
332 332 333 336 336 340 344 346 347 352 355 357 360 364 373 382 382 382 387 387 392 404 410 411 412 416 419 421 423 423 423 423 421 421 421 423 428 431 431 431 427 404 390 390 390 414 414 414 407 407 407 414 414 414 413 413 397 397 397 400 417 423 428 432 451 466 479 481 486 495 499 507 516 518 525 526 526 537 556 558 560 563 568 580 584 596 606 611 616 628 643 644 644 644 643 644 647 647 682 0 0 0 0 0 0 0 0 0 0 0 0 0 0 0 0 1252 1265 1287 1301 1307 1312 1319 1327 1333 1335 1348 1352 1372 1374 1399 1417 1425 1436 1439 1440 1441 1447 1459 1470 1478 1484 1486 1488 1489 1493 1497 1500 1504 1507 1515 1519 1521 1522 1522 1521 1521 1521 1521 1528 1533 1539 1547 1551 1554 1555 1557 1562 1565 1565 1565 1566 1567 1567 1570 1575 1582 1586 1589 1592 1594 1598 1603 1607 1608 1609 1610 1610 1611 1611 1613 1617 1624 1628 1632 1632 1632 1632 1632 1632 1636 1642 1646 1653 1658 1660 1660 1661 1662 1662 1667 1670 1670 1670 1670 1670 1671 1680 1686 1686 1686 1677 1667 1659 1659 1658 1658 1652 1652 1652 1654 1670 1671 1677 1688 1689 1690 1708 1723 1743 1761 1764 1773 1787 1803 1831 1854 1873 1884 1886 1886 1887 1888 1888 1907 1928 1936 1943 1946 1951 1958 1989 1990 1990 1990 1976 1976 1976 1986 2001 2008 2008 2008 2000 1977 1969 0 0 0 1635 1623 1614 1608 1598 1595 1593 1590 1584 1579 1576 1576 1576 1576 1575 1572 1569 1567 1566 1565 1563 1562 1561 1560 1559 1558 1556 1555 1555 1553 1551 1548 1545 1542 1539 1537 1535 1533 1532 1531 1530 1528 1527 1526 1525 1525 1523 1522 1521 1521 1520 1519 1517 1516 1514 1514 1513 1512 1512 1511 1511 1510 1509 1508 1508 1508 1507 1506 1505 1504 1503 1502 1501 1499 1497 1496 1494 1493 1493 1493 1493 1493 1493 1493 1492 1492 1492 1491 1490 1490 1489 1488 1487 1486 1486 1486 1484 1482 1482 1482 1482 1481 1479 1479 1479 1480 1482 1482 1482 1482 1483 1483 1483 1484 1484 1484 1484 1484 1484 1485 1485 1486 1487 1488 1489 1491 1493 1494 1496 1498 1498 1499 1499 1502 1504 1506 1507 1508 1510 1513 1518 1518 1518 1517 1517 1517 1525 1548 1575 1600 1650 1669 1672 1672 1672 1664 1662 1659 1657 1650 1641 1634 1626 1620 1617 1615 1614 1614 1613 1611 1609 1608 1607 1606 1605 1605 1603 1602 1602 1601 1601 1601 1601 1601 1602 1603 1603 1605 1606 1609 1613 1616 1618 1620 1620 1621 1621 1622 1622 1622 1622 1622 1621 1620 1620 1620 1619 1618 1616 1613 1611 1610 1610 1609 1607 1605 1603 1602 1601 1600 1600 1598 1597 1596 1595 1593 1591 1589 1587 1586 1584 1581 1579 1575 1572 1570 1567 1564 1562 1561 1560 1559 1559 1558 1555 1554 1551 1549 1547 1545 1544 1543 1539 1539 1537 1534 1531 1527 1524 1523 1523 1516 1513 1504 1495 1492 1489 1488 1487 1487 1487 1487 1488 1488 1489 1489 1492 1494 1494 1496 1496 1494 1494 1482 1475 1474 1472 1466 1448 1425 1403 0 0 0 0 0 0 0 0 0 0 0 0 0 0 0 0 0 0 0 0 0 0 0 0 0 0 0 0 0 0 0 0 0 0 0 0 0 0 0 0 0 0 0 0 0 0 0 0 0 0 0 0 0 0 0 0 0 0 0 0 0 0 0 0 0 0 0 0 0 0 0
331 331 332 334 335 337 340 341 343 347 352 355 358 360 363 372 372 375 378 378 390 401 408 410 411 412 416 418 420 423 423 423 421 421 421 423 427 431 431 431 427 406 390 390 390 407 407 407 406 406 406 415 419 419 419 418 410 410 410 427 427 430 432 432 449 461 469 475 480 495 500 507 509 509 516 516 526 537 556 558 560 563 568 580 584 593 606 611 616 621 623 626 635 632 632 643 646 646 668 678 701 0 0 0 0 0 0 0 0 0 0 0 0 0 0 1226 1241 1258 1279 1289 1301 1312 1325 1328 1331 1335 1349 1368 1368 1392 1400 1414 1418 1425 1431 1441 1446 1456 1470 1477 1482 1483 1483 1483 1485 1492 1496 1499 1501 1505 1511 1512 1512 1512 1512 1512 1514 1518 1523 1529 1535 1542 1545 1546 1549 1554 1559 1560 1560 1560 1558 1558 1558 1562 1567 1573 1579 1582 1585 1589 1594 1600 1604 1604 1604 1604 1604 1605 1609 1611 1614 1620 1624 1625 1625 1625 1625 1625 1627 1631 1638 1641 1646 1651 1653 1653 1653 1653 1653 1656 1665 1665 1665 1665 1665 1671 1679 1685 1685 1685 1672 1662 1634 1633 1633 1634 1638 1639 1647 1654 1670 1684 1701 1701 1702 1704 1716 1732 1752 1774 1787 1789 1800 1820 1849 1868 1879 1884 1886 1887 1890 1894 1895 1910 1928 1936 1945 1951 1953 1958 1965 1976 1976 1968 1965 1963 1963 1963 1976 1983 1983 1983 1959 1943 1925 0 0 0 1626 1613 1606 1603 1598 1594 1593 1590 1583 1580 1577 1575 1575 1573 1573 1572 1569 1567 1566 1565 1563 1562 1560 1559 1558 1557 1556 1555 1555 1553 1551 1548 1545 1544 1542 1539 1537 1534 1534 1532 1531 1529 1527 1526 1525 1525 1523 1522 1522 1521 1520 1519 1518 1516 1514 1514 1513 1512 1512 1511 1510 1510 1509 1508 1508 1508 1507 1506 1505 1504 1503 1502 1501 1499 1497 1495 1494 1493 1493 1493 1493 1493 1493 1493 1492 1492 1492 1491 1490 1489 1488 1487 1486 1486 1485 1483 1482 1482 1481 1481 1481 1480 1478 1478 1478 1480 1481 1481 1481 1482 1483 1483 1484 1484 1484 1484 1484 1484 1484 1485 1485 1486 1487 1488 1489 1491 1492 1494 1496 1498 1500 1500 1500 1502 1505 1506 1507 1508 1510 1513 1518 1518 1518 1518 1518 1518 1531 1554 1583 1615 1658 1671 1672 1672 1672 1664 1662 1659 1656 1649 1640 1634 1628 1623 1619 1615 1614 1614 1613 1611 1609 1608 1607 1606 1605 1604 1603 1602 1601 1601 1601 1601 1601 1602 1603 1604 1605 1607 1609 1612 1615 1618 1623 1623 1623 1623 1623 1623 1623 1623 1623 1622 1621 1620 1620 1620 1619 1618 1615 1612 1610 1609 1609 1608 1606 1605 1603 1601 1599 1599 1598 1597 1596 1594 1594 1592 1590 1588 1587 1584 1582 1580 1576 1571 1568 1566 1566 1564 1562 1561 1560 1559 1558 1557 1555 1553 1551 1549 1547 1545 1544 1543 1539 1539 1537 1534 1529 1523 1519 1517 1513 1511 1506 1500 1495 1492 1488 1488 1484 1482 1482 1482 1483 1485 1487 1488 1491 1492 1492 1493 1494 1494 1494 1481 1474 1472 1471 1466 1448 1418 1402 0 0 0 0 0 0 0 0 0 0 0 0 0 0 0 0 0 0 0 0 0 0 0 0 0 0 0 0 0 0 0 0 0 0 0 0 0 0 0 0 0 0 0 0 0 0 0 0 0 0 0 0 0 0 0 0 0 0 0 0 0 0 0 0 0 0 0 0 0 0 0
328 328 332 332 333 335 338 339 340 342 348 352 357 359 361 363 370 371 374 376 389 401 407 408 410 410 411 414 416 420 420 420 420 420 420 420 424 428 428 428 426 414 402 402 402 402 402 401 401 401 404 415 420 420 420 418 410 410 410 430 430 432 432 432 449 457 461 466 477 495 500 500 500 505 505 505 526 550 566 571 572 572 578 583 584 586 588 590 597 599 601 609 623 632 632 635 642 646 668 675 701 713 0 0 0 0 0 0 0 0 0 0 0 0 0 0 1215 1235 1253 1270 1288 1304 1316 1327 1329 1332 1339 1351 1365 1371 1381 1394 1409 1419 1431 1441 1446 1454 1466 1474 1478 1478 1478 1479 1481 1485 1491 1495 1495 1497 1502 1504 1505 1505 1506 1507 1509 1513 1516 1521 1527 1536 1538 1541 1545 1551 1558 1558 1558 1557 1554 1554 1554 1555 1561 1569 1576 1578 1581 1584 1590 1596 1599 1599 1599 1599 1599 1603 1607 1610 1613 1617 1620 1620 1620 1620 1622 1623 1624 1626 1630 1634 1636 1639 1640 1641 1642 1643 1645 1650 1653 1654 1654 1654 1657 1666 1675 1675 1675 1673 1646 1631 1631 1631 1633 1634 1638 1639 1647 1683 1695 1706 1712 1716 1717 1718 1722 1746 1766 1788 1805 1817 1821 1845 1872 1884 1885 1886 1886 1886 1886 1894 1895 1910 1928 1936 1945 1953 1953 1953 1954 1954 1959 1959 1959 1951 1951 1951 1952 1956 1956 1956 1946 1930 1910 0 0 0 1626 1613 1606 1603 1596 1594 1593 1588 1583 1580 1578 1575 1574 1573 1573 1571 1569 1567 1566 1565 1563 1562 1560 1559 1557 1556 1556 1555 1555 1553 1551 1548 1546 1545 1543 1541 1539 1537 1535 1533 1532 1530 1529 1527 1525 1525 1524 1523 1522 1522 1520 1519 1518 1516 1514 1513 1513 1512 1511 1511 1510 1510 1509 1508 1507 1507 1507 1506 1505 1503 1503 1502 1501 1499 1497 1495 1494 1493 1493 1493 1493 1493 1493 1493 1492 1492 1492 1490 1489 1488 1486 1486 1485 1485 1484 1482 1481 1481 1479 1479 1479 1477 1477 1477 1477 1478 1481 1481 1481 1482 1483 1483 1484 1484 1484 1485 1485 1485 1485 1485 1485 1486 1487 1488 1489 1490 1492 1493 1496 1499 1501 1502 1502 1504 1507 1509 1510 1511 1512 1516 1518 1518 1518 1519 1519 1521 1536 1562 1593 1629 1658 1671 1671 1671 1668 1664 1662 1657 1649 1643 1640 1634 1632 1626 1621 1617 1614 1614 1613 1611 1609 1608 1607 1606 1605 1603 1601 1601 1601 1601 1601 1602 1602 1603 1605 1606 1606 1608 1610 1613 1616 1621 1624 1624 1624 1624 1624 1624 1624 1624 1624 1623 1621 1620 1620 1619 1619 1618 1614 1611 1610 1609 1607 1607 1606 1604 1603 1601 1599 1597 1597 1597 1595 1593 1591 1590 1588 1587 1585 1584 1581 1577 1573 1570 1568 1566 1566 1564 1562 1561 1560 1559 1558 1557 1555 1553 1551 1549 1547 1545 1545 1543 1540 1539 1537 1534 1528 1523 1516 1512 1509 1505 1501 1500 1495 1492 1488 1487 1484 1482 1480 1480 1480 1482 1484 1488 1488 1489 1490 1490 1490 1490 1490 1477 1474 1471 1470 1454 1437 1417 1406 0 0 0 0 0 0 0 0 0 0 0 0 0 0 0 0 0 0 0 0 0 0 0 0 0 0 0 0 0 0 0 0 0 0 0 0 0 0 0 0 0 0 0 0 0 0 0 0 0 0 0 0 0 0 0 0 0 0 0 0 0 0 0 0 0 0 0 0 0 0 0
324 324 326 328 330 334 338 338 339 342 343 348 353 358 359 363 365 367 368 376 389 401 403 404 406 406 410 413 414 417 419 420 420 420 420 420 423 426 426 426 426 420 414 414 411 410 410 401 401 401 404 418 423 423 423 418 418 418 419 432 432 432 432 432 447 457 461 463 475 489 497 497 497 497 501 505 545 566 575 575 578 580 581 583 585 586 586 590 597 599 601 609 623 635 640 642 645 647 668 675 701 713 736 0 0 0 0 0 0 0 0 0 0 0 0 0 0 1210 1232 1254 1276 1295 1312 1321 1324 1331 1339 1346 1350 1361 1381 1394 1408 1419 1431 1442 1446 1453 1461 1467 1471 1476 1476 1476 1477 1481 1483 1483 1486 1491 1493 1496 1499 1500 1502 1505 1508 1509 1510 1515 1521 1530 1534 1538 1543 1549 1555 1555 1555 1554 1552 1549 1549 1549 1551 1560 1568 1575 1579 1581 1587 1592 1594 1595 1595 1595 1598 1600 1604 1608 1612 1614 1614 1615 1615 1618 1621 1623 1623 1626 1628 1628 1628 1629 1629 1631 1633 1634 1635 1637 1639 1639 1641 1643 1641 1638 1635 1625 1625 1625 1630 1630 1631 1631 1633 1634 1638 1639 1647 1697 1712 1719 1725 1735 1736 1738 1741 1764 1784 1810 1829 1844 1865 1868 1872 1882 1882 1882 1882 1882 1883 1894 1895 1910 1914 1928 1945 1953 1953 1953 1947 1947 1946 1945 1940 1937 1931 1931 1931 1930 1932 1932 1928 1915 1886 0 0 0 1626 1613 1606 1603 1597 1593 1587 1584 1582 1580 1578 1575 1574 1573 1573 1571 1569 1567 1565 1564 1563 1562 1560 1559 1557 1556 1553 1552 1551 1551 1550 1548 1546 1545 1543 1542 1540 1538 1536 1533 1532 1531 1529 1527 1526 1525 1524 1523 1523 1523 1520 1519 1517 1516 1514 1513 1513 1512 1511 1511 1510 1509 1508 1508 1508 1507 1507 1506 1505 1503 1502 1502 1501 1499 1497 1495 1494 1493 1493 1493 1493 1493 1493 1492 1492 1491 1491 1490 1488 1487 1486 1485 1484 1484 1483 1482 1480 1479 1478 1477 1477 1476 1476 1476 1476 1478 1479 1480 1481 1482 1483 1483 1484 1485 1485 1485 1485 1485 1485 1485 1486 1486 1487 1488 1489 1490 1492 1493 1496 1499 1502 1505 1507 1508 1508 1511 1513 1514 1515 1518 1519 1519 1519 1519 1520 1530 1537 1563 1594 1629 1663 1671 1671 1671 1668 1664 1662 1657 1649 1643 1640 1634 1632 1626 1623 1619 1615 1612 1611 1610 1609 1607 1607 1606 1603 1602 1601 1601 1601 1601 1602 1602 1602 1604 1606 1607 1608 1610 1612 1615 1617 1621 1624 1626 1626 1626 1626 1626 1626 1626 1625 1623 1622 1620 1619 1619 1618 1615 1612 1610 1609 1608 1607 1606 1605 1604 1603 1601 1599 1597 1597 1596 1594 1593 1591 1590 1588 1587 1585 1584 1581 1577 1573 1570 1568 1566 1566 1564 1562 1561 1560 1559 1558 1557 1555 1553 1551 1549 1547 1545 1545 1544 1541 1539 1537 1534 1528 1521 1516 1512 1509 1505 1501 1500 1495 1494 1491 1487 1484 1482 1480 1480 1480 1481 1482 1484 1484 1486 1486 1486 1485 1484 1479 1471 1467 1467 1467 1446 1429 1415 1406 0 0 0 0 0 0 0 0 0 0 0 0 0 0 0 0 0 0 0 0 0 0 0 0 0 0 0 0 0 0 0 0 0 0 0 0 0 0 0 0 0 0 0 0 0 0 0 0 0 0 0 0 0 0 0 0 0 0 0 0 0 0 0 0 0 0 0 0 0 0 0
